# .PCD v0.7 - Point Cloud Data file format
VERSION 0.7
FIELDS x y z intensity normal_x normal_y normal_z curvature
SIZE 4 4 4 4 4 4 4 4
TYPE F F F F F F F F
COUNT 1 1 1 1 1 1 1 1
WIDTH 180
HEIGHT 1
VIEWPOINT 0 0 0 1 0 0 0
POINTS 180
DATA ascii
2.4226 3.3540804 -2.199944 10 0.093770072 0.058710005 0.99386132 0.0019100725
2.4309182 3.3458736 -2.1990049 10 0.093021818 0.059884559 0.99386156 0.0018304774
2.4360855 3.3333685 -2.1952491 11 0.09257628 0.060004525 0.99389589 0.0018166993
2.4454987 3.3242769 -2.1943102 9 0.092136212 0.060627766 0.99389905 0.0017873201
2.4589746 3.3231122 -2.198066 9 0.092272803 0.06071613 0.99388087 0.0017750588
2.4735162 3.3233159 -2.2027607 9 0.091528669 0.060857188 0.99394113 0.0017199137
2.4823065 3.3145487 -2.2018218 9 0.091319069 0.061293323 0.99393362 0.0017107732
2.4900057 3.3043482 -2.199944 7 0.091053464 0.061460916 0.99394757 0.0016804618
2.4987297 3.2955399 -2.1990049 9 0.090634391 0.061948884 0.99395555 0.0016547182
2.5100656 3.2913568 -2.2008829 11 0.090377145 0.063037582 0.99391055 0.0015506604
2.5203211 3.2857361 -2.2018218 9 0.090466648 0.063139394 0.99389601 0.0015446349
2.5317099 3.2792006 -2.2027607 9 0.089211375 0.063888982 0.99396145 0.0014095102
2.5343599 3.2637486 -2.1971271 11 0.088711664 0.064253844 0.99398273 0.0013519941
2.5445504 3.2580507 -2.198066 11 0.088599429 0.064864829 0.99395311 0.0013070607
2.5580482 3.254205 -2.2008829 10 0.087984368 0.064996496 0.99399912 0.0012714023
2.5676548 3.2488813 -2.2018218 10 0.08818835 0.065043911 0.9939779 0.0012698163
2.5761836 3.239867 -2.2008829 9 0.088015325 0.065168791 0.99398506 0.001253179
2.5907621 3.237273 -2.2046385 9 0.087025858 0.065851197 0.99402726 0.0011460679
2.592025 3.222676 -2.1990049 9 0.087379344 0.066075772 0.99398124 0.0011400332
2.6043582 3.2172625 -2.2008829 7 0.087278694 0.065193988 0.99404836 0.0011333995
2.6183538 3.2149973 -2.2046385 6 0.087209597 0.065328985 0.99404562 0.0011207785
2.6289988 3.2108645 -2.2065165 6 0.08713311 0.065144546 0.99406439 0.0011232116
2.6362662 3.2003255 -2.2046385 4 0.08750575 0.065225303 0.99402642 0.0010999249
2.6451828 3.1906664 -2.2036996 4 0.087356396 0.064852998 0.99406385 0.0010953579
2.6507084 3.1814816 -2.2018218 4 0.08757171 0.065140784 0.99402612 0.0010700499
2.6640949 3.1771972 -2.2046385 4 0.087712802 0.065250441 0.99400645 0.0010628217
2.6723711 3.1679294 -2.2036996 4 0.087909557 0.064817175 0.99401742 0.0010574649
2.6772287 3.1568825 -2.2008829 4 0.088228211 0.064487338 0.99401063 0.0010612159
2.6871338 3.1484551 -2.2008829 4 0.088380054 0.064354524 0.99400574 0.001068364
2.6993654 3.1449597 -2.2036996 4 0.088712834 0.064308062 0.99397916 0.0010639164
2.701215 3.1293879 -2.198066 4 0.089014865 0.064654179 0.99392968 0.0010423926
2.7197504 3.1320267 -2.2055776 5 0.089378148 0.064621091 0.99389929 0.0010392759
2.7255454 3.1199541 -2.2027607 4 0.089895815 0.065230802 0.99381268 0.0010336868
2.7330828 3.1110029 -2.2018218 4 0.090192348 0.06527169 0.99378312 0.0010377365
2.7458103 3.1068487 -2.2046385 4 0.090578541 0.064932942 0.99377018 0.0010473307
2.7550144 3.09869 -2.2046385 4 0.0907536 0.064614318 0.99377501 0.0010448968
2.7653744 3.0918176 -2.2055776 4 0.091263995 0.065674797 0.99365872 0.0009868535
2.7751794 3.0853951 -2.2065165 4 0.091464259 0.065579318 0.99364668 0.00099097798
2.7831352 3.0758402 -2.2055776 4 0.091845177 0.066189051 0.99357104 0.00097841921
2.7947433 3.0724611 -2.2083943 4 0.092141598 0.06613908 0.9935469 0.00098601589
2.804383 3.0636652 -2.2083943 4 0.092373833 0.066008814 0.99353403 0.00097022718
2.8141232 3.0571218 -2.2093334 4 0.092582695 0.065930121 0.9935199 0.0009678824
2.820781 3.0461679 -2.2074554 3 0.092297837 0.066630386 0.99349958 0.00091459008
2.8310113 3.0390761 -2.2083943 4 0.092558905 0.066575274 0.99347901 0.00090571906
2.8394864 3.0311589 -2.2083943 4 0.092617735 0.066961281 0.99344766 0.00090480276
2.8479393 3.0232184 -2.2083943 3 0.092560895 0.067375816 0.99342483 0.00089245447
2.8587992 3.0178182 -2.2102723 4 0.092928335 0.067537867 0.99337959 0.00089104433
2.8707037 3.0113778 -2.2121503 3 0.093473837 0.06769301 0.99331778 0.00088783773
2.8778791 3.002075 -2.2112112 3 0.094407953 0.069977507 0.99307114 0.00070498831
2.8885233 2.9942894 -2.2121503 3 0.094394624 0.070029989 0.9930687 0.00070273917
2.8958306 2.9872229 -2.2121503 3 0.094714567 0.069887988 0.99304831 0.00069960649
2.9039671 2.9768472 -2.2112112 3 0.094985992 0.070160471 0.99300313 0.00070931145
2.9135051 2.9699872 -2.2121503 3 0.095242284 0.071123131 0.99291009 0.00058266637
2.9198244 2.9588149 -2.2102723 3 0.095582634 0.071152039 0.99287528 0.00058586849
2.9280765 2.9506485 -2.2102723 3 0.096140862 0.071094848 0.99282551 0.0005811876
2.947314 2.9514327 -2.2177839 3 0.096729435 0.070791781 0.99278998 0.00057331921
2.955544 2.9431913 -2.2177839 3 0.096950747 0.070611417 0.99278122 0.00057155843
2.9599881 2.9311976 -2.214967 3 0.09723863 0.069983713 0.99279755 0.00055823161
2.9616294 2.9144528 -2.2093334 3 0.09753634 0.069461673 0.992805 0.00054355129
2.9712658 2.9096775 -2.2112112 3 0.097917087 0.069505244 0.99276441 0.00053563836
2.982923 2.9027925 -2.213089 3 0.098414481 0.069340013 0.9927268 0.00053217163
2.996599 2.8988409 -2.2168448 3 0.099227555 0.069063775 0.99266511 0.00052164833
3.0029063 2.8897607 -2.2159059 3 0.099615686 0.068578161 0.99265987 0.00052279868
3.0089147 2.8783972 -2.2140279 3 0.099873796 0.06839408 0.99264675 0.00052613602
3.0200019 2.8718898 -2.2159059 3 0.10029709 0.068146706 0.99262106 0.00051516347
3.0280094 2.863446 -2.2159059 3 0.10079183 0.068016879 0.99257982 0.00051059591
3.0416381 2.8592875 -2.2196617 3 0.10120937 0.068339698 0.99251521 0.00046032618
3.0454438 2.8448966 -2.2159059 3 0.1016223 0.067231633 0.9925487 0.00044323521
3.0541756 2.838115 -2.2168448 3 0.10200295 0.066829279 0.99253684 0.00043082063
3.0638797 2.8302393 -2.2177839 3 0.10282167 0.06642779 0.99247921 0.00040430031
3.0722647 2.8211353 -2.2177839 3 0.10333706 0.066540472 0.99241817 0.00037739091
3.0796394 2.8130829 -2.2177839 3 0.10446278 0.066053301 0.99233288 0.00035536735
3.0897686 2.8045816 -2.2187228 3 0.10502168 0.065741427 0.99229455 0.00034099756
3.101522 2.7994909 -2.2215397 3 0.10640652 0.065146111 0.99218631 0.00030296054
3.110641 2.7919991 -2.2224786 3 0.10700294 0.064078912 0.99219167 0.00027326777
3.1193964 2.7822134 -2.2224786 3 0.10773075 0.064055905 0.99211431 0.00025479266
3.12187 2.7688038 -2.2187228 3 0.10824141 0.063806042 0.99207491 0.00023538039
3.1318772 2.7601507 -2.2196617 3 0.10864928 0.062837072 0.99209213 0.00020568498
3.1435566 2.7548862 -2.2224786 3 0.10907091 0.061829962 0.99210912 0.00018192145
3.1472445 2.7426155 -2.2196617 3 0.10955358 0.061636385 0.99206799 0.00015536812
3.1580384 2.7355769 -2.2215397 3 0.11012649 0.061376531 0.99202073 0.00013943978
3.1678641 2.7296054 -2.2234175 3 0.11041343 0.060411267 0.99204803 0.00010937826
3.1777649 2.7207894 -2.2243564 3 0.11000214 0.059702773 0.99213666 9.6902244e-05
3.1866944 2.7130499 -2.2252953 3 0.10991865 0.059544582 0.99215543 9.884774e-05
3.1866419 2.6967387 -2.2196617 3 0.10985231 0.059161648 0.99218559 8.9552574e-05
3.196394 2.6906605 -2.2215397 3 0.10991383 0.05909894 0.99218261 8.7600412e-05
3.2075393 2.6828721 -2.2234175 3 0.10999212 0.058712803 0.99219686 9.0579073e-05
3.2177351 2.676162 -2.2252953 3 0.10999708 0.058739111 0.99219471 8.5787302e-05
3.2251954 2.6671662 -2.2252953 3 0.11008845 0.058562845 0.99219501 8.934475e-05
3.2262733 2.6519792 -2.2206006 3 0.11015713 0.058288746 0.99220353 8.3636587e-05
3.2427945 2.6485333 -2.2262342 3 0.110214 0.058227673 0.99220085 7.9419871e-05
3.2414944 2.6333528 -2.2206006 3 0.11023471 0.057909261 0.99221712 7.9799342e-05
3.2561626 2.629271 -2.2252953 2 0.11022198 0.057691939 0.99223125 7.4702271e-05
3.2634931 2.6201668 -2.2252953 3 0.11023761 0.057721864 0.99222773 6.9259098e-05
3.2703276 2.6088009 -2.2243564 3 0.11021942 0.057448406 0.99224561 6.6263201e-05
3.2817502 2.602951 -2.2271733 3 0.11020709 0.057521462 0.99224269 6.3646374e-05
3.2908463 2.5942945 -2.2281122 3 0.11023093 0.057438005 0.9922449 5.9205478e-05
3.2971389 2.5834305 -2.2271733 3 0.1102793 0.057276946 0.99224883 6.4271997e-05
3.3052845 2.5758741 -2.2281122 2 0.11032259 0.057248939 0.99224567 6.548463e-05
3.3175488 2.5687213 -2.2309291 2 0.11043445 0.057388846 0.99222517 5.5411867e-05
3.3130689 2.5514081 -2.2234175 2 0.11054236 0.057328321 0.99221665 5.759038e-05
3.3342028 2.552881 -2.2328069 2 0.11058097 0.057129018 0.99222386 5.7522084e-05
3.3328102 2.5343287 -2.2262342 2 0.11060959 0.057086259 0.99222314 5.9444897e-05
3.345068 2.5298543 -2.22999 2 0.11061218 0.05695235 0.99223047 6.1102677e-05
3.3521192 2.5205038 -2.22999 2 0.1105906 0.056700669 0.99224734 5.5985231e-05
3.3656802 2.5141888 -2.2337458 2 0.11056294 0.056527384 0.99226034 5.6053108e-05
3.3665795 2.5011563 -2.22999 2 0.11059529 0.056155831 0.9922778 5.7892354e-05
3.3815258 2.4958105 -2.2346847 2 0.11049084 0.055868383 0.99230564 5.6437217e-05
3.3860679 2.4836779 -2.2328069 2 0.11043961 0.055614349 0.9923256 5.6796718e-05
3.3925581 2.4748051 -2.2328069 2 0.11038605 0.055449557 0.9923408 5.4396409e-05
3.4013166 2.465764 -2.2337458 2 0.11047316 0.055046842 0.99235356 5.9283579e-05
3.4000201 2.4494684 -2.2281122 2 0.11042731 0.054794598 0.99237257 6.5049731e-05
3.4154613 2.4461343 -2.2337458 2 0.11041967 0.054590963 0.99238461 6.9988622e-05
3.4245696 2.4364133 -2.2346847 2 0.11022293 0.054367069 0.99241871 7.1504757e-05
3.4352608 2.4304996 -2.2375016 2 0.11017097 0.054011762 0.99244398 7.200463e-05
3.4511242 2.4263909 -2.2431355 2 0.11007507 0.053876221 0.99246204 7.5900985e-05
3.4496222 2.410073 -2.2375016 2 0.11018112 0.053354178 0.99247843 7.779507e-05
3.4563396 2.4004292 -2.2375016 2 0.10997231 0.052999485 0.99252063 7.9220714e-05
3.4580491 2.3855491 -2.2337458 2 0.11004202 0.052908115 0.99251777 8.1933264e-05
3.4792614 2.3858688 -2.2431355 1 0.1098362 0.052828614 0.99254489 8.4299005e-05
3.4884131 2.378742 -2.245013 1 0.109717 0.052708644 0.99256438 8.5511798e-05
3.4954553 2.3683817 -2.245013 1 0.10960478 0.05231395 0.9925977 8.4417661e-05
3.4955544 2.3524582 -2.2403185 1 0.10948829 0.052113045 0.992621 8.6035325e-05
3.5046356 2.3452635 -2.2421963 1 0.10939236 0.051887721 0.99264342 8.5777203e-05
3.5204022 2.3407202 -2.2478299 1 0.10920499 0.051900152 0.99266344 8.4557054e-05
3.5214372 2.3263733 -2.2440741 1 0.10917283 0.051641621 0.99268043 8.4598723e-05
3.5234919 2.3136218 -2.2412574 1 0.10904028 0.051493224 0.99270272 8.9258152e-05
3.536659 2.3064001 -2.245013 1 0.10892884 0.051278025 0.99272609 9.0665184e-05
3.5426848 2.2971337 -2.245013 1 0.10886633 0.05117137 0.99273849 8.8269153e-05
3.5490863 2.2872307 -2.245013 1 0.10866345 0.050925676 0.99277341 8.7870067e-05
3.5562551 2.2760684 -2.245013 1 0.10856822 0.050766289 0.99279195 8.9477806e-05
3.555146 2.2613926 -2.2403185 1 0.10851403 0.050413098 0.99281567 8.9356341e-05
3.5614479 2.2514546 -2.2403185 1 0.1082821 0.050183263 0.99285275 9.1884896e-05
3.5725994 2.2436943 -2.2431355 1 0.10817203 0.049923912 0.9928779 8.8823748e-05
3.5833447 2.2365143 -2.2459521 1 0.10813368 0.049823832 0.99288702 8.9184032e-05
3.591465 2.2268038 -2.246891 1 0.10809579 0.049600948 0.9929024 8.7477361e-05
3.6025679 2.218915 -2.2497079 1 0.10803407 0.049413115 0.99291843 9.0805595e-05
3.6004817 2.2020588 -2.2440741 1 0.10786439 0.048954926 0.99295956 9.2568218e-05
3.6107605 2.1953781 -2.246891 1 0.10779734 0.048723329 0.99297827 9.433052e-05
3.6127245 2.1819153 -2.2440741 1 0.10777269 0.048451565 0.99299419 9.6298347e-05
3.6233454 2.1745448 -2.246891 1 0.10772439 0.048262835 0.99300861 9.8513003e-05
3.6248546 2.1617036 -2.2440741 1 0.10766528 0.048072208 0.99302435 9.8387318e-05
3.6285882 2.1485064 -2.2421963 1 0.10759536 0.047946442 0.99303794 0.00010199643
3.637991 2.1395216 -2.2440741 1 0.10746246 0.047747511 0.99306196 0.00010277067
3.6485252 2.1320276 -2.246891 1 0.10750198 0.047626249 0.99306351 0.00010417962
3.6575196 2.1236031 -2.248769 1 0.10734921 0.04726902 0.99309701 0.00010330905
3.6530955 2.1065671 -2.2421963 1 0.10724581 0.04695173 0.99312329 0.00010598882
3.6635611 2.09899 -2.245013 1 0.10720524 0.046831883 0.99313331 0.00010264427
3.687022 2.097075 -2.2553415 1 0.10723418 0.046773914 0.99313295 0.00010574411
3.6767635 2.0793669 -2.2459521 1 0.10712985 0.046395145 0.99316198 0.00010398903
3.6940572 2.0738559 -2.2525249 1 0.10714486 0.046306599 0.99316448 0.00010776628
3.6952078 2.0609505 -2.2497079 1 0.10703916 0.046019118 0.99318928 0.00010802764
3.6885905 2.0437789 -2.2421963 1 0.10691062 0.045614786 0.9932217 0.0001113898
3.7132051 2.04304 -2.2534637 1 0.10695241 0.045395803 0.99322724 0.00011084513
3.7146015 2.0294724 -2.2506468 1 0.10682131 0.045155127 0.99325234 0.00011688074
3.7295659 2.024148 -2.2562804 1 0.10683443 0.045054004 0.99325556 0.00011684493
3.7324467 2.0113966 -2.2544026 1 0.10676885 0.044868384 0.99327099 0.00012055491
3.7368417 1.9994792 -2.2534637 1 0.10663374 0.044430047 0.99330515 0.00012210984
3.7224834 1.977615 -2.2412574 1 0.10639837 0.043788891 0.99335891 0.00012075269
3.7592275 1.9836937 -2.2600362 1 0.10667089 0.043777246 0.99333018 0.00012711795
3.7572768 1.9684327 -2.2553415 1 0.10648336 0.043332782 0.99336982 0.00012934147
3.759284 1.9569591 -2.2534637 1 0.10646757 0.042963196 0.99338752 0.00012798145
3.762275 1.9435191 -2.2515857 1 0.1063873 0.042760734 0.99340487 0.00012715369
3.7535477 1.9257493 -2.2431355 1 0.1062162 0.042385429 0.99343926 0.00013321877
3.7926261 1.9307724 -2.2628531 1 0.10648936 0.042059153 0.99342394 0.00013532519
3.7819099 1.9128672 -2.2534637 1 0.10634641 0.041657869 0.99345613 0.00013450722
3.7954605 1.9055983 -2.2581584 1 0.10649663 0.040833339 0.9934743 0.00013338457
3.81657 1.902872 -2.2675478 1 0.10646864 0.041001022 0.99347037 0.00012988191
3.8012965 1.8820199 -2.2553415 1 0.10624357 0.040370185 0.99352026 0.00013378628
3.8277948 1.8801901 -2.2675478 1 0.10661552 0.039851785 0.99350137 0.00013519006
3.8250942 1.8656236 -2.2628531 1 0.10647256 0.039330896 0.99353749 0.00013558692
3.814718 1.8465729 -2.2534637 1 0.10625993 0.038830347 0.99357986 0.00013366736
3.8567905 1.8528329 -2.2750592 1 0.10642069 0.039021906 0.99355519 0.00013964839
3.8367665 1.8292227 -2.2600362 1 0.10617017 0.038579725 0.99359924 0.00013836866
3.8396287 1.8190868 -2.2590973 1 0.10591064 0.038049202 0.9936474 0.00013468898
3.8453252 1.8070141 -2.2590973 1 0.10575507 0.037762973 0.99367493 0.00013506459
3.8503559 1.7962695 -2.2590973 1 0.10566279 0.037457988 0.99369633 0.00014023122
3.867198 1.789356 -2.2656698 1 0.10592911 0.037559163 0.99366415 0.00014958554
3.8834133 1.783708 -2.2722425 1 0.10575856 0.037211534 0.99369532 0.00015149328
3.9014423 1.7525598 -2.2741206 1 0.10553365 0.036244165 0.99375498 0.00015715971
