# .PCD v0.7 - Point Cloud Data file format
VERSION 0.7
FIELDS x y z intensity normal_x normal_y normal_z curvature
SIZE 4 4 4 4 4 4 4 4
TYPE F F F F F F F F
COUNT 1 1 1 1 1 1 1 1
WIDTH 272
HEIGHT 1
VIEWPOINT 0 0 0 1 0 0 0
POINTS 272
DATA ascii
-6.2496247 -5.4308028 -0.96823227 14 0.1316611 -0.033313964 0.99073482 0.00086002023
-6.2707791 -5.4185243 -0.96916151 14 0.13108601 -0.033073559 0.99081916 0.00086415745
-6.2612104 -5.3778906 -0.96521235 15 0.12940191 -0.034719866 0.99098414 0.00087674067
-6.2911496 -5.3428369 -0.96521235 15 0.12567066 -0.035619777 0.99143243 0.00078296778
-6.2957578 -5.3127985 -0.96335399 15 0.12332696 -0.036348037 0.99170017 0.00069692376
-6.3005147 -5.2886367 -0.96196014 15 0.12222318 -0.036803205 0.99182004 0.00064152619
-6.3094721 -5.2624531 -0.96079862 14 0.12125825 -0.037756857 0.99190265 0.00059456693
-6.3195572 -5.2410092 -0.96010178 14 0.12108808 -0.0380916 0.99191064 0.00053318491
-6.325882 -5.2146549 -0.95870793 15 0.12160493 -0.039039306 0.9918105 0.00052064483
-6.325686 -5.1867409 -0.95661718 14 0.12121436 -0.040293463 0.99180812 0.00051144685
-6.3311701 -5.1580577 -0.95499104 14 0.12127393 -0.041706342 0.99174261 0.00050681736
-6.3455486 -5.1403589 -0.95499104 14 0.12132362 -0.042487405 0.99170333 0.00048430552
-6.346848 -5.1102967 -0.95290041 15 0.121383 -0.043361027 0.99165827 0.00048811085
-6.3540025 -5.0886946 -0.95197117 16 0.12157567 -0.04462849 0.99157834 0.00048953301
-6.3535304 -5.0574498 -0.9496482 14 0.12192908 -0.045459367 0.99149722 0.00050442922
-6.3591619 -5.0311813 -0.94825435 15 0.12267551 -0.04530276 0.99141234 0.00049672584
-6.3615694 -5.0024676 -0.94639599 13 0.12390415 -0.046046671 0.9912253 0.00049467827
-6.3614287 -4.9736719 -0.94430518 14 0.1248438 -0.046735048 0.99107516 0.00048952218
-6.3707495 -4.9487867 -0.94337606 15 0.12519217 -0.048093885 0.99096614 0.0005010959
-6.3703933 -4.9200492 -0.94128525 15 0.12599176 -0.048989307 0.99082094 0.00051204901
-6.3715038 -4.8925619 -0.9394269 15 0.12678623 -0.049515639 0.99069345 0.00051325723
-6.3749375 -4.8652005 -0.93780077 15 0.12724449 -0.050086278 0.99060595 0.00052515557
-6.3774228 -4.838974 -0.93617469 14 0.1273593 -0.050470166 0.99057168 0.0005196064
-6.3790636 -4.810462 -0.93431628 15 0.12761916 -0.051590204 0.99048054 0.00053344952
-6.3805923 -4.7819829 -0.93245792 15 0.12772678 -0.052120239 0.990439 0.0005400735
-6.3811765 -4.7546515 -0.93059939 15 0.12772442 -0.05263399 0.99041212 0.00054213282
-6.3792391 -4.7272849 -0.92850876 15 0.12851281 -0.05260618 0.99031156 0.00053920067
-6.3828611 -4.6989765 -0.92688262 15 0.12810829 -0.053066358 0.9903394 0.00053723902
-6.3767228 -4.6670547 -0.92409497 15 0.12794615 -0.053077873 0.99035978 0.00055410038
-6.3728714 -4.6352611 -0.92153972 15 0.12699005 -0.052476056 0.99051487 0.00058880122
-6.3721056 -4.6058598 -0.91944897 15 0.12670329 -0.052172773 0.99056762 0.00058719126
-6.3817167 -4.5857286 -0.91898435 15 0.12678124 -0.051962074 0.99056882 0.00058197748
-6.3751001 -4.5540347 -0.91619676 14 0.12742344 -0.051221598 0.99052489 0.00056636718
-6.3756256 -4.5258999 -0.91433835 15 0.12726101 -0.050569158 0.99057931 0.00057659042
-6.371171 -4.4943671 -0.91178304 15 0.12765768 -0.04961155 0.99057674 0.00056740071
-6.3779716 -4.4708824 -0.91085386 15 0.12815906 -0.04898512 0.99054313 0.00055782875
-6.3741336 -4.4416986 -0.90853083 15 0.12752281 -0.048340343 0.99065697 0.0005684318
-6.3816133 -4.4204874 -0.90783393 15 0.12835258 -0.047405288 0.99059498 0.00055087463
-6.3741951 -4.3857794 -0.904814 15 0.12796503 -0.04680777 0.99067354 0.000579599
-6.3880558 -4.3690844 -0.90504628 18 0.13028359 -0.049216989 0.99025446 0.00038786014
-6.3870907 -4.3422933 -0.90318787 15 0.13150975 -0.051586572 0.98997176 0.00029763082
-6.3891768 -4.314424 -0.9015618 14 0.13255936 -0.051389925 0.98984194 0.00027783244
-6.3658175 -4.2744274 -0.89668345 12 0.13115469 -0.049106937 0.99014497 0.00033587351
-6.3503795 -4.2367797 -0.89273429 12 0.1315766 -0.047175266 0.99018288 0.00034749004
-6.340477 -4.2014451 -0.88948214 13 0.13182746 -0.045708396 0.99021828 0.00034903997
-6.3341374 -4.1750088 -0.88715911 14 0.13208346 -0.044564169 0.99023628 0.00034806342
-6.3355889 -4.1474729 -0.88553298 14 0.13213558 -0.043616146 0.99027163 0.00034957903
-6.3328791 -4.1189098 -0.88344228 14 0.1331985 -0.043098044 0.99015188 0.00034048752
-6.333632 -4.0958438 -0.88204843 14 0.13351831 -0.042289894 0.99014366 0.00034045507
-6.3390722 -4.0727377 -0.88111925 13 0.13472225 -0.042120315 0.98998785 0.00030988749
-6.3434615 -4.0474615 -0.87995774 13 0.13556494 -0.04115086 0.98991346 0.0002824463
-6.3422956 -4.0233898 -0.8783316 13 0.13661474 -0.040737249 0.98978627 0.00024439607
-6.344121 -3.9982007 -0.87693781 13 0.13838124 -0.040808596 0.98953789 0.0001910416
-6.3482313 -3.9729805 -0.87577635 13 0.13832638 -0.039755732 0.98958838 0.00018856405
-6.354547 -3.9553587 -0.87531167 13 0.13920799 -0.040052652 0.98945284 0.00015981967
-6.3618731 -3.9322405 -0.87461478 13 0.13903262 -0.038880344 0.98952425 0.00015350011
-6.3616619 -3.9060729 -0.8729887 12 0.13908377 -0.03770835 0.98956251 0.00014923808
-6.3633881 -3.8842311 -0.87182719 12 0.13901903 -0.03660585 0.98961288 0.00014721787
-6.3721633 -3.8621595 -0.87136257 11 0.13948068 -0.036064435 0.98956788 0.00012796979
-6.3733826 -3.8370893 -0.86996877 12 0.13987103 -0.035295743 0.9895404 0.00011083146
-6.3834062 -3.8203902 -0.86996877 12 0.1398758 -0.035162028 0.98954457 0.00010896321
-6.3872209 -3.7984879 -0.8690396 12 0.1397969 -0.034208409 0.98958915 0.00010302769
-6.3905702 -3.7733526 -0.86787802 12 0.13981238 -0.033192012 0.98962152 9.8999968e-05
-6.394228 -3.7514722 -0.86694884 12 0.13977827 -0.032175034 0.98965997 9.1433008e-05
-6.4018989 -3.7304833 -0.86648428 12 0.13975483 -0.031844858 0.98967391 9.2271635e-05
-6.4026232 -3.7055011 -0.86509049 11 0.13961491 -0.030974038 0.9897213 8.716384e-05
-6.4054146 -3.6847658 -0.86416125 11 0.13947016 -0.030051181 0.98977017 8.1707549e-05
-6.4094195 -3.6618021 -0.86323202 11 0.13930091 -0.029264059 0.98981756 7.8602265e-05
-6.4098907 -3.6368868 -0.86183828 11 0.1390238 -0.028098026 0.98989028 7.3246199e-05
-6.4113693 -3.614095 -0.86067671 10 0.13888617 -0.027904009 0.98991513 7.2912044e-05
-6.4174905 -3.5910263 -0.85997981 10 0.13851224 -0.026921518 0.9899947 6.5792403e-05
-6.4188128 -3.5682652 -0.85881835 10 0.13796701 -0.025632599 0.99010509 5.4365562e-05
-6.4235358 -3.5474453 -0.85812145 10 0.13774548 -0.024721717 0.99015909 4.914535e-05
-6.4276805 -3.5234294 -0.85719216 10 0.13752306 -0.023926752 0.99020952 4.5344601e-05
-6.433394 -3.5046885 -0.8567276 10 0.13751924 -0.023898065 0.99021077 4.5720415e-05
-6.4350281 -3.4808588 -0.85556608 10 0.13745072 -0.023224076 0.99023634 4.1187079e-05
-6.4330778 -3.4551704 -0.85393995 10 0.13741744 -0.022650378 0.99025422 3.7371061e-05
-6.4356914 -3.4334521 -0.85301077 10 0.1373395 -0.022119695 0.99027705 3.226933e-05
-6.4417434 -3.4136059 -0.85254616 10 0.13730375 -0.021551847 0.99029452 2.7997981e-05
-6.443645 -3.38873 -0.8513847 10 0.13722783 -0.021067515 0.99031544 2.4664874e-05
-6.4454527 -3.3681686 -0.85045546 10 0.1371679 -0.020524476 0.99033511 1.8539176e-05
-6.4430747 -3.3426256 -0.84882939 9 0.13709462 -0.020025913 0.99035549 1.5189987e-05
-6.4494314 -3.3216763 -0.84836477 10 0.13704042 -0.019990025 0.99036378 1.3210983e-05
-6.448071 -3.2982249 -0.84697092 9 0.13699585 -0.019437803 0.99038088 8.2590159e-06
-6.4525156 -3.2763801 -0.84627402 10 0.13693489 -0.019079698 0.99039626 4.217919e-06
-6.4639821 -3.2581143 -0.84650636 10 0.13690215 -0.019052189 0.99040127 3.5353837e-06
-6.4588447 -3.2329373 -0.84464794 9 0.13682933 -0.018827545 0.99041569 3.6576889e-06
-6.4612923 -3.2102249 -0.84371871 10 0.13682288 -0.018810088 0.99041694 3.2450828e-06
-6.4618807 -3.1866465 -0.84255719 9 0.13681282 -0.018652894 0.9904213 1.5967277e-06
-6.4702005 -3.1697192 -0.84255719 10 0.13681296 -0.018572038 0.99042279 1.0535707e-06
-6.4718819 -3.1481628 -0.84162802 10 0.13677678 -0.018488854 0.99042934 1.115358e-06
-6.4781613 -3.1260898 -0.84116346 10 0.13677123 -0.018471755 0.99043041 9.591754e-07
-6.483283 -3.1062698 -0.84069884 10 0.13676159 -0.018472064 0.99043173 0
-6.4817071 -3.0819016 -0.83930498 10 0.13670509 -0.018402107 0.99044091 1.0553914e-06
-6.4926186 -3.0635052 -0.83953726 10 0.13663606 -0.018412756 0.99045014 1.2689212e-06
-6.4921546 -3.0411489 -0.83837581 10 0.13656944 -0.018405549 0.99045944 2.9768084e-06
-6.4934173 -3.0196567 -0.83744663 10 0.13653305 -0.018418878 0.99046421 8.8745099e-07
-6.4969368 -2.99788 -0.83674967 9 0.13643634 -0.01840779 0.9904778 2.0905015e-06
-6.5021911 -2.9769354 -0.83628505 9 0.13634868 -0.018355787 0.99049085 3.4553402e-06
-6.5128026 -2.9584527 -0.83651733 10 0.13632295 -0.018286206 0.99049562 4.230375e-06
-6.5101743 -2.9353547 -0.8351236 9 0.13626155 -0.018274959 0.99050432 5.4228612e-06
-6.5165329 -2.9163513 -0.83489126 9 0.13625655 -0.018268436 0.99050516 4.3152227e-06
-6.5173898 -2.8949163 -0.83396208 8 0.13625267 -0.018221058 0.99050653 5.0412486e-06
-6.5228157 -2.8728268 -0.83349741 10 0.1361959 -0.018179294 0.99051511 5.203613e-06
-6.5198917 -2.8498268 -0.83210367 9 0.13616732 -0.018145531 0.9905197 4.7573194e-06
-6.521522 -2.82617 -0.83117443 9 0.13613884 -0.018034602 0.9905256 5.3758286e-06
-6.5252495 -2.8075163 -0.83070987 9 0.1361441 -0.01790379 0.99052721 2.4223236e-06
-6.5244155 -2.7842445 -0.8295483 9 0.13609451 -0.01782606 0.9905355 3.7132595e-06
-6.5276418 -2.7614131 -0.8288514 9 0.13604636 -0.017728059 0.9905439 3.338446e-06
-6.5380316 -2.7469947 -0.82931602 10 0.13602592 -0.017635727 0.99054825 1.7795915e-06
-6.5356274 -2.7218571 -0.82792222 9 0.135998 -0.017540973 0.9905538 1.8120675e-06
-6.5363297 -2.6994219 -0.82699305 9 0.13595164 -0.017479274 0.99056125 2.8138152e-07
-6.5396986 -2.680793 -0.82652837 9 0.13588902 -0.01738954 0.9905715 7.1963984e-07
-6.5476232 -2.6613786 -0.82652837 10 0.13583022 -0.017298082 0.9905811 1.908177e-06
-6.5448976 -2.6363406 -0.82513463 9 0.13580251 -0.017248999 0.99058574 6.2375187e-07
-6.549932 -2.6184607 -0.8249023 9 0.13571586 -0.01716139 0.99059916 1.1862093e-06
-6.5484381 -2.5953567 -0.82374084 9 0.13564093 -0.017036188 0.99061167 1.4683934e-06
-6.5542617 -2.5751872 -0.8235085 9 0.13558748 -0.016932812 0.99062061 1.2179096e-06
-6.555428 -2.5558558 -0.82281154 9 0.13549244 -0.016819615 0.99063563 2.7505787e-06
-6.5518656 -2.5320973 -0.82141781 9 0.13542666 -0.016745094 0.99064589 2.935438e-06
-6.5579329 -2.5107911 -0.82118547 9 0.13533524 -0.016569059 0.99066132 4.3364153e-06
-6.5589132 -2.491497 -0.82048857 9 0.13526802 -0.016401693 0.9906733 5.5291748e-06
-6.5602684 -2.4710703 -0.81979167 9 0.13519789 -0.016329933 0.99068397 5.6697677e-06
-6.5609818 -2.4465256 -0.81886244 8 0.135134 -0.016120525 0.99069619 7.7534105e-06
-6.5617743 -2.4272742 -0.81816554 9 0.13508748 -0.015959738 0.99070513 8.005446e-06
-6.5666618 -2.4082563 -0.81793326 10 0.13505316 -0.015801039 0.9907124 8.3189034e-06
-6.5648599 -2.3842254 -0.81677181 9 0.13500674 -0.015706331 0.99072015 7.6802189e-06
-6.5636039 -2.3643372 -0.81584251 9 0.13495058 -0.015510549 0.99073094 7.3790866e-06
-6.5747409 -2.3450396 -0.81630719 10 0.13489586 -0.015390857 0.99074024 6.9472921e-06
-6.5741777 -2.3228757 -0.81537795 9 0.13485329 -0.015220495 0.9907487 6.9519524e-06
-6.5802369 -2.3056545 -0.81537795 10 0.13481748 -0.015128226 0.99075496 8.4333378e-06
-6.5795422 -2.2835164 -0.81444877 10 0.1347865 -0.014931208 0.99076217 8.5001493e-06
-6.5731382 -2.2594638 -0.81282264 9 0.13476279 -0.014725081 0.99076849 9.1893298e-06
-6.5813031 -2.2417395 -0.81305498 9 0.134645 -0.014419841 0.990789 1.1307472e-05
-6.5826659 -2.2191501 -0.81235802 9 0.13460244 -0.014190641 0.99079812 1.2330889e-05
-6.5850687 -2.1995001 -0.8118934 9 0.13450012 -0.013888117 0.99081624 1.3460997e-05
-6.5874138 -2.1798542 -0.81142884 9 0.13441002 -0.013525439 0.99083352 1.5155822e-05
-6.5859241 -2.1589761 -0.81049961 8 0.13426009 -0.012889402 0.99086231 1.8865212e-05
-6.584743 -2.1369739 -0.80957043 9 0.13420489 -0.012525137 0.99087447 2.1255124e-05
-6.5831208 -2.1161456 -0.8086412 8 0.13417801 -0.012084904 0.99088359 2.3611692e-05
-6.5973091 -2.0978596 -0.80957043 10 0.1339732 -0.01156761 0.99091744 2.4836754e-05
-6.5951996 -2.0781937 -0.8086412 10 0.13395685 -0.011166892 0.99092424 2.8445029e-05
-6.593751 -2.0562503 -0.80771202 9 0.1338397 -0.010569661 0.99094659 3.2053493e-05
-6.5960269 -2.035507 -0.8072474 9 0.13376249 -0.0099199414 0.99096376 3.4887813e-05
-6.6001372 -2.0153465 -0.80701512 9 0.13363984 -0.0093387431 0.99098599 3.7103575e-05
-6.6019363 -1.9957577 -0.8065505 10 0.13347951 -0.0087153055 0.99101323 4.1352381e-05
-6.605926 -1.9755926 -0.80631822 8 0.13342467 -0.0080764163 0.99102604 4.5005876e-05
-6.597743 -1.9543401 -0.80469209 9 0.1333192 -0.0072419858 0.99104673 4.9031874e-05
-6.5981307 -1.9319299 -0.80399519 9 0.13316025 -0.0065330085 0.99107295 5.1879044e-05
-6.6095581 -1.9140015 -0.80469209 10 0.13295814 -0.0057454035 0.99110502 5.5167417e-05
-6.6075687 -1.8921959 -0.80376291 9 0.13293283 -0.0049105249 0.99111295 5.8833011e-05
-6.6125007 -1.8748887 -0.80376291 9 0.13285032 -0.0041782493 0.99112731 6.3317042e-05
-6.6103826 -1.853117 -0.80283368 9 0.13268822 -0.0034051654 0.99115199 6.6332279e-05
-6.6136179 -1.8341191 -0.8026014 8 0.13254398 -0.0027850782 0.99117327 7.0516136e-05
-6.6209464 -1.8150126 -0.80283368 10 0.13234542 -0.0019573721 0.9912017 7.4171541e-05
-6.6224675 -1.7943221 -0.80236906 10 0.13224697 -0.00091476855 0.99121636 7.81669e-05
-6.6239247 -1.7736371 -0.80190444 10 0.13206589 5.9234961e-05 0.99124092 8.2335893e-05
-6.6192508 -1.7525902 -0.80074298 8 0.13204505 0.0010516746 0.99124312 8.7280554e-05
-6.6205778 -1.7319367 -0.80027837 8 0.13186003 0.0020030267 0.99126631 9.1787326e-05
-6.6173968 -1.7126085 -0.79934919 9 0.13176829 0.0029379909 0.9912762 9.548886e-05
-6.6227446 -1.6918105 -0.79934919 8 0.13158359 0.003938972 0.99129725 0.00010155394
-6.6216655 -1.6718503 -0.79865223 9 0.13148312 0.0051443563 0.99130499 0.00010697973
-6.6243811 -1.652873 -0.79841995 9 0.13130751 0.0059361681 0.99132395 0.00011021431
-6.6256828 -1.6311038 -0.79795533 9 0.13112719 0.0070723984 0.9913404 0.00011229549
-6.6302118 -1.6125946 -0.79795533 9 0.13089547 0.0081497915 0.99136269 0.00011667248
-6.6291728 -1.5915236 -0.79725844 9 0.13085121 0.0094149476 0.99135733 0.00012227074
-6.6374574 -1.5739216 -0.79772305 10 0.13044238 0.01044682 0.99140084 0.00012490735
-6.6338186 -1.5547272 -0.79679382 9 0.1304048 0.011655254 0.99139231 0.0001298252
-6.636734 -1.533433 -0.79656154 9 0.13002093 0.012911675 0.99142718 0.00013118301
-6.639318 -1.5132911 -0.79632926 9 0.1297864 0.014036281 0.99144262 0.00013315058
-6.6490712 -1.4972146 -0.79702616 10 0.12959161 0.014823036 0.99145663 0.00013649202
-6.6421065 -1.4737365 -0.79563236 9 0.12953936 0.016427191 0.99143809 0.00013807391
-6.6498227 -1.4571923 -0.79609692 9 0.12939781 0.016802683 0.99145043 0.00013830066
-6.6541166 -1.4374551 -0.79609692 10 0.12917195 0.017962484 0.99145961 0.00014192583
-6.6583519 -1.4177068 -0.79609692 9 0.1289763 0.019395683 0.991458 0.00014614286
-6.6566973 -1.3967208 -0.79540002 9 0.12886985 0.020192852 0.99145597 0.00014237704
-6.6644621 -1.3789308 -0.79586464 9 0.12864423 0.021345951 0.99146104 0.0001439467
-6.6607385 -1.3575653 -0.79493541 9 0.12852697 0.022410944 0.99145269 0.00014442854
-6.6664505 -1.3393505 -0.79516768 9 0.12839611 0.023773978 0.99143791 0.00014287767
-6.6701646 -1.3207285 -0.79516768 9 0.12809713 0.024877997 0.99144953 0.00014079099
-6.6742811 -1.2997668 -0.79516768 9 0.12800801 0.025987977 0.99143249 0.00013757605
-6.6837378 -1.282246 -0.79586464 8 0.1276563 0.027329884 0.99144185 0.00013319201
-6.6951003 -1.2650514 -0.79679382 8 0.12716642 0.028212922 0.99148005 0.00013012165
-6.6868892 -1.2441728 -0.79540002 9 0.12721899 0.02958376 0.99143338 0.00012777103
-6.7003212 -1.2261144 -0.79656154 9 0.12689336 0.030647635 0.99144274 0.00012399961
-6.7019749 -1.2058749 -0.79632926 9 0.12680706 0.031708311 0.99142051 0.00012139884
-6.7133474 -1.1873696 -0.79725844 8 0.12624167 0.03288237 0.99145436 0.00011480802
-6.7146797 -1.1682785 -0.79702616 9 0.12619963 0.033495169 0.99143922 0.00011416308
-6.7200747 -1.1486832 -0.79725844 8 0.12598176 0.034555696 0.99143046 0.00011143156
-6.7250175 -1.1314167 -0.79749072 8 0.12567076 0.035428226 0.99143922 0.0001070941
-6.7265797 -1.1099602 -0.79725844 9 0.12557541 0.036320716 0.99141896 0.00010305394
-6.7335739 -1.0918087 -0.79772305 8 0.12519251 0.037477002 0.99142444 9.7358075e-05
-6.7408943 -1.0712708 -0.79818761 8 0.12489299 0.038326968 0.99142969 9.0830312e-05
-6.7497482 -1.0533625 -0.79888457 9 0.12464634 0.039222483 0.99142563 8.8083718e-05
-6.7526631 -1.0345091 -0.79888457 8 0.12441715 0.040119614 0.9914186 8.3268031e-05
-6.7574902 -1.0159429 -0.79911685 8 0.1241217 0.04093001 0.99142253 7.7417004e-05
-6.7644053 -0.9964689 -0.79958147 9 0.12378228 0.041899893 0.99142438 7.2089417e-05
-6.7673321 -0.97639382 -0.79958147 8 0.12360854 0.042706545 0.99141163 6.4900414e-05
-6.7703662 -0.95512843 -0.79958147 8 0.12342515 0.043427248 0.99140316 6.108512e-05
-6.7746477 -0.93885463 -0.79981375 8 0.12328548 0.043956071 0.99139732 5.7738904e-05
-6.779532 -0.91783458 -0.80004609 9 0.12298299 0.044836696 0.99139541 5.0837625e-05
-6.7878194 -0.90086621 -0.80074298 8 0.12285431 0.045415189 0.99138504 4.7808466e-05
-6.7944021 -0.88123298 -0.80120754 9 0.12269305 0.046024006 0.99137694 4.4950433e-05
-6.7910748 -0.86032027 -0.80051064 9 0.12255023 0.046610784 0.99136716 4.0931471e-05
-6.8036013 -0.84019995 -0.80167216 8 0.12231687 0.047225878 0.99136686 3.6641799e-05
-6.8136663 -0.82333797 -0.8026014 9 0.12218551 0.047707275 0.99136001 3.2031054e-05
-6.820025 -0.80358237 -0.80306602 10 0.122054 0.048197508 0.9913525 2.8937829e-05
-6.8182955 -0.78407973 -0.8026014 8 0.12194534 0.048695084 0.99134153 2.5724416e-05
-6.8266478 -0.76331913 -0.80329829 8 0.12181024 0.04906746 0.99133986 2.2756367e-05
-6.8365211 -0.74630773 -0.80422747 8 0.12172716 0.049452119 0.99133092 2.143066e-05
-6.8408074 -0.725034 -0.80445975 9 0.1216631 0.049785875 0.99132204 1.8618506e-05
-6.8466344 -0.70753175 -0.80492437 10 0.12160646 0.05010663 0.99131286 1.6282373e-05
-6.8467264 -0.68701559 -0.80469209 9 0.12149717 0.050416585 0.99131054 1.4891511e-05
-6.8486185 -0.66789281 -0.80469209 8 0.1214494 0.05059769 0.99130714 1.4525763e-05
-6.8585939 -0.64712 -0.80562127 9 0.12137124 0.050828993 0.99130493 1.3017108e-05
-6.8781776 -0.62959552 -0.80771202 10 0.12132805 0.051007736 0.991301 1.1904529e-05
-6.8721004 -0.60848355 -0.80678278 9 0.12132613 0.051197242 0.99129146 1.155668e-05
-6.8875246 -0.59168005 -0.80840892 10 0.12129623 0.051346645 0.99128747 1.0170941e-05
-6.8952885 -0.57053208 -0.80910581 8 0.12126879 0.051491927 0.99128324 8.9281748e-06
-6.8929906 -0.54975295 -0.8086412 8 0.12175126 0.048499513 0.99137503 0.00029946343
-6.8984599 -0.53080791 -0.80910581 9 0.12296864 0.043473184 0.99145794 0.0012047731
-6.9059472 -0.51077825 -0.80980271 9 0.1239873 0.038754664 0.99152672 0.0020809928
-6.9132915 -0.49191374 -0.81049961 9 0.1248322 0.034155544 0.99158978 0.0029287273
-6.9186845 -0.47166926 -0.81096423 10 0.12504226 0.034048043 0.99156708 0.0028939713
-6.9179134 -0.45342413 -0.81073195 9 0.12494452 0.034195393 0.99157435 0.0028971718
-6.9232683 -0.43193734 -0.81119651 9 0.12473506 0.03330259 0.99163103 0.0028923748
-6.9284139 -0.41283813 -0.81166112 9 0.12505932 0.030702397 0.99167407 0.0031260005
-6.9276252 -0.39216664 -0.81142884 9 0.1280856 0.019227343 0.99157667 0.0056236777
-6.9385462 -0.37456366 -0.8125903 8 0.13108984 0.0066509028 0.99134821 0.007991489
-6.9377046 -0.35266259 -0.81235802 9 0.13194536 0.0037042035 0.99125004 0.0086249579
-6.9426303 -0.33347926 -0.81282264 9 0.13263522 -0.0046251668 0.99115407 0.0099043436
-6.9475036 -0.31426954 -0.81328726 9 0.1362173 -0.014879674 0.99056727 0.011736781
-6.9503903 -0.29373804 -0.81351954 9 0.13521749 -0.012426399 0.99073803 0.011734001
-6.9631405 -0.27358204 -0.81491333 10 0.13531302 -0.013841189 0.99070621 0.011978702
-6.9638329 -0.25535277 -0.81491333 9 0.1377624 -0.021129286 0.99023992 0.013648938
-6.9646006 -0.23347367 -0.81491333 9 0.1377793 -0.020680357 0.99024707 0.013854597
-6.9711823 -0.21420817 -0.81561023 9 0.13849819 -0.023165444 0.99009174 0.014460776
-6.9816818 -0.195017 -0.81677181 10 0.13748129 -0.025264749 0.9901821 0.015006758
-6.9782887 -0.17298366 -0.81630719 9 0.14233226 -0.033910923 0.9892379 0.017217522
-6.9827428 -0.15236418 -0.81677181 9 0.14364964 -0.041842714 0.9887436 0.018822396
-6.9910622 -0.13423656 -0.81770098 8 0.14283761 -0.042686448 0.98882526 0.019008733
-6.9894433 -0.11346042 -0.81746864 9 0.14323638 -0.042897325 0.98875833 0.019274442
-6.9877629 -0.092695095 -0.81723636 9 0.14567719 -0.047464773 0.98819292 0.021570342
-6.9979515 -0.070842169 -0.81839788 9 0.14743409 -0.053594362 0.98761874 0.024039432
-7.0100317 -0.052611914 -0.81979167 10 0.15147217 -0.058687408 0.98671776 0.026499104
-7.0121431 -0.031821128 -0.82002401 9 0.15197378 -0.059411786 0.9865973 0.027028579
-7.0161753 -0.013470354 -0.82048857 9 0.1549214 -0.065913647 0.98572546 0.028090242
-7.0161829 0.0085703125 -0.82048857 9 0.15955505 -0.065317616 0.98502582 0.028699808
-7.0260592 0.029429697 -0.82165009 10 0.16207118 -0.068881996 0.98437202 0.029954595
-7.0279269 0.050290909 -0.82188237 10 0.1705458 -0.078796804 0.98219407 0.031512808
-7.0297461 0.069936618 -0.82211471 10 0.17126948 -0.083500765 0.98167932 0.03320935
-7.0354815 0.089643486 -0.82281154 10 0.17703785 -0.090511918 0.98003328 0.03473096
-7.0431294 0.1106413 -0.82374084 11 0.18077117 -0.093041904 0.97911435 0.036680568
-7.0408297 0.12904394 -0.8235085 9 0.18414679 -0.095393367 0.97825873 0.040769123
-7.0403895 0.15116303 -0.8235085 9 0.18848963 -0.10071073 0.97689766 0.045099292
-7.0518556 0.17111251 -0.8249023 9 0.20073089 -0.10262903 0.9742558 0.04777851
-7.0513167 0.19203374 -0.8249023 11 0.20232828 -0.099350326 0.97426528 0.048816666
-7.0627031 0.21084958 -0.82629609 9 0.20371941 -0.10211155 0.97368968 0.049459495
-7.0639505 0.23433533 -0.82652837 10 0.21229097 -0.098042831 0.97227573 0.05150887
-7.0573568 0.25261527 -0.82583147 9 0.21036741 -0.091844559 0.97329855 0.052565392
-7.0725045 0.27293375 -0.82768995 10 0.21025243 -0.089927942 0.97350234 0.053420343
-7.0696273 0.29506883 -0.82745767 9 0.21199265 -0.085057043 0.97356266 0.054952916
-7.0707603 0.31489864 -0.82768995 10 0.21337835 -0.080401316 0.97365564 0.056011312
-7.0777898 0.33501714 -0.82861912 10 0.21657674 -0.071600467 0.97363639 0.056792591
-7.0827169 0.35631573 -0.82931602 10 0.21820392 -0.072774939 0.97318596 0.058103681
-7.0856614 0.37630418 -0.82978064 10 0.22741912 -0.067238599 0.9714728 0.061795667
-7.0884809 0.39754727 -0.83024526 10 0.22802223 -0.063150406 0.97160584 0.063164726
-7.0892529 0.41869497 -0.8304776 9 0.23041697 -0.053357825 0.97162795 0.063951381
-7.099875 0.44046748 -0.83187133 10 0.23196805 -0.044681754 0.97169662 0.065112308
-7.1026626 0.45930862 -0.83233595 10 0.23422556 -0.035181541 0.97154546 0.065737903
-7.1051483 0.48188752 -0.83280057 11 0.23172635 -0.028845791 0.97235328 0.065862052
-7.107738 0.50200731 -0.83326513 10 0.23234428 -0.017808404 0.97247058 0.067342892
