# .PCD v0.7 - Point Cloud Data file format
VERSION 0.7
FIELDS x y z intensity normal_x normal_y normal_z curvature
SIZE 4 4 4 4 4 4 4 4
TYPE F F F F F F F F
COUNT 1 1 1 1 1 1 1 1
WIDTH 576
HEIGHT 1
VIEWPOINT 0 0 0 1 0 0 0
POINTS 576
DATA ascii
-1.3566451 -2.5206175 -1.5220269 8 0.13542409 -0.0086575309 0.99074996 0.00030411917
-1.3645202 -2.5183718 -1.5229659 8 0.13523465 -0.0086048357 0.99077624 0.00030310437
-1.3686023 -2.5081117 -1.5192101 8 0.13500544 -0.0084418328 0.99080896 0.00029492175
-1.3751878 -2.5024924 -1.5182712 8 0.13488935 -0.0083716195 0.99082524 0.00028729171
-1.3813324 -2.4950697 -1.5163933 8 0.13418612 -0.0087487856 0.99091756 0.00027310534
-1.3870004 -2.489902 -1.5154543 8 0.13396685 -0.0085336147 0.99094903 0.00026442087
-1.3961099 -2.4888561 -1.5173322 8 0.13404551 -0.0084143095 0.99093944 0.00027252457
-1.4026196 -2.4831655 -1.5163933 8 0.13372058 -0.0085059237 0.99098259 0.00026545691
-1.4064983 -2.474879 -1.5135765 8 0.13363823 -0.0085640186 0.9909932 0.00026302316
-1.4133892 -2.4689155 -1.5126375 8 0.1335239 -0.0087138293 0.99100727 0.00026234749
-1.4215904 -2.4662409 -1.5135765 8 0.13349625 -0.0088393027 0.99100989 0.0002562677
-1.4227263 -2.4533451 -1.5079428 8 0.13293532 -0.0097532636 0.99107671 0.0002270101
-1.4335612 -2.4552131 -1.5116986 8 0.13311359 -0.0092305504 0.99105781 0.00024052449
-1.4404116 -2.4512005 -1.5116986 8 0.13300829 -0.0092994021 0.99107128 0.00024243197
-1.4445542 -2.4426084 -1.5088817 8 0.13254419 -0.0099374866 0.99112731 0.00021339016
-1.4486061 -2.4319894 -1.5051259 8 0.13245636 -0.010104441 0.99113733 0.00021264066
-1.4563 -2.4294493 -1.5060649 8 0.13231355 -0.010166919 0.9911558 0.00020940186
-1.4649024 -2.4283974 -1.5079428 8 0.1320556 -0.010220192 0.9911896 0.0001959755
-1.4684349 -2.4180028 -1.504187 7 0.13189138 -0.01032229 0.9912104 0.00019118849
-1.4746819 -2.4121284 -1.5032481 7 0.13187116 -0.010534045 0.99121088 0.00018355275
-1.4823375 -2.4095049 -1.504187 8 0.1317791 -0.010684705 0.99122155 0.00017792404
-1.48762 -2.4020939 -1.5023091 8 0.13165738 -0.010717688 0.99123734 0.0001769697
-1.491004 -2.391675 -1.4985533 8 0.13145113 -0.010991375 0.99126172 0.00017207031
-1.5010129 -2.3937476 -1.5023091 8 0.13140881 -0.011001115 0.9912672 0.00017224523
-1.5066402 -2.386034 -1.5004312 7 0.13130407 -0.011064921 0.99128038 0.00017250032
-1.5127653 -2.3800631 -1.4994923 7 0.13122399 -0.011188005 0.99128962 0.00016939736
-1.519406 -2.3758292 -1.4994923 7 0.13118279 -0.011252548 0.99129426 0.00017181701
-1.5254928 -2.3698256 -1.4985533 8 0.13111086 -0.011417798 0.99130201 0.00017241054
-1.530185 -2.3625922 -1.4966755 8 0.13101721 -0.011757232 0.99131036 0.00016912125
-1.535259 -2.3550832 -1.4947976 7 0.1309226 -0.011876645 0.99132144 0.00016294359
-1.5404514 -2.3495789 -1.4938586 8 0.13086586 -0.011922522 0.99132848 0.00016428281
-1.549771 -2.3476751 -1.4957365 7 0.13080232 -0.011968639 0.99133623 0.0001642416
-1.5533894 -2.3389254 -1.4929197 8 0.13074592 -0.011999105 0.99134332 0.00015943743
-1.5587667 -2.3310978 -1.4910418 8 0.13064215 -0.012312381 0.99135315 0.00014815138
-1.5682275 -2.3311315 -1.4938586 7 0.1306151 -0.012329432 0.99135649 0.00014307673
-1.571762 -2.3223555 -1.4910418 8 0.13053061 -0.012554859 0.99136472 0.00013437176
-1.5772474 -2.3164976 -1.4901029 8 0.13052031 -0.012762022 0.99136347 0.000134438
-1.5837098 -2.3120842 -1.4901029 8 0.1304877 -0.012816034 0.9913671 0.0001298748
-1.5899632 -2.3056436 -1.4891639 7 0.13042846 -0.013055359 0.99137175 0.00011933906
-1.5951847 -2.2977359 -1.4872861 7 0.13021925 -0.013813332 0.99138892 0.00011011645
-1.6011944 -2.2935522 -1.4872861 8 0.13015819 -0.013953388 0.99139506 0.00010913508
-1.6090076 -2.290236 -1.488225 8 0.13008912 -0.014236984 0.99140006 0.00010342452
-1.6127377 -2.281126 -1.4854081 7 0.12974687 -0.015305188 0.99142897 7.764747e-05
-1.6166574 -2.2740178 -1.4835302 7 0.12960793 -0.015777424 0.99143976 6.7187641e-05
-1.6248212 -2.2703638 -1.4844692 7 0.12956312 -0.015959183 0.99144274 6.9358837e-05
-1.6294867 -2.2626669 -1.4825914 9 0.1295419 -0.016141132 0.99144256 6.2417224e-05
-1.6364405 -2.2598233 -1.4835302 8 0.12951943 -0.016328052 0.99144244 6.2926527e-05
-1.641058 -2.2521038 -1.4816524 7 0.12946996 -0.016856531 0.99144006 5.1476447e-05
-1.6462969 -2.2460878 -1.4807134 8 0.12946428 -0.017102763 0.99143654 5.1640203e-05
-1.6525629 -2.2414818 -1.4807134 8 0.12945095 -0.017462231 0.99143207 4.0023304e-05
-1.6585437 -2.2348611 -1.4797745 7 0.12940165 -0.017532166 0.9914372 4.4772725e-05
-1.6605529 -2.2245603 -1.4760187 7 0.12937599 -0.01774185 0.9914369 4.28532e-05
-1.667819 -2.2213266 -1.4769577 7 0.1293771 -0.017884606 0.99143416 3.8354134e-05
-1.6712092 -2.2121413 -1.4741408 7 0.12936296 -0.018238198 0.99142957 3.2135289e-05
-1.6788343 -2.2085788 -1.4750798 7 0.12934619 -0.0182833 0.99143094 3.6233705e-05
-1.6828498 -2.2010767 -1.4732019 7 0.12934563 -0.018341927 0.99142992 3.4723893e-05
-1.686143 -2.1918747 -1.4703851 8 0.129307 -0.018536711 0.99143136 2.9319946e-05
-1.6926391 -2.186862 -1.4703851 8 0.12930486 -0.018545019 0.99143147 2.5454105e-05
-1.7037812 -2.1893914 -1.4750798 9 0.12928754 -0.018537665 0.99143392 2.4069175e-05
-1.7019395 -2.1729064 -1.4675682 7 0.12921195 -0.018907133 0.99143672 2.0204227e-05
-1.7116579 -2.1720085 -1.4703851 6 0.12922272 -0.018877504 0.99143589 2.0011788e-05
-1.7166196 -2.1658359 -1.4694461 7 0.12916957 -0.0189563 0.99144137 1.903705e-05
-1.7208364 -2.1579716 -1.4675682 7 0.12907946 -0.019153344 0.9914493 2.0795434e-05
-1.726856 -2.1531577 -1.4675682 8 0.12905648 -0.019176574 0.99145174 1.9686942e-05
-1.7347212 -2.149096 -1.4685072 7 0.12901738 -0.019214787 0.99145621 1.8531948e-05
-1.7344048 -2.1379936 -1.4638124 7 0.12899801 -0.019378986 0.99145544 1.4054876e-05
-1.7455798 -2.1380062 -1.4675682 7 0.12898403 -0.019354254 0.99145782 1.4218358e-05
-1.7481817 -2.129029 -1.4647514 7 0.12899503 -0.0193811 0.99145579 1.1213363e-05
-1.7507471 -2.1200538 -1.4619346 7 0.12897293 -0.019426003 0.99145782 1.4055965e-05
-1.7573985 -2.1145434 -1.4619346 7 0.12897868 -0.019408802 0.9914574 1.314254e-05
-1.7621642 -2.108273 -1.4609957 7 0.12896797 -0.019374374 0.99145955 1.3280688e-05
-1.7680449 -2.1033437 -1.4609957 7 0.12897171 -0.019405184 0.99145842 1.5219857e-05
-1.7716311 -2.0957012 -1.4591177 7 0.12895536 -0.019433251 0.99145997 1.7962735e-05
-1.7782068 -2.0901246 -1.4591177 6 0.12895833 -0.019458508 0.99145913 2.1928556e-05
-1.7847639 -2.0845282 -1.4591177 7 0.12896603 -0.01947506 0.99145776 2.2805612e-05
-1.7898517 -2.0801613 -1.4591177 6 0.12899569 -0.0194711 0.99145395 2.0812204e-05
-1.7905986 -2.0678525 -1.454423 7 0.12896082 -0.019468909 0.99145859 1.7226357e-05
-1.7971654 -2.0644901 -1.455362 7 0.12895767 -0.019512225 0.99145812 2.1352753e-05
-1.8067732 -2.063134 -1.4581788 7 0.12898088 -0.0194725 0.99145591 2.4341467e-05
-1.8093842 -2.0537894 -1.455362 7 0.12896454 -0.019470517 0.991458 2.3918024e-05
-1.8134851 -2.0454516 -1.4534841 5 0.12899636 -0.019440928 0.99145448 2.8368564e-05
-1.8203653 -2.0416973 -1.454423 7 0.12899363 -0.019470306 0.9914543 3.1565418e-05
-1.8237011 -2.0339773 -1.452545 7 0.12901299 -0.019481808 0.9914515 2.9004475e-05
-1.8320941 -2.0311792 -1.454423 7 0.12905635 -0.019449467 0.9914465 3.0525247e-05
-1.8338468 -2.0224516 -1.4516063 7 0.12899926 -0.019483885 0.99145329 3.3022679e-05
-1.842572 -2.0192893 -1.4534841 7 0.12907828 -0.019410169 0.99144441 2.9455519e-05
-1.8413903 -2.0060077 -1.4478503 7 0.1289933 -0.019463383 0.99145448 3.2281965e-05
-1.8502287 -2.0050733 -1.4506673 7 0.12909889 -0.019383736 0.99144226 3.1084648e-05
-1.8558209 -1.9998987 -1.4506673 7 0.12911884 -0.019352635 0.9914403 3.1814467e-05
-1.858826 -1.9898621 -1.4478503 7 0.12911291 -0.019341951 0.99144131 3.3046737e-05
-1.8604023 -1.9811273 -1.4450336 7 0.12906438 -0.01938745 0.99144661 3.2529268e-05
-1.8699098 -1.97945 -1.4478503 7 0.12917431 -0.019307885 0.99143392 3.0931238e-05
-1.8733419 -1.971333 -1.4459726 7 0.12918352 -0.019302795 0.99143285 2.9885559e-05
-1.8760571 -1.9638679 -1.4440947 7 0.12918919 -0.01929573 0.99143219 3.1428055e-05
-1.8794286 -1.9557462 -1.4422166 7 0.1291822 -0.019248663 0.99143404 2.9544854e-05
-1.8876781 -1.9527004 -1.4440947 8 0.12920851 -0.019241337 0.99143076 2.4654271e-05
-1.890662 -1.9448888 -1.4422166 7 0.12922497 -0.019185018 0.99142975 2.2498813e-05
-1.8955276 -1.9376777 -1.4412779 7 0.12920746 -0.019187922 0.99143189 2.1809185e-05
-1.8984543 -1.9298589 -1.4394 7 0.1291759 -0.019153586 0.99143666 2.1134289e-05
-1.9050782 -1.9258052 -1.4403389 7 0.12922038 -0.019073101 0.99143249 1.9714813e-05
-1.9048893 -1.9135535 -1.4356441 7 0.12916695 -0.019049183 0.99143988 2.5107842e-05
-1.9114751 -1.9094744 -1.436583 7 0.12917815 -0.018975029 0.99143988 2.3273502e-05
-1.9180527 -1.9053735 -1.4375219 7 0.12918824 -0.018905384 0.99143982 2.4516647e-05
-1.9224412 -1.8984333 -1.436583 7 0.12921937 -0.0188816 0.99143624 2.3158445e-05
-1.9242847 -1.8890101 -1.4337662 7 0.12921573 -0.018824484 0.99143785 2.553525e-05
-1.9330134 -1.8876675 -1.436583 6 0.12923434 -0.018783821 0.99143618 2.7428465e-05
-1.9325985 -1.8754359 -1.4318883 7 0.12924092 -0.018704558 0.99143678 2.851412e-05
-1.9375014 -1.8703703 -1.4318883 6 0.12923722 -0.018622218 0.99143887 3.1771848e-05
-1.9446421 -1.8654965 -1.4328272 7 0.12925595 -0.018536158 0.99143797 2.979033e-05
-1.9463351 -1.8560624 -1.4300106 7 0.12929133 -0.018417751 0.99143559 2.735445e-05
-1.9511871 -1.8509609 -1.4300106 8 0.12929305 -0.018359041 0.99143642 2.5374942e-05
-1.9582778 -1.8460326 -1.4309494 8 0.12932503 -0.018283941 0.99143368 2.260576e-05
-1.9605274 -1.8384838 -1.4290715 6 0.12932947 -0.018216953 0.99143428 2.5886999e-05
-1.9646816 -1.831455 -1.4281325 7 0.12937473 -0.018103858 0.99143046 2.2714059e-05
-1.9675165 -1.823217 -1.4262547 7 0.12940326 -0.018006025 0.99142849 2.5632844e-05
-1.9755151 -1.8197639 -1.4281325 7 0.12943709 -0.017921736 0.99142569 2.2994058e-05
-1.9792873 -1.8130473 -1.4271936 7 0.12946016 -0.017849635 0.99142396 2.3536608e-05
-1.9859632 -1.8083559 -1.4281325 7 0.12948588 -0.017778724 0.99142188 1.8614461e-05
-1.9883876 -1.8004322 -1.4262547 7 0.12949201 -0.017698864 0.99142253 1.7125898e-05
-1.9920956 -1.7936909 -1.4253159 7 0.12950809 -0.017627615 0.99142164 1.7472285e-05
-1.9947771 -1.7854168 -1.4234378 7 0.12952088 -0.017539788 0.99142152 1.948683e-05
-2.000376 -1.7791417 -1.4234378 7 0.12952754 -0.01747882 0.99142182 1.701271e-05
-2.0063496 -1.7750685 -1.4243768 6 0.12951273 -0.017396156 0.99142516 1.6665887e-05
-2.0089557 -1.7667754 -1.4224989 7 0.12956119 -0.017274147 0.99142098 1.3987416e-05
-2.0112231 -1.7588334 -1.4206212 6 0.12956108 -0.017183581 0.99142265 1.5297168e-05
-2.0167384 -1.7525066 -1.4206212 6 0.12953231 -0.017055944 0.99142849 1.5936303e-05
-2.0229607 -1.7480223 -1.4215599 5 0.12953469 -0.017018991 0.99142879 1.8305343e-05
-2.0254593 -1.7397112 -1.4196821 6 0.12955593 -0.016888047 0.99142832 1.723592e-05
-2.0329952 -1.7363418 -1.4215599 6 0.12954547 -0.01687219 0.99142992 2.0053632e-05
-2.033798 -1.7272283 -1.4187431 7 0.12958233 -0.016747877 0.99142724 1.8278062e-05
-2.0365148 -1.7185529 -1.4168652 6 0.12956165 -0.01665283 0.99143153 2.2612214e-05
-2.0410066 -1.7132159 -1.4168652 7 0.12959276 -0.016578315 0.99142867 1.8939238e-05
-2.045023 -1.7056638 -1.4159263 7 0.12958837 -0.016458698 0.99143124 1.9912482e-05
-2.0524969 -1.7022009 -1.4178042 6 0.1295756 -0.016423134 0.99143344 2.1271044e-05
-2.0548129 -1.6938572 -1.4159263 7 0.12957688 -0.016319659 0.99143505 2.1702735e-05
-2.0578747 -1.6873527 -1.4149874 6 0.12959246 -0.016219752 0.99143463 2.1455759e-05
-2.0672731 -1.6842248 -1.4178042 7 0.12960865 -0.016151182 0.99143368 2.2254588e-05
-2.0678515 -1.6751112 -1.4149874 7 0.12959929 -0.016043302 0.99143666 2.4246667e-05
-2.0686865 -1.6656458 -1.4121705 7 0.12961496 -0.015922522 0.99143654 2.5470164e-05
-2.0757966 -1.6624318 -1.4140484 7 0.12963434 -0.01585182 0.99143523 2.6494843e-05
-2.0807197 -1.6562659 -1.4140484 7 0.12964624 -0.015775502 0.99143481 2.8527176e-05
-2.0814703 -1.6467979 -1.4112315 7 0.1296653 -0.015624447 0.99143469 2.8458247e-05
-2.0849593 -1.6395233 -1.4102927 7 0.12969796 -0.01553603 0.99143183 2.939244e-05
-2.0881381 -1.6326071 -1.4093537 7 0.12969407 -0.015451428 0.99143362 3.406802e-05
-2.0960462 -1.6282049 -1.4112315 7 0.12971283 -0.01536297 0.99143261 3.7960301e-05
-2.0977895 -1.6201869 -1.4093537 7 0.12970325 -0.015257712 0.99143541 4.3266347e-05
-2.1009052 -1.6132469 -1.4084148 7 0.12968472 -0.015189922 0.99143898 4.524806e-05
-2.1056824 -1.6070065 -1.4084148 7 0.12967698 -0.015099112 0.99144131 5.1595984e-05
-2.1087551 -1.6000526 -1.4074758 7 0.12965924 -0.014967603 0.99144566 5.6384059e-05
-2.1120834 -1.5927253 -1.4065368 6 0.12966096 -0.014854298 0.99144709 5.9373779e-05
-2.115387 -1.5853926 -1.4055979 7 0.1296754 -0.01471532 0.99144733 5.9792485e-05
-2.1212213 -1.5805343 -1.4065368 7 0.12967227 -0.014615172 0.99144924 6.036364e-05
-2.1210959 -1.5718215 -1.4037201 6 0.12967561 -0.014498916 0.99145049 6.1363084e-05
-2.1260235 -1.56515 -1.4037201 7 0.12968323 -0.014407484 0.99145079 6.4541884e-05
-2.134661 -1.5623355 -1.4065368 7 0.12968566 -0.014323312 0.99145174 6.2518098e-05
-2.1321468 -1.5508013 -1.4018421 7 0.12967633 -0.014164198 0.9914552 6.3325271e-05
-2.1353076 -1.5434344 -1.4009032 7 0.12969993 -0.014045698 0.99145383 6.5744825e-05
-2.1396093 -1.5374652 -1.4009032 6 0.12969293 -0.013949414 0.99145615 6.7142842e-05
-2.143894 -1.5314846 -1.4009032 6 0.12971602 -0.013836658 0.9914546 6.485785e-05
-2.1484287 -1.5251168 -1.4009032 6 0.12969851 -0.013710309 0.99145859 6.4375381e-05
-2.1471722 -1.5146636 -1.3971474 6 0.1297401 -0.013571643 0.99145514 6.6969951e-05
-2.1559951 -1.511327 -1.3999643 6 0.12968142 -0.013469979 0.99146414 6.5917666e-05
-2.1616559 -1.5063105 -1.4009032 6 0.12968355 -0.013350222 0.99146551 6.3882144e-05
-2.1600471 -1.4962456 -1.3971474 6 0.12971537 -0.013184477 0.99146366 6.2910942e-05
-2.1603727 -1.4864494 -1.3943306 7 0.12971273 -0.013023548 0.99146605 5.793032e-05
-2.1674302 -1.4824048 -1.3962085 7 0.12972645 -0.012902637 0.99146593 5.4261673e-05
-2.1701012 -1.4753535 -1.3952696 7 0.12973894 -0.01276363 0.99146605 5.1609055e-05
-2.1776524 -1.470505 -1.3971474 7 0.12972488 -0.012650216 0.99146926 4.8210648e-05
-2.1800289 -1.4638144 -1.3962085 7 0.12972835 -0.012524955 0.99147052 4.5912824e-05
-2.1828933 -1.4563599 -1.3952696 6 0.12973425 -0.012369262 0.99147165 4.3241096e-05
-2.183042 -1.4465681 -1.3924527 6 0.12975074 -0.012199173 0.99147165 3.7391241e-05
-2.1850955 -1.4402581 -1.3915138 7 0.12973531 -0.012064008 0.99147528 3.7339949e-05
-2.1896095 -1.4333863 -1.3915138 7 0.12974201 -0.011952009 0.9914757 3.2483724e-05
-2.1923723 -1.4259208 -1.3905748 7 0.12974611 -0.011787331 0.99147725 2.8187967e-05
-2.1960979 -1.4201761 -1.3905748 6 0.12974083 -0.011665381 0.99147934 2.9797111e-05
-2.2003021 -1.4136539 -1.3905748 6 0.12973492 -0.01152942 0.9914816 2.4764659e-05
-2.2002659 -1.4038851 -1.387758 6 0.12976983 -0.011345559 0.99147928 2.1021113e-05
-2.2054255 -1.3990653 -1.388697 7 0.12973371 -0.0112196 0.99148542 2.0304009e-05
-2.2050846 -1.3896915 -1.3858801 7 0.12973885 -0.011034954 0.99148691 1.8619798e-05
-2.2124333 -1.3846306 -1.387758 7 0.12974745 -0.010892371 0.99148726 1.8875886e-05
-2.2143109 -1.3782877 -1.3868191 6 0.12974209 -0.010755657 0.99148941 1.7412527e-05
-2.214124 -1.3685384 -1.3840023 6 0.12976046 -0.010563713 0.99148905 1.3963851e-05
-2.2181745 -1.3619635 -1.3840023 6 0.12976426 -0.010365955 0.99149066 1.6193339e-05
-2.2247467 -1.3579921 -1.3858801 6 0.12974648 -0.010247726 0.9914943 1.5936352e-05
-2.2229619 -1.3473343 -1.3821244 6 0.12980601 -0.010032792 0.99148864 1.2224159e-05
-2.2269497 -1.3407331 -1.3821244 6 0.12977265 -0.0098367864 0.99149495 1.5464439e-05
-2.2365129 -1.3385254 -1.3858801 6 0.12969574 -0.009790916 0.9915055 1.3588491e-05
-2.2387242 -1.331372 -1.3849412 7 0.12968051 -0.0096330168 0.99150902 1.5244775e-05
-2.2383342 -1.3216387 -1.3821244 6 0.1297764 -0.009350691 0.99149919 1.1424422e-05
-2.2420161 -1.3153833 -1.3821244 6 0.12975529 -0.009215096 0.99150324 1.1587001e-05
-2.2474346 -1.3096142 -1.3830633 7 0.12973496 -0.0090033878 0.99150783 1.0767059e-05
-2.2482538 -1.3011709 -1.3811854 8 0.12971184 -0.0088554751 0.99151218 1.7188675e-05
-2.2531831 -1.2961617 -1.3821244 7 0.12971146 -0.00870963 0.99151355 1.5005845e-05
-2.2554858 -1.2885944 -1.3811854 6 0.12974417 -0.0084896144 0.99151117 2.1339201e-05
-2.2546914 -1.279282 -1.3783686 7 0.12975362 -0.0082893614 0.99151164 2.0819773e-05
-2.2628703 -1.2755821 -1.3811854 7 0.12970731 -0.0081401616 0.99151886 2.0906169e-05
-2.2653251 -1.2676049 -1.3802464 7 0.12965959 -0.0079081366 0.99152702 2.3252021e-05
-2.267313 -1.2604159 -1.3793076 7 0.129655 -0.0076931799 0.99152935 2.6293796e-05
-2.2739155 -1.2557867 -1.3811854 6 0.12963079 -0.007552546 0.99153358 2.595699e-05
-2.2701066 -1.244393 -1.3764907 6 0.12969048 -0.0073081809 0.99152756 2.803628e-05
-2.276458 -1.2401348 -1.3783686 7 0.12963481 -0.0071596191 0.99153602 3.312073e-05
-2.2770214 -1.2316946 -1.3764907 6 0.12969318 -0.0068880967 0.9915303 3.333253e-05
-2.2806659 -1.224933 -1.3764907 7 0.12969235 -0.0066168276 0.99153215 3.6860965e-05
-2.2856357 -1.2193905 -1.3774297 7 0.12966506 -0.006485933 0.99153662 3.7981208e-05
-2.2874718 -1.212176 -1.3764907 7 0.12965214 -0.0062600849 0.99153978 4.0594816e-05
-2.2850165 -1.2016964 -1.3727349 8 0.12969242 -0.0059202434 0.99153662 4.6046367e-05
-2.2928503 -1.1981634 -1.3755517 7 0.12966496 -0.0057848045 0.99154097 4.5891338e-05
-2.2963951 -1.191355 -1.3755517 7 0.12964362 -0.0055691875 0.99154496 4.7660316e-05
-2.2999196 -1.1845367 -1.3755517 7 0.12961075 -0.0053192191 0.99155074 5.1306677e-05
-2.3047907 -1.1789135 -1.3764907 7 0.12955989 -0.0051270952 0.99155837 5.1782023e-05
-2.3019805 -1.1688718 -1.3727349 6 0.1295885 -0.0048544179 0.99155599 5.486267e-05
-2.3085923 -1.163626 -1.3746128 7 0.12956184 -0.0045998003 0.99156064 5.9134985e-05
-2.313412 -1.1579649 -1.3755517 6 0.1294992 -0.004372688 0.99156988 6.2380852e-05
-2.3152559 -1.1503105 -1.3746128 6 0.12948671 -0.0041370764 0.99157256 6.7918139e-05
-2.317075 -1.1426548 -1.3736739 7 0.12941104 -0.0038292492 0.99158365 7.075633e-05
-2.3216443 -1.137362 -1.3746128 7 0.12940532 -0.0036721847 0.99158496 7.1772956e-05
-2.3216352 -1.1293292 -1.3727349 7 0.12938608 -0.0033866039 0.99158853 7.4989213e-05
-2.3283525 -1.1235654 -1.3746128 7 0.12937842 -0.0031606399 0.99159026 7.329206e-05
-2.3282957 -1.1155329 -1.3727349 7 0.12935984 -0.0028998663 0.99159348 7.2453651e-05
-2.3315954 -1.1086196 -1.3727349 6 0.12930644 -0.0026097039 0.99160123 7.8529003e-05
-2.3332775 -1.1009437 -1.371796 7 0.12932062 -0.0023774831 0.99159998 7.5516051e-05
-2.3363428 -1.0944235 -1.371796 7 0.12926185 -0.0021292332 0.9916082 7.6304263e-05
-2.33939 -1.0878948 -1.371796 7 0.12925683 -0.0018500669 0.99160939 7.5041367e-05
-2.3394008 -1.0794691 -1.3699181 7 0.12924212 -0.001566386 0.99161178 7.7260462e-05
-2.3425934 -1.072523 -1.3699181 7 0.12923436 -0.0013304747 0.99161315 7.6599048e-05
-2.3457651 -1.0655681 -1.3699181 7 0.1292094 -0.0010266539 0.99161685 7.3232586e-05
-2.3455117 -1.0575614 -1.3680402 7 0.12923762 -0.00073732994 0.99161339 7.0579488e-05
-2.3500681 -1.0517287 -1.3689792 6 0.12921575 -0.0005236927 0.99161637 6.9944195e-05
-2.3562236 -1.0465955 -1.370857 7 0.12921757 -0.00026145438 0.99161625 6.7577668e-05
-2.3562677 -1.0377649 -1.3689792 6 0.12921351 6.9629641e-05 0.99161679 7.2756593e-05
-2.3591564 -1.0311807 -1.3689792 7 0.12921463 0.00035117564 0.99161661 6.831182e-05
-2.3640046 -1.0244663 -1.3699181 7 0.12917957 0.00061693788 0.99162102 7.0970098e-05
-2.3634341 -1.0168777 -1.3680402 8 0.12920859 0.0008969428 0.99161702 7.0260627e-05
-2.366441 -1.0098605 -1.3680402 7 0.12917528 0.0011978254 0.99162108 6.7886554e-05
-2.3696017 -1.0024216 -1.3680402 7 0.12912838 0.0014620679 0.9916268 7.0693415e-05
-2.3720438 -0.996629 -1.3680402 6 0.12909861 0.0017122788 0.99163032 7.0139817e-05
-2.3751633 -0.98917139 -1.3680402 6 0.12912592 0.0020455173 0.99162608 6.7078821e-05
-2.3797202 -0.9827944 -1.3689792 7 0.1290939 0.0022956952 0.99162972 6.7141365e-05
-2.383919 -0.97723061 -1.3699181 6 0.12903523 0.0025460441 0.99163675 6.6193534e-05
-2.3835356 -0.96882343 -1.3680402 6 0.12905036 0.0028738563 0.99163389 6.756901e-05
-2.383292 -0.96001029 -1.3661623 6 0.12910734 0.003233403 0.99162537 6.9168629e-05
-2.3874366 -0.95442349 -1.3671013 6 0.12906927 0.0034728977 0.99162954 7.0991344e-05
-2.3902578 -0.94733614 -1.3671013 7 0.12902713 0.00373474 0.99163407 7.3683179e-05
-2.3930585 -0.94023919 -1.3671013 6 0.12894604 0.0040382231 0.99164343 7.4150681e-05
-2.3905759 -0.93204695 -1.3642845 7 0.12897162 0.0043009841 0.99163902 7.8008336e-05
-2.3999193 -0.92749602 -1.3680402 6 0.12892018 0.0045873164 0.99164438 7.6044613e-05
-2.3962247 -0.91742623 -1.3642845 7 0.12899733 0.0049987994 0.9916324 7.732393e-05
-2.4002695 -0.91177666 -1.3652234 7 0.12895717 0.0051926998 0.99163663 7.8777513e-05
-2.4028063 -0.90507019 -1.3652234 6 0.12890597 0.0055062734 0.99164152 8.1848128e-05
-2.4041398 -0.89648008 -1.3642845 8 0.1288906 0.0058312402 0.9916417 8.509183e-05
-2.4031661 -0.8889581 -1.3624066 7 0.12886719 0.0061340919 0.99164289 8.2415994e-05
-2.4089549 -0.88345963 -1.3642845 7 0.12878656 0.006396838 0.99165165 8.3318657e-05
-2.406739 -0.87407929 -1.3614676 7 0.12885924 0.0067544738 0.99163991 8.1552731e-05
-2.4123418 -0.86897218 -1.3633455 7 0.12880045 0.0070385383 0.99164557 8.6350716e-05
-2.416723 -0.86198246 -1.3642845 7 0.12875427 0.0073958505 0.99164891 8.7603636e-05
-2.4142749 -0.85304368 -1.3614676 6 0.12876479 0.0077423318 0.99164498 8.8044311e-05
-2.4214997 -0.84847122 -1.3642845 6 0.12866491 0.0079498217 0.99165624 9.1470327e-05
-2.4190016 -0.8395462 -1.3614676 7 0.12872368 0.0083509786 0.99164534 9.5368268e-05
-2.4214818 -0.83236504 -1.3614676 6 0.12868725 0.008710498 0.99164695 9.7845725e-05
-2.4221256 -0.82503027 -1.3605287 6 0.12868685 0.0089660101 0.9916448 0.00010056351
-2.4247053 -0.81741732 -1.3605287 7 0.12855351 0.0093163932 0.99165881 0.00010303302
-2.4253037 -0.81008351 -1.3595897 6 0.12861393 0.0096372692 0.9916479 0.00010621858
-2.434262 -0.80552644 -1.3633455 6 0.12843558 0.0098784259 0.9916687 0.00010632162
-2.433146 -0.79762584 -1.3614676 7 0.12844609 0.010249841 0.99166352 0.00010390619
-2.4371815 -0.79094863 -1.3624066 7 0.12833047 0.010550196 0.99167532 0.00010152839
-2.432656 -0.78197783 -1.3586508 6 0.12837479 0.010901946 0.99166578 0.00010356502
-2.433418 -0.77379572 -1.3577119 7 0.12830864 0.011276327 0.99167019 0.00010579453
-2.4371197 -0.76795352 -1.3586508 7 0.12818976 0.011572349 0.99168211 0.00010558796
-2.4393873 -0.76071894 -1.3586508 6 0.12815256 0.011861756 0.9916836 0.00010849947
-2.4416337 -0.75347823 -1.3586508 6 0.12808184 0.012269814 0.9916876 0.00010758812
-2.4421697 -0.74571455 -1.3577119 7 0.12802786 0.012569601 0.99169093 0.00010999702
-2.4442427 -0.73889166 -1.3577119 7 0.12794058 0.012887784 0.99169809 0.00011243227
-2.4481161 -0.73214263 -1.3586508 6 0.12779514 0.013217763 0.99171251 0.00011465039
-2.4500246 -0.72573018 -1.3586508 6 0.12774988 0.013480024 0.99171484 0.00011562852
-2.4505973 -0.71753389 -1.3577119 7 0.12774891 0.013865247 0.99170965 0.0001149623
-2.454412 -0.7107507 -1.3586508 6 0.12764795 0.014194597 0.99171799 0.0001126968
-2.4531143 -0.70249331 -1.3567729 6 0.12759842 0.014647605 0.99171776 0.00010963934
-2.4583433 -0.69703132 -1.3586508 7 0.12747139 0.014954261 0.9917295 0.00011135706
-2.4569995 -0.68878126 -1.3567729 7 0.12753132 0.015259405 0.99171716 0.00011083257
-2.4538085 -0.68050152 -1.3539561 6 0.12751229 0.015590991 0.99171442 0.00011202636
-2.4592233 -0.67415154 -1.355834 6 0.1273337 0.015945977 0.99173176 0.00011379035
-2.4663258 -0.66823775 -1.3586508 6 0.12722245 0.016257735 0.991741 0.00011815414
-2.464886 -0.66000342 -1.3567729 6 0.12717474 0.016626937 0.991741 0.00012119084
-2.4650126 -0.6526655 -1.355834 7 0.12706652 0.016935481 0.99174958 0.0001251041
-2.4669383 -0.64534861 -1.355834 5 0.12698954 0.01727516 0.99175364 0.00012724406
-2.4669094 -0.63844591 -1.354895 6 0.12699598 0.017590195 0.99174726 0.00012801147
-2.4706142 -0.63112974 -1.355834 7 0.12685034 0.017954411 0.9917593 0.00012981861
-2.4757912 -0.62509239 -1.3577119 6 0.12672508 0.018257171 0.99176985 0.00013122192
-2.4723871 -0.61689413 -1.354895 6 0.12672 0.018641211 0.99176335 0.00013025898
-2.4725981 -0.60870165 -1.3539561 7 0.12665769 0.019015688 0.99176425 0.00013621103
-2.4811518 -0.60346365 -1.3577119 7 0.12650131 0.01927691 0.99177909 0.00013996546
-2.4777801 -0.5948624 -1.354895 6 0.12650368 0.019664893 0.99177116 0.00014188304
-2.4777133 -0.58753318 -1.3539561 6 0.12646188 0.020034129 0.99176913 0.00014602669
-2.4826818 -0.58185083 -1.355834 6 0.12629811 0.02035106 0.99178356 0.00014863383
-2.4776149 -0.57245874 -1.3520782 7 0.12636681 0.020702777 0.99176759 0.00014817377
-2.4861896 -0.56667399 -1.355834 6 0.12616244 0.021033244 0.9917866 0.00014827074
-2.4859419 -0.55977565 -1.354895 7 0.12612814 0.021379184 0.9917835 0.00014828591
-2.4859643 -0.55158049 -1.3539561 7 0.12602986 0.021648638 0.99179024 0.00015113151
-2.4839499 -0.54431421 -1.3520782 7 0.12607449 0.021995122 0.99177688 0.00015239661
-2.4872801 -0.53731453 -1.3530172 7 0.1259902 0.022274964 0.99178141 0.00015488097
-2.4888632 -0.52993268 -1.3530172 7 0.1259125 0.02264284 0.9917829 0.00015259699
-2.4904249 -0.52254558 -1.3530172 7 0.1258592 0.023037402 0.99178064 0.00015385037
-2.4936035 -0.51594663 -1.3539561 7 0.12580039 0.023338735 0.991781 0.00015631397
-2.4968536 -0.50889879 -1.354895 7 0.12569575 0.023751289 0.99178451 0.00015496457
-2.4965336 -0.50157624 -1.3539561 6 0.12561791 0.02408988 0.99178612 0.00015347401
-2.4944601 -0.49391654 -1.3520782 7 0.12556806 0.024441771 0.99178386 0.00015452642
-2.5011995 -0.48709008 -1.354895 7 0.12544839 0.024775822 0.99179065 0.00015796693
-2.4973471 -0.4791052 -1.3520782 7 0.12545876 0.025097417 0.99178129 0.00016000566
-2.4969404 -0.47180137 -1.3511392 7 0.12546737 0.025435099 0.99177164 0.00015919658
-2.499984 -0.46515083 -1.3520782 8 0.12529469 0.025808435 0.99178392 0.00016091081
-2.5030901 -0.45804894 -1.3530172 8 0.12522735 0.026143214 0.99178356 0.000164354
-2.5079143 -0.45124477 -1.354895 7 0.12513867 0.026496528 0.99178541 0.00016563332
-2.5092421 -0.44380209 -1.354895 7 0.12507939 0.026817197 0.99178421 0.00016461078
-2.5087316 -0.43649098 -1.3539561 7 0.12501097 0.027167639 0.99178338 0.00016605511
-2.5117567 -0.4293423 -1.354895 6 0.12491693 0.027505951 0.99178582 0.00016333156
-2.512872 -0.42276546 -1.354895 7 0.1248312 0.027837776 0.99178743 0.00016726239
-2.5159302 -0.41515636 -1.355834 7 0.12476306 0.028162241 0.99178684 0.00017049458
-2.5153363 -0.40784672 -1.354895 6 0.12473303 0.028520726 0.99178034 0.00017237324
-2.5148611 -0.39966467 -1.3539561 7 0.12464942 0.028955525 0.99177831 0.00016986467
-2.5177124 -0.39291301 -1.354895 7 0.12462468 0.029236613 0.99177313 0.00017044773
-2.5153086 -0.38534573 -1.3530172 7 0.12460474 0.02958151 0.99176538 0.00016844437
-2.5163751 -0.37831998 -1.3530172 7 0.1245656 0.029894043 0.99176097 0.00016637355
-2.5157394 -0.37059516 -1.3520782 6 0.12454459 0.030329157 0.99175042 0.00016513516
-2.5203233 -0.36363342 -1.3539561 7 0.12447111 0.030606881 0.99175107 0.00016310537
-2.5232019 -0.35596034 -1.354895 7 0.1242538 0.030976024 0.99176687 0.00016292007
-2.5240643 -0.34979373 -1.354895 7 0.12425423 0.03122871 0.99175882 0.00016078353
-2.5234005 -0.34162599 -1.3539561 7 0.12422112 0.031603154 0.99175113 0.00016283515
-2.5242863 -0.3350184 -1.3539561 7 0.12415426 0.031898603 0.99175006 0.0001603221
-2.5270205 -0.3277542 -1.354895 7 0.12402093 0.032323997 0.99175298 0.00016330877
-2.5244782 -0.31981093 -1.3530172 7 0.12405527 0.032706451 0.99173617 0.00015892442
-2.5289755 -0.31231183 -1.354895 7 0.12390175 0.033009961 0.99174535 0.00015814618
-2.5297844 -0.30568969 -1.354895 6 0.12386296 0.03336725 0.9917382 0.0001557457
-2.5324342 -0.29838884 -1.355834 6 0.12372767 0.033734299 0.99174267 0.00015619787
-2.5332577 -0.29131562 -1.355834 6 0.12369376 0.034016386 0.99173719 0.00015307608
-2.5359151 -0.28355244 -1.3567729 7 0.12360656 0.034436923 0.99173355 0.00015036071
-2.5331378 -0.27652958 -1.354895 7 0.12355128 0.03471078 0.99173093 0.0001504653
-2.5375061 -0.26894167 -1.3567729 7 0.12343758 0.035065919 0.9917326 0.00014619136
-2.5364451 -0.26211646 -1.355834 6 0.123378 0.035376213 0.99172902 0.00014648649
-2.5372117 -0.25458938 -1.355834 7 0.12329117 0.035718564 0.99172753 0.00014438339
-2.5396702 -0.24767438 -1.3567729 6 0.12323198 0.036044925 0.99172306 0.00014252173
-2.5404356 -0.23969443 -1.3567729 7 0.1231518 0.036368456 0.99172115 0.00014147503
-2.5358195 -0.2321168 -1.3539561 7 0.12314305 0.03670755 0.99170983 0.00014197525
-2.5435331 -0.2252147 -1.3577119 6 0.1230174 0.037008159 0.99171418 0.00014076357
-2.538836 -0.21810137 -1.354895 7 0.12301863 0.037348308 0.9917013 0.00014047632
-2.5430281 -0.21041602 -1.3567729 7 0.12291081 0.037707686 0.99170107 0.00013860496
-2.5454018 -0.20300943 -1.3577119 7 0.12281985 0.038039867 0.9916997 0.00013971663
-2.5477195 -0.19603644 -1.3586508 7 0.12268305 0.038347252 0.99170482 0.00013926842
-2.5412455 -0.1879558 -1.354895 7 0.12272468 0.038611792 0.99168938 0.00014121199
-2.5452833 -0.18110907 -1.3567729 7 0.12259877 0.03899505 0.99168992 0.0001410218
-2.5493331 -0.17379636 -1.3586508 7 0.12243937 0.039303917 0.99169737 0.00013650989
-2.5497794 -0.16712143 -1.3586508 6 0.12240029 0.039564934 0.99169183 0.00013529825
-2.5485294 -0.15900075 -1.3577119 7 0.12237864 0.039918028 0.99168044 0.00013177289
-2.552489 -0.15209322 -1.3595897 6 0.12220539 0.040242694 0.99168867 0.00012735078
-2.5494027 -0.1443194 -1.3577119 7 0.12221268 0.040554121 0.99167508 0.00012490479
-2.5480087 -0.13754919 -1.3567729 7 0.12212928 0.040773422 0.99167639 0.00012542772
-2.5519555 -0.12972291 -1.3586508 7 0.12196966 0.041110814 0.99168211 0.00012085267
-2.5558355 -0.12276588 -1.3605287 7 0.12187026 0.041432984 0.99168086 0.00011691228
-2.5579324 -0.11570778 -1.3614676 7 0.12178175 0.041726094 0.99167949 0.00011456363
-2.5547359 -0.10796848 -1.3595897 6 0.1217617 0.042018622 0.9916696 0.0001125628
-2.5568097 -0.10045714 -1.3605287 7 0.12167954 0.04236472 0.99166495 0.00011003054
-2.5570638 -0.0937635 -1.3605287 6 0.12159444 0.04263011 0.99166399 0.00010485128
-2.5591106 -0.085788824 -1.3614676 7 0.12152905 0.042908475 0.99166 0.00010593915
-2.5611053 -0.078696787 -1.3624066 7 0.12144331 0.043252602 0.99165553 0.00010273931
-2.5560195 -0.07139644 -1.3595897 7 0.12143221 0.043554429 0.99164373 0.00010193082
-2.5650578 -0.063584805 -1.3642845 7 0.12117091 0.043907259 0.99166006 9.8376033e-05
-2.5599387 -0.055858131 -1.3614676 7 0.12115035 0.044165172 0.99165112 9.5726791e-05
-2.5600762 -0.04915645 -1.3614676 7 0.12106004 0.044444229 0.99164975 9.2438924e-05
-2.5619764 -0.041588854 -1.3624066 6 0.12092849 0.04473282 0.99165279 9.5665986e-05
-2.5691514 -0.034080684 -1.3661623 7 0.12078249 0.045080893 0.99165481 9.5793315e-05
-2.5621827 -0.025937675 -1.3624066 7 0.12077974 0.045378555 0.99164158 8.9705056e-05
-2.5657735 -0.019256726 -1.3642845 7 0.12063681 0.045607638 0.9916485 8.9412293e-05
-2.5622876 -0.011627669 -1.3624066 7 0.12059523 0.045906015 0.99163973 8.4316758e-05
-2.564075 -0.0049227672 -1.3633455 7 0.12049118 0.04613553 0.99164182 8.6869833e-05
-2.5693755 0.0031385086 -1.3661623 6 0.12039492 0.046479113 0.99163741 8.246686e-05
-2.5640574 0.010739936 -1.3633455 7 0.12035251 0.046678267 0.99163318 8.0855796e-05
-2.5622485 0.018335108 -1.3624066 7 0.12024882 0.046970453 0.99163204 7.759202e-05
-2.5657189 0.025525488 -1.3642845 6 0.12006492 0.047293633 0.9916389 7.6570599e-05
-2.5656374 0.032690398 -1.3642845 7 0.12000694 0.047551092 0.99163359 7.6647448e-05
-2.5690603 0.040357653 -1.3661623 7 0.11988254 0.047846437 0.99163449 7.6785451e-05
-2.5689461 0.047083501 -1.3661623 7 0.11977533 0.048090968 0.99163556 7.6438067e-05
-2.5670199 0.055116061 -1.3652234 6 0.11966811 0.048381504 0.99163437 7.5406024e-05
-2.5703869 0.062370155 -1.3671013 7 0.11950552 0.048620917 0.99164236 7.5363736e-05
-2.5701904 0.069995902 -1.3671013 7 0.11942416 0.048896551 0.9916386 7.4218558e-05
-2.5735288 0.07683 -1.3689792 7 0.11930103 0.049140446 0.99164128 7.3894451e-05
-2.5697298 0.085246705 -1.3671013 6 0.11923422 0.049368642 0.991638 7.7422163e-05
-2.5730274 0.092100486 -1.3689792 6 0.11912608 0.049663644 0.99163622 7.3366718e-05
-2.569231 0.099148735 -1.3671013 7 0.11905409 0.049852952 0.99163538 7.2842573e-05
-2.5724356 0.10736713 -1.3689792 7 0.11894116 0.050094873 0.99163675 7.3384625e-05
-2.5703614 0.1144719 -1.3680402 7 0.11887564 0.050306201 0.99163395 7.5058873e-05
-2.5700316 0.12164881 -1.3680402 7 0.11878358 0.050538354 0.99163318 7.5277472e-05
-2.5767145 0.12962876 -1.371796 7 0.11870989 0.050780546 0.9916296 7.5018608e-05
-2.5692883 0.13644937 -1.3680402 6 0.11865287 0.050994851 0.99162549 7.7338271e-05
-2.5723989 0.1442693 -1.3699181 5 0.11852162 0.051260084 0.99162745 7.5312506e-05
-2.5737221 0.15200537 -1.370857 5 0.11846126 0.051515918 0.99162143 7.2536342e-05
-2.5714974 0.15953252 -1.3699181 6 0.11839553 0.051730737 0.9916181 7.0760609e-05
-2.5710709 0.16626373 -1.3699181 7 0.11828655 0.051938355 0.99162024 7.2451025e-05
-2.5722976 0.17445914 -1.370857 7 0.11823621 0.052162189 0.99161452 6.9843489e-05
-2.5718005 0.18164185 -1.370857 7 0.11813872 0.052379269 0.99161464 7.0182025e-05
-2.5730443 0.18895246 -1.371796 7 0.11808569 0.052552156 0.99161184 6.513534e-05
-2.5759938 0.19685526 -1.3736739 6 0.11801324 0.052805249 0.99160701 6.157309e-05
-2.5719135 0.20376924 -1.371796 6 0.11795526 0.052982856 0.99160451 6.1039755e-05
-2.5748174 0.21168828 -1.3736739 6 0.11790044 0.053178586 0.99160045 5.7175122e-05
-2.574178 0.21932714 -1.3736739 7 0.11786117 0.053374406 0.99159461 5.3329655e-05
-2.5770736 0.22682455 -1.3755517 7 0.11780597 0.05356824 0.99159074 5.0521285e-05
-2.5728722 0.23414932 -1.3736739 7 0.11774658 0.053796019 0.99158549 4.7983842e-05
-2.5756822 0.24211283 -1.3755517 7 0.11770067 0.053942051 0.99158299 4.3726257e-05
-2.573195 0.24958363 -1.3746128 7 0.11761267 0.054107197 0.99158442 4.2595108e-05
-2.5742898 0.25649467 -1.3755517 6 0.11756128 0.054260872 0.9915821 4.1166371e-05
-2.5734713 0.26458025 -1.3755517 5 0.11749546 0.054472942 0.99157822 4.0065504e-05
-2.5779908 0.27232242 -1.3783686 6 0.11739133 0.054690745 0.9915787 3.7711437e-05
-2.5771713 0.27997041 -1.3783686 7 0.11736488 0.054860234 0.99157244 3.2611108e-05
-2.5745745 0.28741944 -1.3774297 8 0.11727677 0.05503092 0.99157339 3.0881863e-05
-2.5737619 0.29460803 -1.3774297 7 0.11724067 0.055170029 0.99156994 2.750456e-05
-2.5729291 0.30179435 -1.3774297 7 0.11718198 0.055337489 0.99156749 2.6379779e-05
-2.5737214 0.31008726 -1.3783686 7 0.11711274 0.055534169 0.99156469 2.4095663e-05
-2.5764616 0.31680581 -1.3802464 7 0.11704671 0.055626329 0.99156731 2.6587506e-05
-2.5772057 0.32512018 -1.3811854 7 0.11698841 0.055800103 0.99156445 2.014161e-05
-2.572727 0.33231258 -1.3793076 6 0.11694337 0.0559601 0.99156076 1.7715052e-05
-2.5718484 0.33904642 -1.3793076 7 0.11691397 0.056068975 0.99155802 1.3990105e-05
-2.5777702 0.34807035 -1.3830633 7 0.11686629 0.056231834 0.99155444 1.195688e-05
-2.5732896 0.3547847 -1.3811854 7 0.11683304 0.05637389 0.99155033 5.8982114e-06
-2.581032 0.36319977 -1.3858801 6 0.116753 0.056547392 0.99154985 5.8561673e-06
-2.5746994 0.37010202 -1.3830633 7 0.11672075 0.056673922 0.99154639 4.7901185e-06
-2.5753372 0.37799627 -1.3840023 7 0.11666692 0.056797624 0.99154568 2.3386062e-06
-2.5743387 0.38473737 -1.3840023 8 0.11662789 0.056882225 0.99154544 2.9323828e-06
-2.5696261 0.39228952 -1.3821244 7 0.11657859 0.056983888 0.99154538 2.8904662e-06
-2.5702653 0.39973527 -1.3830633 7 0.11651542 0.05710287 0.99154598 1.8341418e-06
-2.5726273 0.40746388 -1.3849412 7 0.11648276 0.057210714 0.99154365 0
-2.5748937 0.41565824 -1.3868191 7 0.11645673 0.057357065 0.99153817 0
-2.570164 0.4227232 -1.3849412 7 0.11638529 0.057464108 0.99154043 2.4649919e-06
-2.5724568 0.43048191 -1.3868191 7 0.11635078 0.05757517 0.99153799 2.5037284e-06
-2.5694275 0.43781555 -1.3858801 7 0.11631893 0.057697147 0.99153465 5.897146e-07
-2.5698574 0.44573921 -1.3868191 7 0.11627363 0.057794504 0.99153435 1.3050492e-06
-2.5685234 0.45336172 -1.3868191 8 0.11623254 0.057890646 0.99153346 2.6943928e-06
-2.5759382 0.4620918 -1.3915138 6 0.11620209 0.057970233 0.99153239 3.1891484e-06
-2.5745559 0.46973288 -1.3915138 7 0.11618006 0.058062892 0.99152958 4.0937366e-06
-2.5714145 0.47704768 -1.3905748 7 0.11617433 0.058170103 0.99152398 3.0038977e-06
-2.5684211 0.48345089 -1.3896359 6 0.11614934 0.058227625 0.9915235 6.9072357e-06
-2.5687099 0.49140203 -1.3905748 7 0.11611746 0.058299713 0.99152303 1.1618607e-05
-2.568974 0.49935788 -1.3915138 7 0.11607455 0.058387246 0.99152285 1.3381348e-05
-2.5692134 0.50732017 -1.3924527 7 0.11605207 0.058456957 0.99152136 1.4553333e-05
-2.5729811 0.51553375 -1.3952696 7 0.11605675 0.058516588 0.99151736 1.5851412e-05
-2.5698009 0.52236462 -1.3943306 7 0.11602074 0.058595389 0.99151695 1.6951994e-05
-2.5735207 0.53060877 -1.3971474 7 0.11601849 0.0586574 0.99151355 1.8828452e-05
-2.5735695 0.53905326 -1.3980864 7 0.11599156 0.058753513 0.99151093 1.9718138e-05
-2.5685997 0.5455038 -1.3962085 6 0.11598457 0.058780871 0.99151015 2.1583312e-05
-2.5668731 0.55357069 -1.3962085 7 0.11594501 0.058887523 0.99150842 2.3818486e-05
-2.5706887 0.56097078 -1.3990254 7 0.11590221 0.058979176 0.99150801 2.5217376e-05
-2.5689137 0.56904358 -1.3990254 7 0.11591711 0.059057195 0.99150163 2.7054179e-05
-2.5705593 0.57788604 -1.4009032 7 0.11590667 0.059141252 0.99149781 3.0646566e-05
-2.5691395 0.58416563 -1.4009032 7 0.11591735 0.059207145 0.99149269 2.8973142e-05
-2.5655708 0.59183651 -1.3999643 7 0.11592332 0.05924698 0.99148959 2.7584254e-05
-2.5706818 0.60105437 -1.4037201 7 0.11591937 0.059314635 0.99148601 3.240562e-05
-2.5689931 0.60823095 -1.4037201 7 0.11596286 0.059386138 0.99147666 3.0756484e-05
-2.5655673 0.61499107 -1.4027811 6 0.11595401 0.059460256 0.9914732 3.0317204e-05
-2.5636227 0.62304747 -1.4027811 8 0.11593877 0.059505798 0.99147224 3.2997919e-05
-2.5619826 0.62975705 -1.4027811 8 0.11595543 0.059559572 0.99146712 3.4397206e-05
-2.5652437 0.63863587 -1.4055979 7 0.11596137 0.059628587 0.99146229 4.0114737e-05
-2.561625 0.64581269 -1.404659 6 0.11596186 0.059683483 0.99145889 3.9745453e-05
-2.5599256 0.65251702 -1.404659 7 0.11595924 0.059751466 0.99145514 3.8138834e-05
-2.5612826 0.66143858 -1.4065368 7 0.1159967 0.059808813 0.99144727 3.5126199e-05
-2.5576005 0.66858876 -1.4055979 8 0.11601927 0.059870224 0.99144095 3.2286629e-05
-2.5558412 0.67528248 -1.4055979 7 0.11604329 0.059911717 0.99143559 3.0038806e-05
-2.5606503 0.68468755 -1.4093537 7 0.11607858 0.059948117 0.99142921 3.0448209e-05
-2.5550776 0.69180512 -1.4074758 7 0.11603642 0.060023487 0.99142963 3.0299687e-05
-2.5566642 0.69942415 -1.4093537 7 0.11605898 0.060070068 0.9914242 2.8363205e-05
-2.5529993 0.70608974 -1.4084148 8 0.11602772 0.060120493 0.9914248 2.8512392e-05
-2.5524688 0.71458358 -1.4093537 8 0.11607055 0.060169429 0.99141681 2.7769394e-05
-2.553988 0.72222406 -1.4112315 7 0.11603735 0.06024503 0.9914161 2.6715636e-05
-2.5534041 0.73073006 -1.4121705 7 0.11605262 0.060287394 0.99141175 2.4152721e-05
-2.5546172 0.73928487 -1.4140484 6 0.11608483 0.060336575 0.99140495 2.4428347e-05
-2.5492833 0.74497926 -1.4121705 7 0.11608509 0.060395051 0.99140137 2.3023082e-05
-2.5452366 0.75248384 -1.4112315 8 0.11609195 0.060444508 0.99139756 1.8309864e-05
-2.5448177 0.76009345 -1.4121705 7 0.1161028 0.060490895 0.99139351 1.805078e-05
-2.5460663 0.76821733 -1.4140484 7 0.11616489 0.060526196 0.99138403 1.4324478e-05
-2.5470178 0.77724379 -1.4159263 7 0.11616509 0.060609456 0.9913789 1.5780983e-05
-2.5431504 0.78383231 -1.4149874 7 0.1161591 0.060625561 0.99137866 1.5061357e-05
-2.5409517 0.79093117 -1.4149874 7 0.11618867 0.060634442 0.99137461 1.5226681e-05
-2.540278 0.79899675 -1.4159263 7 0.11622815 0.060662948 0.99136829 1.3802626e-05
-2.5412621 0.80760032 -1.4178042 7 0.11624427 0.060722824 0.99136263 1.2310644e-05
-2.5389969 0.81469387 -1.4178042 7 0.11624764 0.060753271 0.99136043 1.2948536e-05
-2.5332088 0.82113403 -1.4159263 7 0.11625491 0.060789201 0.99135739 1.4616043e-05
-2.5377641 0.82995975 -1.4196821 7 0.11633948 0.060788468 0.99134755 1.7553561e-05
-2.5351443 0.83792776 -1.4196821 7 0.11638846 0.060824223 0.99133956 1.6796141e-05
-2.5344696 0.84556299 -1.4206212 7 0.11639906 0.060856998 0.99133629 1.720376e-05
-2.5320985 0.85263741 -1.4206212 7 0.11641163 0.060893148 0.99133259 1.7147402e-05
-2.5310791 0.86115634 -1.4215599 8 0.11642249 0.060911823 0.99133021 1.6639429e-05
-2.533675 0.86994165 -1.4243768 7 0.1164843 0.060930423 0.99132186 1.8344015e-05
-2.529567 0.87643564 -1.4234378 7 0.11647075 0.060989689 0.99131972 1.6281894e-05
-2.5218012 0.88262761 -1.4206212 8 0.11646628 0.061044902 0.99131685 1.5379583e-05
-2.5261424 0.89157832 -1.4243768 8 0.11656299 0.061036848 0.99130601 1.9111341e-05
-2.5218225 0.89847642 -1.4234378 8 0.11655017 0.061109789 0.99130303 2.0530944e-05
-2.522469 0.90715027 -1.4253159 8 0.11656826 0.061136346 0.99129927 1.9524601e-05
-2.5199261 0.91419095 -1.4253159 8 0.11655891 0.061181229 0.9912976 2.1994463e-05
-2.52068 0.92243761 -1.4271936 7 0.11660461 0.061241947 0.99128842 2.0475414e-05
-2.5113058 0.92746496 -1.4234378 7 0.11658095 0.061274834 0.99128926 2.2160255e-05
-2.5151618 0.9373796 -1.4271936 7 0.11660726 0.061331302 0.99128258 2.2122831e-05
-2.5108814 0.9437778 -1.4262547 7 0.11658273 0.061360974 0.99128366 2.8097555e-05
-2.509721 0.95185 -1.4271936 8 0.11662829 0.061377935 0.99127728 2.3574987e-05
-2.5103521 0.96011597 -1.4290715 8 0.11668764 0.061380256 0.99127012 2.2449145e-05
-2.5058448 0.96692449 -1.4281325 8 0.11663143 0.061438676 0.99127316 2.6246438e-05
-2.5046105 0.97499597 -1.4290715 7 0.11662911 0.061462734 0.99127191 2.8679016e-05
-2.5051656 0.98327702 -1.4309494 7 0.11666314 0.061508592 0.99126506 2.8566776e-05
-2.5007682 0.98961931 -1.4300106 7 0.11668218 0.061547454 0.99126047 3.1325635e-05
-2.4992869 0.99812526 -1.4309494 8 0.11668745 0.061599027 0.99125659 3.1881784e-05
-2.502866 1.0081763 -1.4347053 8 0.1167041 0.061621428 0.9912532 3.8646464e-05
-2.5002184 1.014725 -1.4347053 7 0.11672017 0.061653104 0.99124932 3.96951e-05
-2.4937499 1.0212356 -1.4328272 7 0.11670571 0.061687138 0.99124891 4.0024875e-05
-2.4928794 1.0279994 -1.4337662 7 0.11672835 0.0617016 0.99124539 4.1054998e-05
-2.4863768 1.0344695 -1.4318883 8 0.11672498 0.061719533 0.99124467 3.9821854e-05
-2.4863713 1.0436419 -1.4337662 8 0.11674731 0.061727032 0.99124151 4.1821531e-05
-2.4915788 1.0540212 -1.4384609 7 0.11683346 0.061713308 0.99123234 3.7781214e-05
-2.4886255 1.0609751 -1.4384609 7 0.11683305 0.061706189 0.99123281 3.617716e-05
-2.4838443 1.067657 -1.4375219 8 0.11685877 0.061674405 0.99123174 4.0378294e-05
-2.4810407 1.0741557 -1.4375219 8 0.11684354 0.061712399 0.99123114 4.2807238e-05
-2.479461 1.0822195 -1.4384609 8 0.11686199 0.06169989 0.99122971 4.7238314e-05
-2.4792817 1.0914263 -1.4403389 8 0.11707267 0.061512154 0.99121654 4.9787275e-05
-2.4748015 1.0971971 -1.4394 8 0.11709027 0.061458841 0.99121779 4.8522357e-05
-2.4747593 1.1059769 -1.4412779 8 0.11728077 0.061219592 0.99121004 5.2497166e-05
-2.4744928 1.1151967 -1.4431556 7 0.11744914 0.060958657 0.99120617 5.9301678e-05
-2.4749765 1.1226989 -1.4450336 7 0.11751407 0.060701154 0.99121428 6.7153509e-05
-2.4698315 1.1297344 -1.4440947 7 0.11754765 0.06061304 0.99121571 7.2981478e-05
-2.4680722 1.1377969 -1.4450336 7 0.11769807 0.060396794 0.99121106 7.443635e-05
-2.465085 1.1442541 -1.4450336 7 0.11769918 0.060190868 0.99122345 8.2033373e-05
-2.4646771 1.1534899 -1.4469115 7 0.11828757 0.059531394 0.99119329 0.00010383326
-2.4630437 1.1611205 -1.4478503 7 0.11866419 0.059065927 0.99117607 0.00011413757
-2.4613869 1.1687518 -1.4487894 8 0.11899692 0.058761179 0.99115437 0.00011976522
-2.4547224 1.1745256 -1.4469115 8 0.11902478 0.058675751 0.99115604 0.00012415418
-2.4575891 1.1848716 -1.4506673 7 0.11913221 0.05844019 0.99115705 0.00013480957
-2.4526823 1.1909585 -1.4497283 7 0.11914242 0.058407255 0.99115777 0.00013599504
-2.4523106 1.1997823 -1.4516063 7 0.11931889 0.058201849 0.99114859 0.00014039477
-2.4519076 1.2086148 -1.4534841 7 0.1194085 0.058092006 0.99114418 0.00013873118
-2.448735 1.2150298 -1.4534841 8 0.11943993 0.057946388 0.99114901 0.00013914246
-2.4433267 1.2219265 -1.452545 7 0.11946875 0.057957325 0.9911449 0.00013888472
-2.4383278 1.2279507 -1.4516063 8 0.11943053 0.057843853 0.99115604 0.00014443838
-2.4427638 1.2387484 -1.456301 7 0.1196641 0.057706799 0.99113595 0.0001411385
-2.4372873 1.245613 -1.455362 7 0.11964418 0.057658434 0.9911412 0.00014557144
-2.4353697 1.2532226 -1.456301 8 0.11976338 0.057628062 0.99112856 0.00014132689
-2.4349964 1.2616434 -1.4581788 7 0.11986592 0.057553463 0.99112046 0.00013612708
-2.4278903 1.2676519 -1.456301 7 0.11988041 0.057537537 0.99111962 0.00013806563
-2.4290299 1.2768921 -1.4591177 8 0.12000263 0.05743267 0.99111092 0.00013782033
-2.4254546 1.2836704 -1.4591177 7 0.12003799 0.057419688 0.9911074 0.00013706613
-2.4216354 1.2908608 -1.4591177 8 0.12007774 0.05737 0.99110544 0.00013442709
-2.42136 1.2988659 -1.4609957 8 0.1201308 0.057246756 0.99110615 0.00013682661
-2.4185927 1.3077282 -1.4619346 8 0.12023429 0.057129521 0.99110037 0.00013606659
-2.4133806 1.3136331 -1.4609957 7 0.12013558 0.057079934 0.99111521 0.00013724098
-2.4130309 1.321643 -1.4628735 8 0.12034019 0.056921709 0.99109942 0.00013656773
-2.4090991 1.3287963 -1.4628735 7 0.12032228 0.056830902 0.99110687 0.00014062239
-2.4066894 1.3367959 -1.4638124 7 0.12071012 0.056662578 0.99106938 0.00015342238
-2.4029469 1.3435117 -1.4638124 7 0.12096135 0.056475256 0.99104947 0.00015692982
-2.4004889 1.3515019 -1.4647514 7 0.12127405 0.056308687 0.99102068 0.00017350554
-2.3964686 1.3586179 -1.4647514 8 0.12131625 0.056213338 0.99102092 0.00017572891
-2.3957324 1.3670553 -1.4666293 8 0.1214901 0.056119695 0.99100488 0.00018578138
-2.3947282 1.3759172 -1.4685072 8 0.12165135 0.05633546 0.99097294 0.00020599742
-2.3878191 1.3808314 -1.4666293 8 0.12154263 0.056401625 0.99098253 0.00020648028
-2.3854799 1.3883823 -1.4675682 8 0.12164877 0.056691539 0.99095285 0.00022024311
-2.3826301 1.3967624 -1.4685072 8 0.12158217 0.056924026 0.99094778 0.00023430082
-2.3848038 1.4069999 -1.472263 7 0.12164144 0.05711031 0.99092972 0.0002485211
-2.3823841 1.4145559 -1.4732019 9 0.12154308 0.057448924 0.99092221 0.00026321984
-2.372113 1.4179941 -1.4694461 7 0.12165674 0.057359114 0.99091351 0.00026354374
-2.3711705 1.4264336 -1.471324 7 0.12154369 0.057589911 0.99091393 0.00026701638
-2.3669281 1.4334623 -1.471324 8 0.12152342 0.05780362 0.99090403 0.00027051754
-2.36568 1.4423174 -1.4732019 8 0.12128642 0.058043104 0.99091905 0.00028094725
-2.3616431 1.4489183 -1.4732019 8 0.12127608 0.058241077 0.99090874 0.0002868117
-2.361841 1.4587022 -1.4760187 7 0.12128856 0.058236782 0.99090743 0.00028685096
-2.3575022 1.4657037 -1.4760187 8 0.12128515 0.058379311 0.99089944 0.00029326303
-2.3534 1.4722815 -1.4760187 8 0.12125902 0.058476556 0.990897 0.00030291764
-2.3522685 1.4807293 -1.4778966 8 0.12126267 0.058612812 0.99088848 0.00030695889
-2.3476052 1.4881115 -1.4778966 8 0.12123871 0.058609419 0.99089158 0.00030983204
-2.3479068 1.4975103 -1.4807134 7 0.12115171 0.059041861 0.99087656 0.00032457805
-2.3437159 1.5040612 -1.4807134 7 0.12108416 0.059089284 0.99088198 0.00033236682
-2.3360128 1.5094995 -1.4788355 8 0.12107509 0.059407089 0.9908641 0.0003427215
-2.33676 1.5180894 -1.4816524 8 0.12097193 0.059714254 0.9908582 0.00035427237
-2.3349347 1.5273565 -1.4835302 8 0.12116706 0.059869934 0.99082494 0.0003641136
-2.3286502 1.5337131 -1.4825914 7 0.12085579 0.060619082 0.99081749 0.00038382236
-2.3293128 1.5423229 -1.4854081 7 0.12095913 0.060828574 0.99079198 0.00039090999
