# .PCD v0.7 - Point Cloud Data file format
VERSION 0.7
FIELDS x y z intensity normal_x normal_y normal_z curvature
SIZE 4 4 4 4 4 4 4 4
TYPE F F F F F F F F
COUNT 1 1 1 1 1 1 1 1
WIDTH 209
HEIGHT 1
VIEWPOINT 0 0 0 1 0 0 0
POINTS 209
DATA ascii
4.7932673 4.2511754 -2.501797 38 0.11302453 0.047972705 0.99243343 0.0014347037
4.7940187 4.2250104 -2.4952497 41 0.11347811 0.047804948 0.99238974 0.0014233458
4.8128037 4.2177467 -2.4988871 32 0.11425646 0.047625631 0.99230897 0.0014075171
4.8301826 4.2091851 -2.501797 29 0.11501341 0.047593262 0.99222314 0.0013968468
4.8215289 4.176537 -2.490885 38 0.11507324 0.047219742 0.99223405 0.0013914423
4.8338575 4.1651168 -2.4916124 38 0.11561462 0.047057595 0.99217886 0.0013910325
4.8313508 4.1365829 -2.4836102 35 0.11574103 0.046764255 0.99217802 0.0013855185
4.8513937 4.130322 -2.4879749 35 0.11657429 0.046562742 0.99208993 0.0013742277
4.8872147 4.1139598 -2.4945223 44 0.1185841 0.045596011 0.99189657 0.0013480732
4.8949137 4.1423869 -2.5039794 41 0.11857018 0.045811158 0.99188828 0.0013576658
4.9058294 4.1033678 -2.4974322 41 0.11911295 0.045301586 0.99184668 0.0013543447
4.9229288 4.0711546 -2.4945223 44 0.12019186 0.044898961 0.99173486 0.0013325439
4.8871913 4.0646338 -2.4821551 49 0.11869704 0.045150355 0.99190342 0.0013381431
4.9580131 4.0754595 -2.5061619 41 0.12096578 0.044437405 0.99166155 0.0013340523
4.952033 4.0445442 -2.4967048 21 0.12099069 0.043902602 0.99168229 0.0013349133
4.9293485 4.0045462 -2.4799726 15 0.12126256 0.045264576 0.99158788 0.0012273272
4.9397583 3.9887331 -2.4792452 17 0.12178618 0.044603404 0.99155366 0.001236767
4.9552374 3.9784207 -2.4814277 30 0.1223639 0.043900557 0.99151385 0.0012213396
4.9808173 3.9732904 -2.4879749 24 0.12233948 0.043880422 0.99151784 0.001205201
5.0006514 3.9663134 -2.4923398 23 0.122678 0.043792035 0.99147987 0.0012030371
5.0138612 3.9526103 -2.4930673 34 0.12251092 0.04391329 0.99149519 0.0011799242
5.0460968 3.9538043 -2.503252 17 0.12177348 0.044066835 0.99157923 0.0011439171
5.0549622 3.9394326 -2.5025244 24 0.1218631 0.043956392 0.9915731 0.0011338363
5.0570011 3.9155495 -2.4974322 28 0.12171577 0.042670712 0.99164736 0.0011263981
5.0760903 3.9091184 -2.501797 30 0.12163106 0.042819634 0.9916513 0.0011092094
5.0943842 3.9005895 -2.5054345 15 0.12167123 0.042901486 0.99164283 0.0010907816
5.1102562 3.8859305 -2.5068893 13 0.11974248 0.043912299 0.99183339 0.0010158169
5.1174417 3.8702896 -2.5054345 13 0.11967167 0.044029836 0.99183667 0.001009976
5.1267395 3.8548648 -2.5047069 11 0.11864761 0.044616774 0.99193352 0.00091842213
5.146287 3.8443155 -2.5083444 13 0.11896887 0.043987483 0.99192309 0.00091421342
5.1458645 3.8230531 -2.503252 21 0.11760942 0.045695387 0.99200803 0.00078235765
5.1668444 3.8135049 -2.507617 24 0.11789316 0.045648765 0.99197644 0.00077259156
5.1796384 3.7992604 -2.5083444 19 0.11850109 0.04544621 0.99191332 0.00075293379
5.1895661 3.7856877 -2.5083444 15 0.11874995 0.045508683 0.99188071 0.00074924913
5.2007771 3.770272 -2.5083444 15 0.1189562 0.045595396 0.99185205 0.00073509372
5.2104282 3.7537365 -2.507617 17 0.11882415 0.045787867 0.99185902 0.00071846036
5.2163463 3.735918 -2.5054345 21 0.11877383 0.045859169 0.9918617 0.00069873489
5.2341318 3.7238281 -2.5083444 23 0.11665817 0.046616506 0.99207753 0.00056559936
5.2453833 3.711189 -2.5090718 23 0.11640266 0.04887753 0.99199873 0.00036598174
5.2563705 3.6956105 -2.5090718 21 0.1167091 0.048585515 0.99197704 0.00035983793
5.2642574 3.6778653 -2.507617 23 0.11695541 0.048697844 0.99194252 0.00036230686
5.2760391 3.6642113 -2.5083444 23 0.11711916 0.048514787 0.99193215 0.00035935442
5.2967243 3.6539667 -2.5127094 15 0.1167293 0.049454018 0.99193174 0.00032605795
5.3053718 3.6381056 -2.5119817 11 0.11541606 0.051108476 0.99200159 0.00025952901
5.3194957 3.6273534 -2.5141642 11 0.11538462 0.05118518 0.99200124 0.00025418826
5.3286924 3.6105101 -2.5134368 10 0.11494156 0.052252907 0.991997 0.00021083849
5.3461919 3.5979111 -2.5163467 11 0.11466124 0.052515008 0.9920156 0.0002052817
5.3524957 3.5818312 -2.5148916 11 0.11484646 0.052463204 0.99199694 0.00020477288
5.3708572 3.57109 -2.5185289 11 0.11481576 0.052140947 0.99201751 0.00020956507
5.3752098 3.5510347 -2.515619 10 0.1148374 0.052098513 0.99201715 0.00020488743
5.391335 3.5400989 -2.5185289 10 0.1150222 0.05202328 0.99199975 0.00020617775
5.3993082 3.5211098 -2.5170741 10 0.11423519 0.053983983 0.99198598 0.00012732935
5.4100704 3.5079768 -2.5178015 9 0.11423541 0.054030467 0.99198335 0.00012768392
5.4245443 3.4958813 -2.519984 9 0.11428598 0.0540254 0.99197781 0.00012478775
5.4339318 3.4778161 -2.5192564 8 0.11448907 0.053885896 0.99196196 0.00012183572
5.4404769 3.4606326 -2.5178015 8 0.11387104 0.055371638 0.99195135 3.3799224e-05
5.454845 3.448411 -2.519984 7 0.11402916 0.055332415 0.99193531 3.6316906e-05
5.4650536 3.4322093 -2.519984 8 0.11421825 0.055296544 0.99191558 3.3724893e-05
5.4777765 3.4189081 -2.5214388 7 0.11423948 0.055350296 0.99191016 2.6076425e-05
5.487896 3.4026413 -2.5214388 7 0.114297 0.055020928 0.99192184 2.9697872e-05
5.4995556 3.3873188 -2.5221665 6 0.11432479 0.05485639 0.99192768 2.7200884e-05
5.5085797 3.3690538 -2.5214388 7 0.1143337 0.055141404 0.99191093 2.3601729e-05
5.5205641 3.3565576 -2.5228939 7 0.11445189 0.054732695 0.99191988 2.1253352e-05
5.5352845 3.3430507 -2.5250764 6 0.11448655 0.055077739 0.99189681 1.38547e-05
5.5414023 3.3256638 -2.5236213 6 0.1145269 0.055038467 0.9918943 1.1406631e-05
5.5522695 3.3111289 -2.524349 6 0.11432195 0.054485898 0.99194849 6.7688188e-06
5.5642467 3.29462 -2.5250764 6 0.11429343 0.054204244 0.9919672 8.2545857e-06
5.5691791 3.2752635 -2.5228939 6 0.11439941 0.054066479 0.99196249 6.856616e-06
5.5815206 3.2615798 -2.524349 7 0.11439032 0.054040242 0.991965 6.3448811e-06
5.5954404 3.2487848 -2.5265312 6 0.11429668 0.054179318 0.99196821 3.7085233e-06
5.6002135 3.2293777 -2.524349 7 0.11416414 0.054230031 0.99198067 0
5.6124434 3.2155771 -2.5258038 6 0.11409491 0.054351166 0.99198204 1.1066006e-06
5.624136 3.1988511 -2.5265312 6 0.11405002 0.054412041 0.99198383 0
5.6270709 3.182349 -2.524349 6 0.11405416 0.054527942 0.99197698 0
5.645164 3.1692138 -2.5279863 6 0.11405946 0.05460367 0.99197221 0
5.6507387 3.1516201 -2.5265312 6 0.11403815 0.054415084 0.99198502 0
5.6578865 3.1349292 -2.5258038 6 0.11405923 0.054302901 0.99198878 0
5.6720605 3.1208205 -2.5279863 6 0.11407284 0.054233771 0.99199092 0
5.6796613 3.1030827 -2.5272589 6 0.11404136 0.054084685 0.99200279 0
5.6883025 3.0872138 -2.5272589 6 0.11407051 0.053963266 0.992006 0
5.6974382 3.0703208 -2.5272589 7 0.11409838 0.053823274 0.99201041 0
5.7098088 3.0551586 -2.5287137 6 0.11410221 0.05371153 0.99201602 0
5.7204924 3.0390818 -2.5294414 7 0.11414859 0.053709242 0.99201077 0
5.7273097 3.0222239 -2.5287137 7 0.11414379 0.053523879 0.99202132 0
5.7412033 3.0078094 -2.5308962 6 0.11406148 0.053491712 0.99203253 0
5.7457528 2.9910493 -2.5294414 6 0.11403146 0.053417929 0.99203998 1.3385212e-06
5.7534647 2.9721296 -2.5287137 6 0.11404567 0.053397704 0.99203944 1.8997818e-06
5.7650585 2.9577506 -2.5301688 6 0.1140369 0.053398859 0.9920404 2.2932034e-06
5.769341 2.9370899 -2.5279863 5 0.11404495 0.053382881 0.99204034 4.3957862e-06
5.7720227 2.9194541 -2.5258038 5 0.11408798 0.053377207 0.99203569 5.8073169e-06
5.7889853 2.9064932 -2.5294414 6 0.1140673 0.053400587 0.99203682 7.2916541e-06
5.7970786 2.8903172 -2.5294414 5 0.11407913 0.053457417 0.99203241 8.4040248e-06
5.8034577 2.8732889 -2.5287137 5 0.11409051 0.053479768 0.99202985 6.6152511e-06
5.8107834 2.8542225 -2.5279863 5 0.11411858 0.053465173 0.99202746 8.0688988e-06
5.8237543 2.8404355 -2.5301688 5 0.11414633 0.05345517 0.99202478 7.4320774e-06
5.8304791 2.8223331 -2.5294414 5 0.11413921 0.053502873 0.99202305 5.3948952e-06
5.8405075 2.8058264 -2.5301688 5 0.11414602 0.053542525 0.99202013 1.3104542e-06
5.8437614 2.7860806 -2.5279863 5 0.11413005 0.053507168 0.99202383 1.0533857e-06
5.8556018 2.7741871 -2.5301688 5 0.11418504 0.053462401 0.99201995 0
5.8642893 2.7557757 -2.5301688 4 0.11423037 0.053461075 0.99201477 0
5.8753381 2.7409651 -2.5316238 4 0.11430965 0.053388014 0.99200964 0
5.8788471 2.7201478 -2.5294414 4 0.11436652 0.053375572 0.99200368 0
5.8881145 2.7044961 -2.5301688 4 0.11442474 0.053283684 0.99200189 0
5.8922524 2.6864982 -2.5287137 4 0.11449236 0.053230781 0.991997 0
5.8980355 2.6692636 -2.5279863 4 0.11454865 0.053165175 0.99199396 0
5.9088655 2.6543105 -2.5294414 4 0.1146399 0.053045973 0.99198985 0
5.9171739 2.6357353 -2.5294414 4 0.11473358 0.052937768 0.99198478 0
5.9194007 2.6169395 -2.5272589 3 0.11481325 0.052817792 0.99198192 0
5.9266849 2.6004002 -2.5272589 3 0.11488484 0.052680559 0.99198097 0
5.938241 2.5832555 -2.5287137 3 0.11497489 0.05250781 0.99197972 0
5.9552445 2.5721335 -2.5330787 3 0.11511014 0.052316055 0.99197417 0
5.9525762 2.5500493 -2.5287137 3 0.11514995 0.052153628 0.99197805 0
5.9601154 2.5323775 -2.5287137 3 0.11527094 0.051912729 0.99197668 0
5.9611754 2.5107465 -2.5258038 3 0.1153218 0.051611092 0.99198651 0
5.9746022 2.4980071 -2.5287137 3 0.11551694 0.051346958 0.99197751 0
5.980267 2.4795568 -2.5279863 3 0.11563814 0.05098753 0.99198192 2.6728339e-06
5.9837222 2.4614275 -2.5265312 3 0.11578229 0.050649289 0.99198234 4.5258421e-06
5.990572 2.4447093 -2.5265312 3 0.11592171 0.050305374 0.99198359 9.4164043e-06
6.0012546 2.4283202 -2.5279863 3 0.11606139 0.049878441 0.9919889 1.1878208e-05
6.008853 2.4094558 -2.5279863 3 0.11616138 0.04945232 0.99199849 1.1489342e-05
6.0172896 2.393353 -2.5287137 3 0.11637087 0.049009863 0.99199587 1.4527664e-05
6.020484 2.375174 -2.5272589 3 0.11649965 0.048523735 0.99200469 1.6048958e-05
6.027915 2.3562496 -2.5272589 3 0.1166397 0.047983225 0.99201453 2.1060916e-05
6.0340629 2.3404615 -2.5272589 3 0.1168521 0.047384486 0.99201834 2.4436878e-05
6.0409813 2.322546 -2.5272589 3 0.11702456 0.046795674 0.99202597 2.4933797e-05
6.046104 2.3039494 -2.5265312 3 0.1172277 0.046052728 0.9920367 3.0826475e-05
6.0490289 2.2857406 -2.5250764 3 0.11731756 0.04541067 0.99205565 3.1114683e-05
6.0518994 2.2675302 -2.5236213 3 0.11739326 0.04468707 0.99207962 3.2794062e-05
6.0589924 2.2485077 -2.5236213 3 0.11759348 0.044189338 0.99207813 3.5479094e-05
6.0683551 2.2339258 -2.5250764 3 0.11780521 0.043479864 0.99208438 3.9925002e-05
6.0697069 2.213994 -2.5228939 3 0.11803956 0.04265568 0.99209231 5.2456202e-05
6.0836406 2.1974473 -2.5258038 3 0.11839172 0.041959736 0.99208003 5.5560573e-05
6.0841103 2.1796286 -2.5236213 3 0.11845138 0.041137062 0.99210733 6.4437161e-05
6.0919299 2.1632519 -2.524349 3 0.11855168 0.04068058 0.99211419 6.6448374e-05
6.0951815 2.1428652 -2.5228939 3 0.11890519 0.03960621 0.99211538 7.5540702e-05
6.1028991 2.1264529 -2.5236213 3 0.11899601 0.039174162 0.99212158 7.4680916e-05
6.1113129 2.1078725 -2.524349 3 0.11925621 0.038300984 0.9921245 7.8562371e-05
6.1097584 2.0894551 -2.5214388 3 0.11945544 0.03738543 0.99213541 8.7833643e-05
6.1155691 2.0723865 -2.5214388 3 0.11965674 0.036269281 0.99215263 9.298636e-05
6.1167502 2.0513878 -2.5192564 3 0.11980512 0.035211053 0.99217278 9.5324351e-05
6.1185651 2.0341899 -2.5178015 3 0.1200809 0.03421041 0.99217451 0.00010027445
6.1263428 2.0166104 -2.5185289 3 0.12035668 0.03305573 0.99218023 0.00010591994
6.1361914 1.9985061 -2.519984 3 0.12062939 0.032014649 0.99218124 0.00011154286
6.1452932 1.9825077 -2.5214388 3 0.12086983 0.031155104 0.99217933 0.00010927999
6.1383839 1.9613709 -2.5163467 3 0.12102613 0.029931122 0.99219793 0.00011796677
6.1477284 1.9442742 -2.5178015 3 0.1213666 0.028959397 0.99218524 0.00012331174
6.1566896 1.9282104 -2.5192564 3 0.1216533 0.027893182 0.99218065 0.00012412154
6.1662765 1.9099629 -2.5207114 3 0.1219221 0.026839063 0.99217671 0.00012575774
6.1662421 1.8910981 -2.5185289 3 0.12212676 0.025431963 0.99218863 0.00013512741
6.1643691 1.8717046 -2.515619 2 0.12226325 0.024159344 0.99220359 0.00013982957
6.1746001 1.8571707 -2.5178015 2 0.12261464 0.023079174 0.99218595 0.00014499536
6.1842952 1.8377472 -2.5192564 3 0.12290052 0.021922627 0.99217683 0.00014823246
6.185513 1.8204937 -2.5178015 2 0.1231491 0.020589277 0.99217463 0.0001617274
6.198041 1.8042197 -2.5207114 2 0.12337615 0.019946048 0.99215949 0.00016074581
6.2015772 1.7853047 -2.519984 2 0.12364431 0.018497782 0.99215418 0.00016637526
6.2047472 1.7674671 -2.5192564 2 0.12405495 0.01747041 0.99212152 0.00017419143
6.2096572 1.7501373 -2.5192564 2 0.12445604 0.01642029 0.99208921 0.00017640345
6.2148232 1.7317034 -2.5192564 2 0.12478074 0.015453112 0.992064 0.00017550097
6.230711 1.7162225 -2.5236213 2 0.12545788 0.014326251 0.99199551 0.00018231393
6.2303829 1.696261 -2.5214388 2 0.12539327 0.013664953 0.99201304 0.000180027
6.2386932 1.6798259 -2.5228939 2 0.125681 0.013174971 0.99198318 0.00017833879
6.2454505 1.6617851 -2.5236213 2 0.1259865 0.012240859 0.99195641 0.00017727018
6.2575603 1.6451429 -2.5265312 2 0.12632895 0.011706087 0.99191934 0.00017316018
6.2639332 1.6281321 -2.5272589 2 0.12645279 0.011039325 0.99191123 0.00017014935
6.2630429 1.6092408 -2.5250764 2 0.12671302 0.010281384 0.99188614 0.00016836864
6.2807078 1.5927638 -2.5301688 2 0.12718529 0.0096018231 0.99183249 0.0001623437
6.285131 1.5752196 -2.5301688 2 0.1273066 0.0089772539 0.99182278 0.00015829039
6.2876978 1.5572122 -2.5294414 2 0.12740812 0.0081283841 0.99181706 0.00016035121
6.2997975 1.5392212 -2.5323513 2 0.1279505 0.0073369429 0.99175346 0.00015736364
6.3035402 1.5238211 -2.5323513 2 0.12797891 0.0067496509 0.99175388 0.00015122187
6.3101077 1.5044436 -2.5330787 2 0.12838301 0.005819439 0.99170756 0.00014865365
6.3202438 1.485893 -2.5352609 2 0.12864196 0.0050175381 0.99167848 0.00014633399
6.3238559 1.4704431 -2.5352609 2 0.12898965 0.0043524662 0.9916364 0.00013958559
6.3336382 1.4529243 -2.5374434 1 0.12926017 0.0034800076 0.99160457 0.00013116781
6.3508911 1.4358964 -2.5425358 1 0.12976514 0.0023527443 0.99154198 0.00012568412
6.3619013 1.4208871 -2.5454457 1 0.13018247 0.0015653658 0.99148881 0.00012255185
6.3590555 1.3992934 -2.5425358 1 0.13045868 -1.3491423e-05 0.99145371 0.00012487319
6.3631792 1.3804208 -2.5425358 1 0.13072637 -0.0017236695 0.99141699 0.00012212023
6.3774643 1.3672096 -2.5469007 1 0.13116044 -0.0031928406 0.99135602 0.00011765376
6.3726125 1.3452446 -2.5432632 1 0.13127431 -0.0045691319 0.99133557 0.00011985658
6.3784013 1.3267083 -2.5439909 1 0.13161461 -0.0059458218 0.99128312 0.00010746701
6.3909769 1.3118792 -2.5476282 1 0.1317828 -0.0070993425 0.99125326 0.0001024874
6.3987188 1.2925339 -2.5490832 1 0.13208431 -0.0082665412 0.99120408 9.5467032e-05
6.4098349 1.2749949 -2.5519931 0 0.13234636 -0.0092474204 0.99116033 9.2034177e-05
6.4094944 1.2574933 -2.5505381 0 0.13244849 -0.010148983 0.99113786 8.6076361e-05
6.4166393 1.2402978 -2.5519931 0 0.13257852 -0.010889033 0.99111271 7.5855089e-05
6.4243779 1.2197059 -2.553448 0 0.1326046 -0.012576168 0.99108922 6.5945445e-05
6.4312105 1.2035692 -2.5549028 0 0.13263406 -0.0132732 0.99107623 6.6806053e-05
6.4402504 1.1854919 -2.5570853 0 0.13275884 -0.014657015 0.99103999 6.177678e-05
6.4510722 1.1677066 -2.5599952 0 0.13286453 -0.015167878 0.99101818 5.6943009e-05
6.4522729 1.1504878 -2.5592678 0 0.13296993 -0.015635082 0.99099672 5.4666805e-05
6.4629984 1.1326228 -2.5621777 0 0.13312851 -0.016052913 0.99096882 5.2018171e-05
6.4755101 1.1150268 -2.5658152 0 0.13321169 -0.016318753 0.99095327 4.8362941e-05
6.4694142 1.0953823 -2.5621777 0 0.13315675 -0.016628828 0.99095553 4.8995604e-05
6.4930401 1.0784085 -2.5701799 0 0.13329898 -0.01666088 0.9909358 4.869825e-05
6.49051 1.0593762 -2.5679977 0 0.13339676 -0.016539155 0.99092472 5.1752348e-05
6.4934435 1.0412452 -2.5679977 0 0.1335399 -0.016332518 0.99090886 5.2332649e-05
6.4985228 1.0211276 -2.5687251 0 0.13376802 -0.016403913 0.99087691 4.877703e-05
6.5048566 1.0046808 -2.5701799 0 0.13390172 -0.016258648 0.99086124 5.7388104e-05
6.5096507 0.98565626 -2.5709074 0 0.13393822 -0.016509708 0.99085218 5.2538468e-05
6.5162325 0.96688235 -2.5723624 0 0.13412407 -0.016229643 0.99083167 5.6844376e-05
6.5318117 0.95056093 -2.5774548 0 0.13429976 -0.015962973 0.99081218 6.0130362e-05
6.5289083 0.93152565 -2.5752723 0 0.13436565 -0.015764965 0.99080646 6.0858067e-05
6.5410275 0.91229779 -2.5789096 0 0.13461022 -0.0153011 0.99078053 6.6806722e-05
6.5544682 0.89668638 -2.5832746 0 0.13467237 -0.015192677 0.99077368 6.1417675e-05
6.5718732 0.8792094 -2.5890944 0 0.13470477 -0.01506009 0.99077129 6.3030871e-05
6.5967698 0.86145496 -2.5978241 0 0.13465385 -0.01482729 0.99078178 6.4444306e-05
6.593606 0.84231979 -2.5956416 0 0.13473693 -0.014397884 0.99077684 6.2182386e-05
6.577446 0.82159567 -2.588367 0 0.13498968 -0.013840133 0.99075031 6.6627355e-05
