# .PCD v0.7 - Point Cloud Data file format
VERSION 0.7
FIELDS x y z intensity normal_x normal_y normal_z curvature
SIZE 4 4 4 4 4 4 4 4
TYPE F F F F F F F F
COUNT 1 1 1 1 1 1 1 1
WIDTH 162
HEIGHT 1
VIEWPOINT 0 0 0 1 0 0 0
POINTS 162
DATA ascii
9.384469 5.0572433 -3.0568182 7 -0.4964518 -0.092778772 0.86309201 0.024610894
9.3689232 5.0130477 -3.0468955 9 -0.48884788 -0.088748299 0.86784297 0.023774898
9.3973351 4.9924493 -3.0513058 9 -0.48745024 -0.090371102 0.86846143 0.022854911
9.4231424 4.9724655 -3.0551646 10 -0.51291007 -0.088564612 0.85386163 0.022389039
9.4548864 4.9534035 -3.0606773 10 -0.52010065 -0.089951672 0.8493551 0.022283474
9.4746428 4.9321861 -3.0628824 9 -0.5072546 -0.083943218 0.85769832 0.021575823
9.4917974 4.9032807 -3.0634336 8 -0.47986346 -0.078781463 0.87379891 0.020753838
9.5208492 4.8846507 -3.0683954 8 -0.47759339 -0.080477394 0.87488741 0.020480193
9.5361471 4.8547177 -3.0683954 9 -0.43924454 -0.073771827 0.89533341 0.019377103
9.5419607 4.8262658 -3.0661902 9 -0.3929024 -0.064831853 0.91729194 0.017901748
9.5699844 4.804831 -3.0706003 8 -0.28913042 -0.043310296 0.95630944 0.014527312
9.5730419 4.772943 -3.0672927 13 -0.13135502 0.0028357934 0.99133134 0.0074259383
9.5915031 4.7487478 -3.0689466 17 -0.12584803 0.0014284971 0.9920485 0.0073173591
9.6132746 4.7219834 -3.0711515 16 -0.10646612 0.0072676293 0.99428982 0.0068780812
9.6281509 4.6959643 -3.0717027 14 -0.033023108 0.030309634 0.99899495 0.0057531269
9.6506939 4.6715665 -3.0744591 9 0.047013767 0.057522684 0.99723661 0.0039518946
9.6697121 4.6454067 -3.0761132 7 0.048539098 0.055401713 0.99728358 0.003906487
9.6799812 4.6150427 -3.0750103 7 0.049631227 0.053119287 0.99735403 0.0038556885
9.6894913 4.5905547 -3.0744591 5 0.049483381 0.050419327 0.99750155 0.0037664722
9.707346 4.5617242 -3.075562 5 0.12757814 0.074015178 0.98906296 0.0025893545
9.7165613 4.5329742 -3.0744591 5 0.12472895 0.070934094 0.98965198 0.0025277266
9.7342434 4.5040431 -3.075562 4 -0.26514643 -0.11928493 -0.95680118 1.9635485e-05
9.7485313 4.4776416 -3.0761132 4 -0.26588562 -0.1191138 -0.95661741 1.9392535e-05
9.7609959 4.4504032 -3.0761132 4 -0.264808 -0.11805556 -0.95704728 2.6658096e-05
9.7698841 4.4215393 -3.0750103 4 -0.26390386 -0.1170188 -0.9574244 2.6793985e-05
9.783947 4.3950291 -3.075562 4 -0.25785309 -0.11360885 -0.95948154 3.3638258e-05
9.7906799 4.3611426 -3.0733566 4 0.25106248 0.11026267 0.96167028 3.3778895e-05
9.8028221 4.3337822 -3.0733566 4 0.23216385 0.10172044 0.96734321 2.5150333e-05
9.8060827 4.3025298 -3.0706003 4 0.23112378 0.10095895 0.96767199 2.4079956e-05
9.8248396 4.2740049 -3.0722542 4 0.17723377 0.077421144 0.98111886 0
9.8412886 4.2505574 -3.0739079 4 0.17752814 0.077528603 0.98105717 0
9.8485575 4.2190652 -3.0722542 4 0.17957921 0.078295588 0.98062277 0
9.8557224 4.187571 -3.0706003 4 0.17936088 0.078165963 0.98067313 0
9.8741465 4.158824 -3.0722542 4 0.18022381 0.07837902 0.98049784 0
9.8867741 4.1337028 -3.0728054 4 0.17747584 0.07728301 0.9810859 0
9.895442 4.1028786 -3.0717027 4 0.17001438 0.074490495 0.98262215 0
9.9104185 4.0766892 -3.0728054 4 0.16494697 0.072681628 0.98362082 0
9.9146423 4.0460939 -3.0706003 4 0.1615366 0.071483463 0.98427433 0
9.9283876 4.0173774 -3.0711515 4 0.1608212 0.071210183 0.98441136 0
9.9427423 3.9868839 -3.0717027 4 0.15826438 0.070319168 0.98488957 0
9.9556265 3.9598107 -3.0722542 4 0.15407354 0.068870075 0.98565626 0
9.9630671 3.9305842 -3.0711515 4 0.15144813 0.067959704 0.98612624 0
9.9735746 3.898567 -3.0706003 4 0.14858696 0.067075312 0.98662198 0
9.9783688 3.8703592 -3.0689466 4 0.14758949 0.066711575 0.98679632 0
9.9951935 3.8428023 -3.0706003 4 0.14508955 0.065983944 0.98721588 0
9.9975681 3.8097081 -3.0678439 4 0.13601524 0.063294664 0.98868275 0
10.00457 3.7804172 -3.0667415 4 0.13571669 0.063158676 0.98873258 0
10.020491 3.7544849 -3.0683954 4 0.13072526 0.061674133 0.9894985 0
10.02142 3.7189748 -3.0650876 4 0.12583049 0.060156416 0.99022615 0
10.031122 3.6927278 -3.0650876 4 0.13805133 0.063223518 0.98840511 0
10.034811 3.6603105 -3.0628824 4 0.13455066 0.062038612 0.98896277 0
10.048069 3.6294222 -3.0634336 4 0.12943478 0.060424648 0.98974514 0
10.053915 3.6018085 -3.0623312 4 0.13047056 0.060351167 0.98961365 0
10.062123 3.5730724 -3.06178 4 0.12346756 0.058211479 0.99063981 0
10.066045 3.5388901 -3.0595748 4 0.13169432 0.059854217 0.98948175 0
10.068624 3.5082433 -3.0573699 4 0.14071351 0.061567292 0.98813421 0
10.074146 3.4747059 -3.0557158 4 0.1443041 0.061855797 0.98759818 0
10.077752 3.4464555 -3.0540621 4 0.14543979 0.061526638 0.98745215 0
10.085514 3.4176841 -3.0535107 4 0.15636824 0.063481495 0.98565674 0
10.094378 3.3853736 -3.0529594 4 0.20042162 0.073264576 0.97696644 0
10.094086 3.3558991 -3.0502033 4 0.20659259 0.073943473 0.97562897 0
10.094868 3.3229311 -3.0474467 4 0.23426121 0.079726331 0.96889913 0
10.097946 3.2888162 -3.0452416 4 -0.2646279 -0.086065695 -0.96050233 0
10.110749 3.2617869 -3.0463443 4 -0.29402369 -0.092214592 -0.95133936 0
10.110662 3.2306154 -3.0435879 4 -0.30179805 -0.093296476 -0.94879591 0
10.118368 3.2000246 -3.0430367 4 -0.33114421 -0.099553913 -0.93831366 0
10.140109 3.1757753 -3.0468955 4 -0.34366325 -0.10193707 -0.93354404 0
10.140853 3.1410615 -3.0441391 4 -0.34669593 -0.1020961 -0.93240458 0
10.138556 3.10935 -3.0408316 4 -0.35317108 -0.10314981 -0.92985499 0
10.139841 3.0787883 -3.0386262 4 -0.36500487 -0.10563213 -0.92499363 0
10.149709 3.0527875 -3.0391779 4 -0.36648819 -0.10556521 -0.92441463 0
10.15609 3.0180197 -3.038075 4 -0.36912364 -0.10584404 -0.92333359 0
10.158425 2.9897842 -3.0364213 4 -0.36516249 -0.10446616 -0.92506385 0
10.16725 2.9596372 -3.0364213 4 -0.36595052 -0.10443062 -0.92475641 0
10.170444 2.9278586 -3.0347674 4 -0.3639842 -0.10362589 -0.92562258 0
10.174885 2.8983896 -3.0336649 4 -0.36513042 -0.10374436 -0.92515767 0
10.179235 2.8689282 -3.0325625 4 -0.35887572 -0.10178545 -0.92781901 0
10.195111 2.8407741 -3.0347674 4 -0.36339289 -0.10296139 -0.92592895 0
10.197936 2.8089776 -3.0331137 4 -0.36831102 -0.10432225 -0.92383099 0
10.20808 2.7792141 -3.0336649 4 -0.36202845 -0.10229971 -0.92653668 0
10.219513 2.7516985 -3.0347674 4 -0.36157733 -0.10205519 -0.92673969 0
10.223918 2.7203729 -3.0336649 4 -0.35860705 -0.10094303 -0.92801476 0
10.231944 2.6900277 -3.0336649 4 -0.35596502 -0.0999121 -0.92914289 0
10.243136 2.6624134 -3.0347674 4 -0.35646346 -0.099829733 -0.92896056 0
10.254257 2.6347528 -3.0358701 4 -0.35116026 -0.097873487 -0.9311859 0
10.26621 2.603472 -3.0369725 4 -0.35285583 -0.098273546 -0.93050259 0
10.273439 2.574795 -3.0369725 4 -0.35554078 -0.099058442 -0.92939669 0
10.286188 2.5474792 -3.0386262 4 -0.34887132 -0.096386209 -0.93220085 0
10.299744 2.5165226 -3.0402803 4 -0.35389778 -0.097967848 -0.93013906 0
10.307732 2.4917965 -3.0408316 4 -0.35838753 -0.099374264 -0.92826885 0
10.321118 2.460741 -3.0424852 4 -0.35200807 -0.096621096 -0.9309966 0
10.343771 2.4318264 -3.0468955 4 -0.36033806 -0.099583529 -0.92749101 0
10.351555 2.4069767 -3.0474467 4 -0.3577534 -0.098283917 -0.92862952 0
10.354902 2.3753943 -3.0463443 4 -0.37400937 -0.10459691 -0.92150772 0
10.381065 2.3470933 -3.051857 4 -0.36542493 -0.10080455 -0.92536646 0
10.392803 2.3211615 -3.0535107 4 -0.36506766 -0.10030608 -0.92556155 0
10.41131 2.2909813 -3.0568182 4 -0.36166376 -0.098496832 -0.927091 0
10.423697 2.2613051 -3.0584724 4 -0.3648079 -0.09945704 -0.92575568 0
10.436712 2.2374368 -3.0606773 4 -0.36594138 -0.099886797 -0.92526197 0
10.447451 2.2054341 -3.06178 4 -0.33957863 -0.088018037 -0.9364503 0
10.463361 2.1763806 -3.0645363 4 -0.34064305 -0.088005811 -0.93606472 0
10.47279 2.149755 -3.0656388 4 -0.352121 -0.092591889 -0.93136328 0
10.487028 2.1183677 -3.0678439 4 -0.33935481 -0.085753366 -0.93674153 0
10.49704 2.08799 -3.0689466 4 -0.32289258 -0.077623874 -0.94324696 0
10.510015 2.0619836 -3.0711515 4 -0.29438263 -0.064448453 -0.95351201 0
10.532721 2.0359118 -3.0761132 4 -0.29588133 -0.064296514 -0.9530583 0
10.548859 2.0027628 -3.0788693 4 0.19207245 0.016208792 0.98124683 0
10.563514 1.9769092 -3.0816257 4 0.15615624 -0.00073284586 0.98773211 0
10.580678 1.9476429 -3.0849335 4 0.09321399 -0.029405724 0.99521184 0
10.595869 1.9179549 -3.0876899 4 0.076158114 -0.037794832 0.99637914 0
10.604639 1.8908852 -3.0887923 4 0.012117437 -0.066434316 0.9977172 0
10.613991 1.8600729 -3.089895 4 0.0063184928 -0.069492035 0.99756247 0
10.625145 1.829558 -3.0915487 4 0.019208172 -0.064546078 0.99772984 0
10.6359 1.8008395 -3.0932024 4 0.026746824 -0.061682582 0.99773741 0
10.641505 1.767414 -3.0932024 4 0.081616797 -0.038479574 0.99592072 0
10.669168 1.7414136 -3.0998178 4 0.075420156 -0.04154779 0.99628597 0
10.675888 1.7119141 -3.100369 4 0.071674913 -0.043492429 0.99647933 0
10.690709 1.6798552 -3.1031256 4 0.10415014 -0.030090678 0.99410629 0
10.693172 1.6515697 -3.1025743 4 0.090558819 -0.036214799 0.9952324 0
10.705628 1.6209886 -3.1047795 4 0.098593116 -0.032999594 0.99458057 0
10.712292 1.589496 -3.1053307 4 0.1025579 -0.031519756 0.99422753 0
10.730006 1.5615155 -3.1091895 4 0.10151973 -0.032090083 0.9943158 0
10.740034 1.5323569 -3.1108432 4 0.086716376 -0.038256109 0.99549824 0
10.75622 1.5002041 -3.114151 4 0.089740731 -0.037043206 0.99527603 0
10.769634 1.4733437 -3.1169074 4 0.085423447 -0.038790602 0.99558938 0
10.787298 1.4431645 -3.1207664 4 0.1199322 -0.025023866 0.99246663 0
10.799403 1.410266 -3.1229715 4 0.11697895 -0.026245836 0.99278754 0
10.805206 1.3803432 -3.1235228 4 0.12339209 -0.02378835 0.99207282 0
10.826188 1.3523104 -3.128484 4 0.12193934 -0.024411293 0.99223727 0
10.837787 1.3211151 -3.1306894 4 0.14749774 -0.014933549 0.98894966 0
10.854797 1.2924381 -3.1345482 4 0.15301695 -0.013092235 0.98813677 0
10.864312 1.2608873 -3.1362019 4 0.15276706 -0.0133838 0.98817164 0
10.862275 1.2280008 -3.1345482 4 0.16211118 -0.010094872 0.9867208 0
10.875007 1.2006158 -3.1373048 4 0.15116501 -0.014045747 0.9884088 0
10.880229 1.1704446 -3.137856 3 0.16087279 -0.01062201 0.98691797 0
10.889588 1.1368586 -3.1395097 3 0.16184042 -0.010414217 0.98676199 0
10.904197 1.1076124 -3.1428173 3 0.16633651 -0.0091399997 0.9860267 0
10.924654 1.0769482 -3.1477787 4 0.16475783 -0.010035929 0.986283 0
10.931629 1.0448973 -3.1488814 3 0.16524653 -0.010203824 0.9861995 0
10.945991 1.0154338 -3.152189 3 0.17802565 -0.0062019085 0.98400635 0
10.958358 0.98572069 -3.1549451 3 0.1723557 -0.0082052667 0.98500067 0
10.959319 0.95303243 -3.1543939 3 0.17419067 -0.0078076608 0.98468095 0
10.975508 0.92164457 -3.158253 3 0.17522326 -0.0075246571 0.98449993 0
10.980111 0.88922757 -3.1588044 3 0.18070146 -0.0058190292 0.98352087 0
10.995969 0.8596074 -3.1626632 3 0.19416502 -0.0018543788 0.9809671 0
11.00216 0.82918835 -3.1637657 3 0.20743622 0.0020549281 0.97824639 0
11.012382 0.79517597 -3.165971 3 0.21484272 0.0040416112 0.97664034 0
11.03182 0.76561505 -3.1709323 4 0.22073326 0.0055692364 0.97531831 0
11.03775 0.73506272 -3.1720347 3 0.22230829 0.0057537677 0.97495943 0
11.032331 0.6998983 -3.1698298 3 0.23575364 0.0091278832 0.97177005 7.1109989e-06
11.041801 0.6714766 -3.1720347 3 0.23683342 0.0090330066 0.97150826 1.275149e-05
11.051422 0.63915801 -3.1742401 4 0.2377789 0.0090327896 0.9712773 1.0528343e-05
11.062869 0.60689354 -3.1769965 4 0.23939711 0.0091205072 0.9708789 0
11.05674 0.57752961 -3.1747913 4 0.240695 0.0092618875 0.9705565 0
11.072036 0.54151529 -3.1786501 4 0.24222852 0.0093003353 0.97017467 0
11.077346 0.51077324 -3.1797526 4 0.24396445 0.0087124351 0.96974504 0
11.078645 0.48177284 -3.1797526 4 0.24623927 0.008185803 0.9691745 1.0088968e-05
11.083868 0.44905213 -3.1808553 4 0.24726678 0.0080921119 0.96891367 1.6325195e-05
11.090842 0.41831237 -3.1825092 4 0.2585336 0.0079421299 0.96596962 2.6022393e-05
11.092034 0.3854107 -3.1825092 4 0.26322618 0.0077291308 0.9647032 2.7310165e-05
11.114266 0.35316664 -3.1885731 4 0.26537368 0.006835049 0.9641214 2.4145978e-05
11.115266 0.32018512 -3.1885731 4 0.26552945 0.0064978646 0.96408081 3.2204265e-05
