# .PCD v0.7 - Point Cloud Data file format
VERSION 0.7
FIELDS x y z intensity normal_x normal_y normal_z curvature
SIZE 4 4 4 4 4 4 4 4
TYPE F F F F F F F F
COUNT 1 1 1 1 1 1 1 1
WIDTH 410
HEIGHT 1
VIEWPOINT 0 0 0 1 0 0 0
POINTS 410
DATA ascii
-3.3687739 -3.715241 -1.1883025 28 0.13288835 -0.021044176 0.99090755 0.002012935
-3.3935468 -3.7190151 -1.1929138 28 0.13282098 -0.021055793 0.99091643 0.0020278529
-3.3795619 -3.6816897 -1.1841525 28 0.13376603 -0.019840298 0.99081433 0.0018379069
-3.4367015 -3.7243173 -1.2007527 26 0.13305148 -0.020863771 0.99088949 0.0019845834
-3.4484124 -3.7161319 -1.2012138 28 0.13296236 -0.020648213 0.990906 0.0019602065
-3.4567313 -3.7004101 -1.1998305 28 0.13304035 -0.020236539 0.99090403 0.0019213657
-3.4783964 -3.7041156 -1.2039806 42 0.13385662 -0.020424645 0.99079019 0.0018552907
-3.5187716 -3.7249029 -1.2141252 42 0.13362032 -0.02130094 0.9908036 0.001856221
-3.5485768 -3.7341962 -1.2205808 45 0.1325957 -0.021826027 0.99092984 0.0017935529
-3.5543082 -3.7206712 -1.2191975 39 0.13223244 -0.021565631 0.99098414 0.0017617836
-3.5855591 -3.7311573 -1.2261143 45 0.13162929 -0.022005912 0.99105471 0.0017391877
-3.6047301 -3.7288973 -1.228881 51 0.13147393 -0.022135224 0.99107248 0.0017345183
-3.6110597 -3.7146301 -1.2274977 42 0.13141863 -0.021945471 0.99108404 0.0017130207
-3.6159065 -3.696312 -1.2251921 42 0.13124822 -0.021278793 0.99112117 0.0017001182
-3.6316733 -3.6917491 -1.2270365 45 0.13092448 -0.02114214 0.99116689 0.0017004366
-3.6378632 -3.6774428 -1.2256532 39 0.13085589 -0.020744424 0.99118441 0.0016702551
-3.6521435 -3.6687548 -1.2265754 21 0.13061951 -0.0203615 0.99122345 0.0016455853
-3.6706357 -3.6667938 -1.2293421 19 0.13015269 -0.020396477 0.99128419 0.0016534374
-3.6725771 -3.6482997 -1.2265754 21 0.13011213 -0.020174777 0.99129409 0.0016236884
-3.6792316 -3.6332843 -1.2251921 31 0.13000631 -0.019578246 0.99131984 0.0015991059
-3.6927724 -3.6250794 -1.2261143 26 0.12934202 -0.019120002 0.99141568 0.001603461
-3.7050343 -3.6181192 -1.2270365 23 0.12907909 -0.019120906 0.99144995 0.0016252572
-3.7107973 -3.6010392 -1.2251921 19 0.1292267 -0.018876527 0.99143535 0.0016027865
-3.716011 -3.5872576 -1.2238086 19 0.12952563 -0.018467465 0.99140406 0.0016030069
-3.7244542 -3.5728712 -1.2228864 23 0.13055289 -0.017690316 0.99128348 0.0015845851
-3.7322218 -3.5591185 -1.2219642 16 0.13036919 -0.016695473 0.99132496 0.0015663134
-3.7344668 -3.5426393 -1.2196586 14 0.13058297 -0.015424139 0.99131739 0.0015547617
-3.7427466 -3.5282185 -1.2187364 12 0.13039468 -0.01479298 0.99135178 0.0015113879
-3.7505507 -3.5170774 -1.2182753 14 0.13063976 -0.013718628 0.99133497 0.001506555
-3.7510042 -3.4966457 -1.2150475 14 0.13057153 -0.012043764 0.99136573 0.0014721415
-3.75137 -3.4762411 -1.2118195 25 0.12972423 -0.0089512179 0.99150968 0.0014315592
-3.761668 -3.4650948 -1.2118195 30 0.13007054 -0.0086190728 0.9914673 0.0013980356
-3.7713299 -3.4545765 -1.2118195 30 0.1297255 -0.0081789093 0.99151617 0.0013773361
-3.7743678 -3.4368212 -1.209514 30 0.129191 -0.0061745401 0.99160051 0.0013283341
-3.7810657 -3.4236548 -1.2085917 28 0.12916951 -0.0058216257 0.99160546 0.0012957422
-3.7906117 -3.4130824 -1.2085917 30 0.12896004 -0.0050093159 0.99163717 0.0012623452
-3.7949216 -3.3966286 -1.2067473 25 0.1287626 -0.0046013701 0.99166477 0.001229779
-3.8099358 -3.3885708 -1.2081306 15 0.12866379 -0.0039553074 0.99168044 0.0012012383
-3.8085914 -3.3695576 -1.2049029 13 0.12850617 -0.0032692568 0.99170333 0.0011648625
-3.8156495 -3.3556716 -1.2039806 11 0.12839685 -0.002968295 0.99171847 0.0011385304
-3.8191459 -3.3398788 -1.2021362 14 0.12825519 -0.0027021894 0.99173754 0.0011153044
-3.8296189 -3.3278646 -1.2021362 12 0.12839073 -0.001358507 0.99172276 0.0010853908
-3.8330073 -3.3120675 -1.2002916 11 0.12835066 -0.0012391966 0.99172813 0.0010629562
-3.8413415 -3.2994123 -1.1998305 12 0.12783095 -0.00022218017 0.99179596 0.0010225619
-3.846101 -3.2848804 -1.1984472 10 0.12791756 0.00040952198 0.99178475 0.00099664659
-3.8478425 -3.267828 -1.1961416 11 0.12761295 0.0017219456 0.99182254 0.00096235226
-3.8566017 -3.2544692 -1.1956805 14 0.12761389 0.0017458614 0.99182236 0.00093713886
-3.865108 -3.2443621 -1.1956805 13 0.12707072 0.0029117859 0.99188936 0.00089312973
-3.8737874 -3.2309558 -1.1952193 12 0.12664747 0.0055110399 0.99193245 0.00081898062
-3.8812973 -3.218883 -1.1947582 12 0.1262904 0.0056758416 0.99197704 0.00080137403
-3.8863254 -3.2036395 -1.1933749 10 0.12628715 0.0054563428 0.99197865 0.00078310963
-3.8871744 -3.1872854 -1.1910692 9 0.12711751 0.0050288225 0.99187493 0.00076181861
-3.8926427 -3.1713688 -1.1896859 9 0.12753183 0.00452145 0.99182415 0.00074658555
-3.9014833 -3.1604869 -1.1896859 10 0.12786831 0.0040015257 0.99178308 0.00072926283
-3.906296 -3.1452355 -1.1883025 9 0.12828013 0.0037516085 0.99173087 0.0007037794
-3.911479 -3.1325645 -1.1873803 9 0.1283572 0.0035786999 0.99172157 0.00069984165
-3.9192331 -3.1197338 -1.1869192 8 0.12866624 0.0030367989 0.9916833 0.00068359438
-3.9223676 -3.1032615 -1.1850748 9 0.12903275 0.0026196246 0.99163687 0.00067127211
-3.9254389 -3.086798 -1.1832303 9 0.12932603 0.002109678 0.99159986 0.00065649237
-3.9309766 -3.073427 -1.1823081 10 0.12939838 0.0017294231 0.99159122 0.00065107475
-3.9375401 -3.0586739 -1.1813858 9 0.12963666 0.0012375395 0.99156076 0.00063793163
-3.9445255 -3.0464773 -1.1809247 15 0.12960882 0.00046076212 0.99156511 0.0006208152
-3.9514737 -3.0342648 -1.1804636 9 0.130044 -0.00066251599 0.99150801 0.00057509186
-3.9511766 -3.0154438 -1.1776968 9 0.13035598 -0.0018540056 0.99146557 0.00054104236
-3.9595823 -3.0043981 -1.1776968 9 0.13077725 -0.0027879409 0.99140781 0.00047971043
-3.96071 -2.9867775 -1.1753912 10 0.13172106 -0.0041923104 0.99127793 0.0003994123
-3.9726694 -2.9773469 -1.1763135 8 0.13161965 -0.0042977426 0.99129099 0.00039864786
-3.9747255 -2.961591 -1.174469 8 0.13202046 -0.0053776684 0.9912324 0.00035961816
-3.9809017 -2.9500158 -1.1740078 9 0.13259962 -0.0067573935 0.99114668 0.00027928347
-3.99015 -2.9374948 -1.1740078 8 0.13331868 -0.008210104 0.99103922 0.00021369338
-3.9983375 -2.9263403 -1.1740078 9 0.13350596 -0.0087049333 0.99100977 0.00019494441
-4.0022817 -2.9110301 -1.1726246 9 0.1337591 -0.0091505107 0.99097162 0.0001819169
-4.0061688 -2.8957231 -1.1712412 9 0.13425092 -0.010269938 0.99089414 0.00014398521
-4.0126591 -2.883388 -1.1707801 8 0.13463227 -0.012012075 0.99082279 8.7299537e-05
-4.0175281 -2.8699098 -1.1698579 7 0.13485655 -0.012703786 0.99078369 6.9008143e-05
-4.021265 -2.8545971 -1.1684744 9 0.1351184 -0.013755471 0.99073398 4.8032689e-05
-4.0313072 -2.8437748 -1.1689355 7 0.13524283 -0.014363916 0.99070835 3.7894883e-05
-4.0317597 -2.8262155 -1.16663 7 0.13546447 -0.015984422 0.99065322 9.0324456e-06
-4.0348458 -2.8116086 -1.1652466 7 0.13549575 -0.016031105 0.99064815 7.7681188e-06
-4.0410814 -2.7992215 -1.1647855 7 0.13552892 -0.016158765 0.99064165 6.6358825e-06
-4.0514593 -2.7876155 -1.1652466 7 0.13555144 -0.016283469 0.99063647 7.4333398e-06
-4.0528016 -2.7718968 -1.1634021 7 0.13558379 -0.016319029 0.99063152 6.7790297e-06
-4.0605268 -2.7605681 -1.1634021 8 0.13562453 -0.016336694 0.99062562 4.607266e-06
-4.0578895 -2.7401741 -1.1601743 7 0.13561723 -0.016409686 0.99062538 4.0064565e-06
-4.0682812 -2.7317107 -1.1610966 7 0.13559237 -0.01641213 0.99062872 5.054233e-06
-4.0731301 -2.7174683 -1.1601743 7 0.13559465 -0.016398203 0.99062866 5.4103461e-06
-4.0735369 -2.6992829 -1.1578687 7 0.13559045 -0.016388701 0.99062937 6.1382689e-06
-4.0801196 -2.6893218 -1.1578687 7 0.13558565 -0.016386297 0.99063009 7.2405005e-06
-4.0804071 -2.6711609 -1.1555631 7 0.13558885 -0.016405664 0.99062932 8.8407978e-06
-4.0932083 -2.6622262 -1.1569464 7 0.13563244 -0.016423887 0.99062312 9.2637611e-06
-4.087091 -2.6430466 -1.1532576 7 0.13563737 -0.016383383 0.99062306 7.9758474e-06
-4.1014643 -2.6351159 -1.155102 7 0.13564976 -0.0164124 0.99062091 7.3217607e-06
-4.1097221 -2.6222184 -1.155102 7 0.13567756 -0.016386991 0.99061757 8.1107519e-06
-4.108357 -2.6062362 -1.1527964 7 0.13567181 -0.016413346 0.99061787 7.0082697e-06
-4.1144247 -2.5929983 -1.1523353 7 0.1356898 -0.016408548 0.99061549 5.3859394e-06
-4.1209011 -2.5790269 -1.1518742 7 0.13568135 -0.016432237 0.9906162 6.5038689e-06
-4.1238856 -2.5668938 -1.150952 7 0.13571519 -0.016466437 0.99061102 4.8951638e-06
-4.1186867 -2.5457389 -1.1472631 7 0.13572776 -0.016517073 0.99060851 1.5519151e-06
-4.131197 -2.5365632 -1.1486464 8 0.13572139 -0.016559031 0.99060863 1.1279429e-06
-4.134501 -2.5237117 -1.1477242 7 0.13571282 -0.016566496 0.99060971 1.786283e-07
-4.144074 -2.5117176 -1.1481851 7 0.13570388 -0.016594732 0.99061048 1.6623602e-06
-4.1515074 -2.4994113 -1.1481851 7 0.1356792 -0.016611055 0.99061352 0
-4.1513577 -2.4845364 -1.1463407 8 0.13569711 -0.016623151 0.9906109 5.9392956e-08
-4.1515889 -2.4689548 -1.1444963 7 0.13571727 -0.016654165 0.99060756 1.3623408e-06
-4.1593251 -2.4558997 -1.1444963 7 0.13569725 -0.016639741 0.99061066 1.2451842e-06
-4.157774 -2.439352 -1.1421908 7 0.13569407 -0.016627494 0.99061126 2.846175e-06
-4.1582675 -2.4230852 -1.1403462 7 0.13571867 -0.016620208 0.99060804 2.5403986e-06
-4.1637545 -2.4097617 -1.1398851 7 0.13572384 -0.016617633 0.99060738 2.4239382e-06
-4.1734223 -2.4007945 -1.1408074 7 0.13571654 -0.016635422 0.99060804 2.0678604e-06
-4.173768 -2.3845391 -1.1389629 7 0.13570288 -0.016633246 0.99060994 1.835059e-06
-4.1791325 -2.3711841 -1.1385018 7 0.13569236 -0.016641403 0.99061126 4.652738e-06
-4.1840425 -2.3585486 -1.1380407 7 0.13566388 -0.016633775 0.99061531 4.0200048e-06
-4.186336 -2.3425424 -1.1366572 7 0.13564102 -0.01665446 0.99061805 6.3418879e-06
-4.1928616 -2.3308425 -1.1366572 7 0.13561371 -0.016658556 0.99062169 8.6688387e-06
-4.2010579 -2.3200653 -1.1371183 7 0.13560519 -0.01664331 0.99062318 6.9707526e-06
-4.1980863 -2.3012438 -1.1343516 7 0.13560103 -0.016667096 0.9906233 6.7522269e-06
-4.2058058 -2.2911761 -1.1348128 7 0.13559638 -0.016661111 0.99062407 7.1063419e-06
-4.2057381 -2.2749832 -1.1329683 7 0.13558324 -0.016600804 0.99062687 7.686187e-06
-4.2073264 -2.2597318 -1.131585 7 0.13556963 -0.016558897 0.99062949 8.572908e-06
-4.2119036 -2.2470574 -1.1311238 7 0.13556507 -0.016534274 0.99063051 9.2778982e-06
-4.2181621 -2.2352867 -1.1311238 7 0.13553894 -0.01654315 0.9906339 1.1070331e-05
-4.2217188 -2.2202132 -1.1302017 7 0.13551509 -0.016496878 0.9906379 1.2746284e-05
-4.2309661 -2.2109551 -1.1311238 7 0.13550706 -0.016500274 0.99063897 1.0643636e-05
-4.2288704 -2.1939108 -1.1288183 8 0.13551717 -0.016463537 0.9906382 8.5948523e-06
-4.2319007 -2.1795726 -1.1278961 7 0.13554363 -0.016395111 0.99063575 8.2386123e-06
-4.2379708 -2.1677458 -1.1278961 7 0.13555317 -0.016371073 0.9906348 5.676658e-06
-4.2391782 -2.1525185 -1.1265126 7 0.13554132 -0.016299738 0.9906376 5.3080066e-06
-4.2420707 -2.1381791 -1.1255904 7 0.13555853 -0.016227627 0.99063641 4.6533964e-06
-4.2549863 -2.1298089 -1.127435 7 0.13552012 -0.016184432 0.99064237 4.0823643e-06
-4.2543154 -2.1137116 -1.1255904 7 0.13552324 -0.01613367 0.99064279 4.9958644e-06
-4.255332 -2.0984972 -1.1242071 7 0.13554315 -0.016039463 0.99064159 6.0290181e-06
-4.2573152 -2.0856378 -1.1232848 7 0.13551736 -0.015994731 0.99064583 4.468448e-06
-4.2578726 -2.0711868 -1.1219015 10 0.13548882 -0.015897719 0.99065131 6.6429989e-06
-4.2643585 -2.057801 -1.1219015 9 0.13547659 -0.015861487 0.99065357 4.6153082e-06
-4.2700882 -2.0458841 -1.1219015 7 0.13544719 -0.015784279 0.99065882 4.7180174e-06
-4.2743826 -2.0323699 -1.1214404 7 0.13543515 -0.015717486 0.9906615 3.7638497e-06
-4.2680731 -2.0138659 -1.1182126 7 0.13544536 -0.015661636 0.99066103 3.3200956e-06
-4.277205 -2.0035903 -1.1191348 7 0.13536397 -0.015549115 0.9906739 3.1223879e-06
-4.2774892 -1.989176 -1.1177514 7 0.13533552 -0.01544011 0.9906795 3.5450996e-06
-4.2816057 -1.9756602 -1.1172903 7 0.13529658 -0.015337965 0.99068648 4.1209828e-06
-4.2803712 -1.959707 -1.1154459 7 0.13530216 -0.015105792 0.99068922 3.3159445e-06
-4.2861667 -1.946999 -1.1154459 7 0.13526167 -0.015010775 0.99069619 3.0295605e-06
-4.2827163 -1.9310222 -1.1131402 7 0.13523692 -0.014856372 0.99070191 5.1403299e-06
-4.2880921 -1.9190547 -1.1131402 7 0.1351684 -0.014697506 0.99071366 5.0498311e-06
-4.291656 -1.9062824 -1.1126791 7 0.13511518 -0.014564524 0.99072284 7.4133914e-06
-4.2922802 -1.8904378 -1.1112957 7 0.13508506 -0.014358697 0.99072993 8.1884154e-06
-4.2939763 -1.8768853 -1.1103736 7 0.13504866 -0.014178944 0.9907375 1.1555021e-05
-4.2998514 -1.8633859 -1.1103736 7 0.13501254 -0.013977886 0.99074525 1.1893844e-05
-4.3154411 -1.8567369 -1.1131402 7 0.1349296 -0.013850135 0.99075836 1.1779774e-05
-4.3101921 -1.8393414 -1.1103736 7 0.13491906 -0.013598588 0.99076331 1.1934705e-05
-4.3195333 -1.8273087 -1.1112957 7 0.1348363 -0.013396787 0.99077737 1.6852069e-05
-4.325779 -1.817503 -1.1117568 7 0.13479197 -0.013201741 0.99078596 1.7121731e-05
-4.3260789 -1.8016585 -1.1103736 7 0.13476548 -0.012919481 0.99079329 1.8528828e-05
-4.3314052 -1.7888157 -1.1103736 7 0.13468474 -0.012672521 0.99080747 1.9386996e-05
-4.3288703 -1.7745168 -1.108529 7 0.13463174 -0.012395444 0.99081814 2.2970497e-05
-4.3377218 -1.7631315 -1.1094513 7 0.1345291 -0.012165579 0.99083495 2.3459253e-05
-4.3306041 -1.7444042 -1.1062235 7 0.13450307 -0.011807867 0.99084276 2.5261827e-05
-4.3387699 -1.7345061 -1.1071457 7 0.13442822 -0.011520348 0.99085641 2.6181577e-05
-4.3330417 -1.7173239 -1.1043791 7 0.13435119 -0.011252199 0.99086988 2.8341219e-05
-4.3435521 -1.7065935 -1.1057622 7 0.13423739 -0.010982292 0.99088836 3.0301026e-05
-4.3425655 -1.6930963 -1.1043791 7 0.13419639 -0.010716893 0.99089676 3.2862474e-05
-4.3457546 -1.6795024 -1.1039178 7 0.13405921 -0.010268507 0.99092013 3.4966026e-05
-4.34374 -1.663058 -1.1020734 7 0.13401921 -0.0099194944 0.99092907 3.5346209e-05
-4.3535371 -1.6537533 -1.1034567 7 0.13388534 -0.0096347779 0.99094999 3.7004702e-05
-4.3490319 -1.6381592 -1.1011511 7 0.13383155 -0.0093251793 0.99096024 3.8964547e-05
-4.3562641 -1.6244081 -1.1016123 7 0.13367814 -0.0089587187 0.99098438 3.8266062e-05
-4.3623266 -1.6136737 -1.1020734 7 0.13357614 -0.0085751833 0.99100149 3.9098908e-05
-4.3631616 -1.600145 -1.1011511 7 0.13345067 -0.0081792613 0.99102169 4.0174244e-05
-4.3626795 -1.5844377 -1.0997678 7 0.13334075 -0.0076788384 0.99104047 4.1965737e-05
-4.36132 -1.5710319 -1.0983845 7 0.13326462 -0.0072369599 0.99105406 4.4271994e-05
-4.379065 -1.5618989 -1.1016123 7 0.13310042 -0.0069760163 0.99107796 4.192616e-05
-4.3671651 -1.5430648 -1.0974622 7 0.13304915 -0.0062923185 0.99108946 4.4695254e-05
-4.3767004 -1.5335555 -1.0988456 7 0.13286901 -0.0059977933 0.99111551 4.4371092e-05
-4.3720379 -1.5173732 -1.09654 7 0.13286373 -0.0054327808 0.99111938 4.6080004e-05
-4.3802018 -1.5056593 -1.0974622 7 0.13264754 -0.0049659251 0.9911508 4.7257559e-05
-4.3770208 -1.4909115 -1.0956178 7 0.13264948 -0.0044916128 0.99115276 4.6628145e-05
-4.3835268 -1.4777758 -1.0960789 7 0.13247898 -0.0040353793 0.99117762 4.8575348e-05
-4.3876367 -1.4655287 -1.0960789 7 0.13234033 -0.0035309955 0.99119806 5.1698797e-05
-4.3898649 -1.4526588 -1.0956178 7 0.13221511 -0.0030544503 0.9912163 5.3431406e-05
-4.3920541 -1.4397887 -1.0951566 7 0.13211575 -0.0025736531 0.99123096 5.2134295e-05
-4.3944559 -1.4261509 -1.0946954 7 0.13200025 -0.00204406 0.99124753 5.675522e-05
-4.3965688 -1.413278 -1.0942343 7 0.13186763 -0.0017162292 0.99126583 5.8093694e-05
-4.3972778 -1.398278 -1.0933121 7 0.13180369 -0.0011354446 0.99127519 6.1487495e-05
-4.4027796 -1.3873469 -1.0937732 7 0.13161254 -0.00070152269 0.991301 6.3932566e-05
-4.4031606 -1.3731184 -1.092851 7 0.13149247 -1.7137621e-05 0.99131715 6.6565277e-05
-4.4090748 -1.3606225 -1.0933121 7 0.13133435 0.00056227518 0.99133801 7.0549722e-05
-4.4056478 -1.345261 -1.0914676 7 0.13121505 0.0010589978 0.99135333 7.100025e-05
-4.4093871 -1.3329525 -1.0914676 7 0.13106586 0.0016180682 0.99137235 7.6031669e-05
-4.4095931 -1.3187492 -1.0905454 7 0.13095392 0.002283944 0.99138588 7.715344e-05
-4.4148974 -1.3077519 -1.0910065 7 0.13078012 0.0027913917 0.99140751 8.210259e-05
-4.4171157 -1.2933296 -1.0905454 7 0.13064349 0.00342797 0.99142349 8.5876927e-05
-4.4209337 -1.2802178 -1.0905454 7 0.13048029 0.0040315953 0.99144268 8.9698799e-05
-4.4190998 -1.2654886 -1.0891621 7 0.13029788 0.0046275314 0.99146408 9.3559946e-05
-4.4261427 -1.2549753 -1.0900843 7 0.13024314 0.0052150348 0.99146837 9.5672745e-05
-4.4260988 -1.2407874 -1.0891621 7 0.13004301 0.0058546895 0.99149108 9.8704164e-05
-4.4276714 -1.2279022 -1.0887009 7 0.12982431 0.0065218825 0.99151558 0.00010356719
-4.4275417 -1.2137303 -1.0877788 7 0.12962733 0.0070355684 0.99153781 0.00010482315
-4.4311228 -1.2005891 -1.0877788 7 0.12942208 0.007758718 0.99155927 0.0001076987
-4.4346657 -1.1874362 -1.0877788 7 0.12929529 0.0085202213 0.99156952 0.00010997282
-4.4398456 -1.1755455 -1.0882398 7 0.12914394 0.0090926783 0.99158418 0.00011067513
-4.4357834 -1.1603966 -1.0863954 7 0.12901069 0.0097055398 0.99159569 0.00010824263
-4.4406896 -1.149268 -1.0868565 7 0.12880319 0.010384833 0.99161583 0.00011057296
-4.4461637 -1.135793 -1.0873176 7 0.12864511 0.011102157 0.99162853 0.00011117572
-4.4530921 -1.124325 -1.0882398 7 0.12862979 0.011751303 0.99162304 0.00011539079
-4.4486618 -1.1100016 -1.0863954 7 0.12826225 0.012268143 0.99166441 0.00011409207
-4.4483471 -1.0950896 -1.0854731 7 0.1281054 0.013056271 0.99167466 0.00011589723
-4.4494972 -1.0822029 -1.0850121 7 0.12794802 0.013761812 0.99168539 0.00011564222
-4.4564729 -1.0699046 -1.0859342 7 0.12780592 0.014455127 0.99169385 0.000118035
-4.4556565 -1.0565573 -1.0850121 7 0.12759276 0.015167531 0.99171066 0.00011930102
-4.4584074 -1.0448895 -1.0850121 7 0.12737229 0.015904175 0.99172747 0.00011976212
-4.4597712 -1.0304406 -1.0845509 7 0.12716112 0.016621104 0.99174273 0.00012214451
-4.4609118 -1.0167698 -1.0840898 7 0.12701736 0.017279616 0.99175 0.00012375305
-4.4768481 -1.008081 -1.0873176 7 0.1272638 0.017992392 0.99170566 0.00012775257
-4.4666939 -0.99106061 -1.0840898 7 0.12676454 0.018703513 0.9917565 0.0001249871
-4.4692731 -0.97936308 -1.0840898 7 0.12657982 0.019203944 0.99177051 0.00012655935
-4.4740615 -0.96650881 -1.0845509 7 0.12655129 0.020065712 0.99175709 0.00012746849
-4.4769092 -0.95323056 -1.0845509 7 0.12639269 0.020804815 0.9917621 0.00012867061
-4.4854321 -0.94114172 -1.0859342 7 0.1262951 0.021472221 0.99176025 0.00013185473
-4.4842315 -0.92782354 -1.0850121 7 0.12601615 0.022192098 0.99177992 0.00013196563
-4.4831505 -0.91373795 -1.0840898 7 0.12572554 0.022953028 0.99179947 0.00013196125
-4.483777 -0.90083146 -1.0836287 7 0.12564859 0.023645179 0.99179304 0.00012971873
-4.4862747 -0.88830662 -1.0836287 7 0.1254402 0.024344541 0.99180251 0.0001290362
-4.4909539 -0.87457997 -1.0840898 7 0.12532906 0.025099505 0.99179775 0.00013028426
-4.4933786 -0.86203516 -1.0840898 7 0.12516478 0.025698043 0.99180311 0.00013186582
-4.4976807 -0.84984487 -1.0845509 7 0.12495089 0.026440369 0.9918105 0.00013072442
-4.4981227 -0.83692759 -1.0840898 7 0.12483381 0.027204562 0.99180466 0.00012938338
-4.5063291 -0.82462841 -1.0854731 7 0.12482401 0.028047778 0.99178237 0.00012746522
-4.5087566 -0.81125289 -1.0854731 7 0.1246363 0.028775908 0.99178511 0.00012647611
-4.5092268 -0.79753345 -1.0850121 7 0.12445373 0.029462194 0.99178791 0.00012328775
-4.5114365 -0.78493899 -1.0850121 7 0.12439515 0.030093504 0.99177635 0.00012183896
-4.5137458 -0.77154851 -1.0850121 7 0.12431043 0.030859116 0.99176347 0.00011981678
-4.5195885 -0.76037532 -1.0859342 7 0.12415741 0.031460863 0.99176365 0.00011997755
-4.5200348 -0.74585581 -1.0854731 7 0.12404078 0.032238413 0.99175328 0.00011709044
-4.5182576 -0.73260838 -1.0845509 7 0.12390295 0.032864742 0.99174994 0.00011289778
-4.5243812 -0.71901995 -1.0854731 7 0.1237928 0.033449713 0.99174416 0.00011000295
-4.5263715 -0.70638341 -1.0854731 7 0.12369063 0.034208763 0.99173099 0.0001072837
-4.5321736 -0.6943298 -1.0863954 7 0.1235332 0.034883071 0.99172711 0.000104059
-4.5321703 -0.68138117 -1.0859342 7 0.12352324 0.03544575 0.99170846 0.00010068643
-4.538023 -0.66849905 -1.0868565 7 0.12340885 0.036285944 0.9916923 9.6085008e-05
-4.5380602 -0.65475345 -1.0863954 7 0.12331392 0.036912162 0.99168098 9.3463139e-05
-4.5400949 -0.64049321 -1.0863954 7 0.12319563 0.037597228 0.99166989 8.9782297e-05
-4.5474296 -0.6301989 -1.0877788 7 0.12311208 0.038126368 0.99166012 8.9912268e-05
-4.5455294 -0.61538821 -1.0868565 7 0.12295677 0.038787268 0.99165374 8.7401902e-05
-4.554842 -0.60450977 -1.0887009 7 0.1229955 0.039305422 0.99162859 8.8469802e-05
-4.5624051 -0.59174329 -1.0900843 7 0.12282805 0.040089618 0.99161792 8.76962e-05
-4.5680027 -0.57869267 -1.0910065 7 0.12274325 0.040820044 0.99159861 8.152426e-05
-4.5659347 -0.56386286 -1.0900843 7 0.12271966 0.041355543 0.99157941 8.2257451e-05
-4.5596676 -0.55097312 -1.0882398 7 0.12245925 0.041888572 0.99158919 7.7009296e-05
-4.5612822 -0.53744167 -1.0882398 7 0.12240467 0.042502154 0.99156982 7.6109172e-05
-4.5724316 -0.5258134 -1.0905454 7 0.12244111 0.043038964 0.99154216 7.5228956e-05
-4.5701933 -0.51101452 -1.0896232 7 0.12223666 0.043456692 0.99154913 7.1453491e-05
-4.5734496 -0.49925992 -1.0900843 7 0.12224629 0.044025227 0.99152291 6.9185793e-05
-4.5711255 -0.48447809 -1.0891621 7 0.1220901 0.044653673 0.99151403 6.609007e-05
-4.5762496 -0.47291002 -1.0900843 12 0.1220072 0.045050919 0.99150634 6.4468244e-05
-4.5815053 -0.45971832 -1.0910065 9 0.12199819 0.045570005 0.99148357 6.4440828e-05
-4.5866451 -0.44729999 -1.0919287 7 0.12192233 0.046079688 0.99146938 6.1136387e-05
-4.5841527 -0.43252262 -1.0910065 7 0.12183902 0.046551529 0.99145764 5.7565307e-05
-4.5872808 -0.41989774 -1.0914676 7 0.12181074 0.047045119 0.99143779 5.4279677e-05
-4.5904446 -0.40645653 -1.0919287 7 0.1217607 0.047472965 0.99142349 5.0863706e-05
-4.5973101 -0.39493677 -1.0933121 7 0.12170299 0.047906384 0.99140972 5.3141652e-05
-4.602407 -0.38081378 -1.0942343 7 0.12160141 0.048456073 0.99139553 4.8059985e-05
-4.6015773 -0.36700043 -1.0937732 7 0.12156602 0.048848674 0.99138057 4.6538571e-05
-4.6045241 -0.35429904 -1.0942343 7 0.12151708 0.049222179 0.99136817 4.5624431e-05
-4.613318 -0.3412106 -1.0960789 7 0.12141827 0.049543452 0.99136424 4.2792479e-05
-4.6084294 -0.32791179 -1.0946954 7 0.12143083 0.049868599 0.99134642 4.2344633e-05
-4.6054993 -0.31397188 -1.0937732 7 0.12144188 0.050252762 0.99132562 3.9347109e-05
-4.6140733 -0.3024224 -1.0956178 7 0.1214228 0.050575014 0.99131161 3.6223082e-05
-4.6111155 -0.2876839 -1.0946954 7 0.12141819 0.050899856 0.99129552 3.1585805e-05
-4.6235571 -0.27550036 -1.0974622 7 0.12134628 0.051224571 0.99128765 3.2288732e-05
-4.6204677 -0.26156053 -1.09654 7 0.12135264 0.051570095 0.99126887 3.1806398e-05
-4.6230807 -0.24956784 -1.0970011 7 0.12133365 0.051837161 0.99125731 3.047348e-05
-4.6277285 -0.23524016 -1.0979233 7 0.12133124 0.052134193 0.99124199 2.9356857e-05
-4.6341991 -0.22259709 -1.0993067 7 0.12127971 0.052469544 0.99123067 2.6586697e-05
-4.640635 -0.20991862 -1.10069 7 0.12128056 0.052727841 0.99121684 2.3101969e-05
-4.6412373 -0.19614841 -1.10069 7 0.12128711 0.052979738 0.99120265 2.2707542e-05
-4.6437435 -0.18245284 -1.1011511 7 0.12127835 0.053201243 0.9911918 2.1492331e-05
-4.6461501 -0.170367 -1.1016123 7 0.12125006 0.053414218 0.99118382 2.199679e-05
-4.6505523 -0.15590005 -1.1025344 7 0.12126996 0.053698644 0.991166 2.1919483e-05
-4.6509695 -0.14291345 -1.1025344 7 0.12129417 0.053865392 0.99115402 1.9793602e-05
-4.6610775 -0.13019633 -1.1048402 7 0.12125189 0.054024599 0.9911505 2.0428513e-05
-4.6575727 -0.11545581 -1.1039178 8 0.12131336 0.054251477 0.99113059 2.0511286e-05
-4.6617861 -0.10172066 -1.1048402 8 0.12130818 0.054360159 0.99112529 1.7869961e-05
-4.656199 -0.089404456 -1.1034567 7 0.12136331 0.054555807 0.99110776 1.6587575e-05
-4.668119 -0.075778104 -1.1062235 7 0.12133648 0.054688558 0.99110371 1.7466537e-05
-4.6663771 -0.061901107 -1.1057622 7 0.12136848 0.054832693 0.99109185 1.6020678e-05
-4.6646028 -0.047221042 -1.1053011 7 0.12141161 0.054980744 0.99107838 1.3876158e-05
-4.6724944 -0.035068154 -1.1071457 7 0.12141266 0.055032063 0.99107546 1.3507457e-05
-4.6686859 -0.021186512 -1.1062235 7 0.12145536 0.055183947 0.99106175 1.0788167e-05
-4.6823483 -0.0089896396 -1.1094513 7 0.1215198 0.055233136 0.99105102 1.1513431e-05
-4.6765146 0.0057123927 -1.1080679 7 0.1215272 0.055360191 0.99104303 1.2840908e-05
-4.6784234 0.019596275 -1.108529 7 0.12159217 0.055450082 0.9910301 1.094203e-05
-4.6841826 0.033519387 -1.1099124 7 0.12161449 0.05549949 0.99102455 1.2987181e-05
-4.6782331 0.046542194 -1.108529 7 0.12163932 0.055559479 0.99101818 1.0901273e-05
-4.6839223 0.059680797 -1.1099124 7 0.12165325 0.055624269 0.99101281 1.1760365e-05
-4.6856709 0.073607728 -1.1103736 8 0.12170621 0.055687621 0.99100274 9.5949799e-06
-4.6951909 0.0860532 -1.1126791 7 0.12177675 0.055692494 0.99099386 8.126076e-06
-4.6929522 0.10076159 -1.112218 8 0.12182139 0.055747826 0.99098521 7.4989716e-06
-4.6907063 0.11381948 -1.1117568 8 0.12188803 0.055764083 0.9909761 8.989291e-06
-4.6903481 0.12773573 -1.1117568 8 0.12193049 0.055793434 0.99096924 6.8753716e-06
-4.6899977 0.14001496 -1.1117568 8 0.12196307 0.055841736 0.99096251 6.0457783e-06
-4.691453 0.1556315 -1.112218 7 0.12202201 0.05586756 0.9909538 4.2368965e-06
-4.6910291 0.16791351 -1.112218 7 0.12207302 0.055883467 0.99094659 5.6600711e-06
-4.6983209 0.18131207 -1.1140624 8 0.12214638 0.055886839 0.99093741 6.4176829e-06
-4.7035613 0.19631507 -1.1154459 8 0.12221157 0.055888683 0.99092919 6.9969269e-06
-4.6971622 0.20918967 -1.1140624 7 0.12222327 0.055908591 0.99092668 7.6265828e-06
-4.6985035 0.222397 -1.1145235 7 0.12229128 0.055898558 0.99091887 6.5219574e-06
-4.7075415 0.23682594 -1.1168292 7 0.1223567 0.055893246 0.99091107 6.3174016e-06
-4.7010317 0.24966164 -1.1154459 7 0.12238635 0.055867378 0.99090886 7.0913807e-06
-4.7119288 0.26426175 -1.1182126 7 0.12252236 0.055762984 0.99089795 6.172485e-06
-4.7188945 0.27870038 -1.120057 7 0.12257096 0.055682801 0.9908964 7.9834263e-06
-4.7180467 0.29270178 -1.120057 7 0.12263451 0.055585194 0.99089408 8.1940498e-06
-4.7230906 0.30542862 -1.1214404 8 0.12271001 0.05552946 0.99088782 8.5463007e-06
-4.7182245 0.32000083 -1.1205181 7 0.12273559 0.055488784 0.99088693 7.7771547e-06
-4.719254 0.33331281 -1.1209793 7 0.12277191 0.05542342 0.99088615 8.9554478e-06
-4.7241268 0.34691802 -1.1223626 7 0.1228138 0.055364452 0.99088424 1.1393246e-05
-4.7230768 0.36093351 -1.1223626 7 0.12286258 0.055322085 0.99088055 9.8693909e-06
-4.7220507 0.3741217 -1.1223626 7 0.12285829 0.055301588 0.99088222 1.145573e-05
-4.7267385 0.38860819 -1.1237459 7 0.12291624 0.055219732 0.9908796 1.2355492e-05
-4.7275038 0.40279651 -1.1242071 7 0.12295724 0.055181801 0.99087662 1.2810957e-05
-4.7263608 0.41599694 -1.1242071 7 0.12297993 0.055144042 0.9908759 1.2375059e-05
-4.7367339 0.4310759 -1.1269737 7 0.12305601 0.055063754 0.99087095 1.4763529e-05
-4.7315593 0.4447642 -1.1260515 7 0.12312853 0.054970909 0.99086708 1.4047312e-05
-4.7321553 0.45898917 -1.1265126 7 0.12319744 0.054894451 0.99086279 1.2516954e-05
-4.730938 0.47137672 -1.1265126 7 0.12323104 0.054865498 0.99086016 1.3938296e-05
-4.7371774 0.48703226 -1.1283571 7 0.12334628 0.054718748 0.99085391 1.4567961e-05
-4.7377343 0.50046384 -1.1288183 7 0.12341694 0.054661788 0.9908483 1.3576239e-05
-4.7439671 0.51535976 -1.1306628 8 0.12353006 0.05451826 0.99084216 1.0669397e-05
-4.7424173 0.5294323 -1.1306628 7 0.12354559 0.05445531 0.99084359 1.3211967e-05
-4.738987 0.54245257 -1.1302017 8 0.12358491 0.054420583 0.99084061 1.1687257e-05
-4.7451854 0.55659133 -1.1320461 7 0.12368488 0.054264046 0.99083674 1.2652152e-05
-4.7376165 0.57079786 -1.1306628 9 0.12384259 0.053896248 0.9908371 1.8141334e-05
-4.7439342 0.58332169 -1.1325072 8 0.12414453 0.053186212 0.99083775 2.8037928e-05
-4.7420778 0.59822363 -1.1325072 7 0.1243186 0.052686319 0.99084264 3.322112e-05
-4.7460728 0.61303806 -1.1338905 7 0.12447466 0.052269202 0.99084508 4.1898522e-05
-4.7502398 0.62622344 -1.1352739 7 0.12449869 0.051797021 0.9908669 4.6579502e-05
-4.7463202 0.64088464 -1.1348128 7 0.124538 0.051490281 0.99087793 5.5137771e-05
-4.7445121 0.65413558 -1.1348128 7 0.12457834 0.051186346 0.9908886 5.9728492e-05
-4.7503757 0.66846722 -1.1366572 7 0.12492444 0.050472677 0.99088156 8.0106889e-05
-4.7445183 0.68200421 -1.135735 8 0.12561522 0.049315773 0.99085253 0.00012398729
-4.7501755 0.69720918 -1.1375794 8 0.12572697 0.049143072 0.99084699 0.0001218213
-4.7483344 0.70964313 -1.1375794 8 0.1257479 0.04903353 0.99084973 0.0001211427
-4.7480059 0.72484976 -1.1380407 7 0.12612967 0.048572741 0.99082392 0.00013507949
-4.7498083 0.73870426 -1.1389629 7 0.12643605 0.048237123 0.99080133 0.00013693971
-4.7496495 0.75227016 -1.139424 8 0.12647794 0.04801821 0.99080652 0.00014064468
-4.7589245 0.76822042 -1.1421908 9 0.12756914 0.046607174 0.99073398 0.00026307002
-4.7527833 0.78170562 -1.1412685 9 0.12843779 0.045514707 0.99067259 0.00037877684
-4.75634 0.79593879 -1.1426518 8 0.12926334 0.044212397 0.99062419 0.00049985701
-4.7501202 0.80939293 -1.1417296 8 0.12934032 0.044137314 0.99061751 0.00051227526
-4.7572856 0.8251465 -1.1440352 9 0.12937224 0.043680057 0.99063361 0.00052768947
-4.7490668 0.83824241 -1.1426518 9 0.12913015 0.044287127 0.9906382 0.00055377779
-4.7562852 0.85321939 -1.1449574 9 0.12875636 0.044986635 0.99065536 0.0005999537
-4.7556477 0.86767745 -1.1454185 8 0.12853757 0.045441855 0.99066299 0.00062379637
-4.7568784 0.88249409 -1.1463407 8 0.1285494 0.04524865 0.99067026 0.00063136639
-4.756465 0.89530379 -1.1468019 9 0.12834018 0.046069048 0.99065965 0.00065565296
-4.7614331 0.91087663 -1.1486464 9 0.12845856 0.04622082 0.99063712 0.00068342156
-4.7567987 0.92462784 -1.1481851 9 0.12818837 0.047034353 0.9906339 0.00070892356
-4.7597623 0.93986875 -1.1495686 10 0.12803838 0.048622634 0.99057657 0.00076121051
-4.7590275 0.95353955 -1.1500298 8 0.12781203 0.049362112 0.99056923 0.00078542164
-4.7601604 0.96759999 -1.150952 10 0.12783431 0.050145119 0.99052703 0.00081625982
-4.759346 0.98128247 -1.1514131 9 0.12712929 0.052080557 0.99051791 0.0008556525
-4.7600489 0.99702764 -1.1523353 9 0.12694524 0.053054933 0.99048984 0.00088438351
-4.7629576 1.0115284 -1.1537187 9 0.12680346 0.054267708 0.99044228 0.00092211872
-4.757854 1.0260767 -1.1532576 10 0.12665711 0.055218633 0.99040848 0.00094801298
-4.7591348 1.0385294 -1.1541797 9 0.12674133 0.055607323 0.99037588 0.00096863206
-4.7596493 1.0543164 -1.155102 10 0.12634245 0.057265747 0.99033242 0.00099618034
-4.7639084 1.0709717 -1.1569464 9 0.12630965 0.058309805 0.99027568 0.0010224874
-4.7517891 1.080452 -1.1546409 11 0.12613069 0.058522634 0.99028593 0.0010259222
-4.7597494 1.0979986 -1.1574076 10 0.12594417 0.059156287 0.99027193 0.0010591703
-4.7507854 1.1107872 -1.1560243 10 0.12577966 0.059765771 0.99025631 0.0010790037
-4.7571335 1.1262916 -1.1583298 10 0.12570639 0.060797941 0.99020278 0.0011123852
-4.763432 1.1418403 -1.1606355 10 0.12564503 0.061803967 0.99014831 0.001139807
-4.7541485 1.1554197 -1.1592522 10 0.12553586 0.062772654 0.99010116 0.001174027
-4.7605562 1.1701851 -1.1615577 10 0.1256208 0.063958623 0.99001449 0.001204291
-4.7551751 1.183835 -1.1610966 11 0.12550823 0.064382441 0.99000132 0.0012266015
-4.7554159 1.1988904 -1.1620189 10 0.12525357 0.065040171 0.98999059 0.0012618889
-4.7616897 1.2137398 -1.1643244 13 0.12509345 0.066049151 0.98994398 0.0012842809
-4.7635064 1.2301519 -1.1657077 13 0.12457521 0.067022793 0.98994392 0.0013349088
-4.7523041 1.2423117 -1.1638633 16 0.12466189 0.067918628 0.98987192 0.0013449528
-4.750917 1.2552464 -1.1643244 27 0.12457661 0.069621153 0.98976439 0.0013609577
-4.7434111 1.268332 -1.1634021 25 0.12467825 0.070464529 0.98969191 0.0013811969
-4.7506742 1.2862782 -1.1661688 27 0.12460408 0.071760803 0.98960811 0.0013979721
-4.7510448 1.2997385 -1.1670911 27 0.12438516 0.072864749 0.989555 0.0014206532
-4.7492723 1.3135188 -1.1675522 27 0.1246213 0.074412823 0.98941004 0.0014380962
-4.7488704 1.3294834 -1.1684744 27 0.12433453 0.075364493 0.9893741 0.0014461989
-4.7566099 1.3450879 -1.1712412 21 0.12409852 0.07689146 0.98928624 0.0014660363
-4.7579737 1.3616312 -1.1726246 12 0.12388297 0.078138724 0.98921549 0.0014776468
-4.7576513 1.3768245 -1.1735468 17 0.1237229 0.079339415 0.98913991 0.0014717927
-4.759635 1.3909123 -1.1749301 19 0.12349771 0.080198944 0.98909879 0.0014767661
-4.7533755 1.4053067 -1.174469 25 0.12364161 0.081068002 0.98900998 0.0014844331
-4.7531619 1.4196881 -1.1753912 23 0.12363438 0.082053192 0.98892963 0.0014896605
-4.7547684 1.4346427 -1.1767745 25 0.12366173 0.083068386 0.98884147 0.0014970198
-4.7483759 1.4490066 -1.1763135 25 0.12357625 0.083905771 0.98878139 0.001500676
-4.7461715 1.4628322 -1.1767745 27 0.12358291 0.08466506 0.98871589 0.0015043294
-4.7420678 1.4760805 -1.1767745 28 0.12354836 0.085392468 0.98865765 0.0014992682
-4.748806 1.4936478 -1.1795412 28 0.12315009 0.086493067 0.98861164 0.0014940542
-4.7480626 1.5089103 -1.1804636 42 0.12284768 0.087324284 0.98857623 0.0014839942
-4.7364187 1.5197856 -1.1786191 34 0.12310831 0.08771994 0.9885087 0.0014833512
-4.7429957 1.5374316 -1.1813858 28 0.12293504 0.088640414 0.98844826 0.0014847171
-4.7297058 1.5468205 -1.1790802 36 0.12332452 0.088995546 0.9883678 0.0014978014
-4.7266712 1.5622814 -1.1795412 42 0.12361543 0.089649998 0.98827225 0.0014938043
-4.7149053 1.5730114 -1.1776968 31 0.12428661 0.090294175 0.98812944 0.0015084124
-4.6994281 1.5824456 -1.1749301 31 0.12471165 0.090510957 0.98805606 0.0015178859
-4.6741676 1.5903054 -1.1698579 21 0.12469001 0.090379231 0.98807091 0.0015257824
-4.6531425 1.5976644 -1.1657077 36 0.12461374 0.090782851 0.98804349 0.0015405798
-4.6413074 1.6081041 -1.1638633 31 0.12460547 0.091153488 0.98801041 0.0015453004
-4.6215377 1.617533 -1.1601743 23 0.12408368 0.091216572 0.98807025 0.0015960764
-4.6026053 1.6244465 -1.1564854 23 0.12305078 0.091146693 0.98820585 0.0016557401
-4.5922656 1.6361352 -1.155102 20 0.1230207 0.091563493 0.98817104 0.0016247332
-4.5892224 1.6504123 -1.1555631 16 0.12332537 0.092276864 0.98806673 0.0016308584
-4.6065488 1.6711862 -1.1610966 20 0.12344906 0.092660189 0.98801541 0.0016384663
