# .PCD v0.7 - Point Cloud Data file format
VERSION 0.7
FIELDS x y z intensity normal_x normal_y normal_z curvature
SIZE 4 4 4 4 4 4 4 4
TYPE F F F F F F F F
COUNT 1 1 1 1 1 1 1 1
WIDTH 369
HEIGHT 1
VIEWPOINT 0 0 0 1 0 0 0
POINTS 369
DATA ascii
-5.5794039 -8.8977814 -0.97982419 5 0.068480179 0.088498749 -0.99371946 0
-5.6020141 -8.8717899 -0.97889525 9 0.06883727 0.088464022 -0.99369788 0
-5.6165605 -8.8366442 -0.9768517 10 0.07588812 0.091781601 -0.99288332 0
-5.634779 -8.8108587 -0.97573698 9 0.076551244 0.092140727 -0.99279898 0
-5.6555071 -8.7857285 -0.97480804 9 0.075300455 0.09131749 -0.99297071 0
-5.6691957 -8.7531881 -0.97295028 10 0.075814426 0.091323279 -0.99293113 0
-5.6864395 -8.7229824 -0.97146392 10 0.074313432 0.090424798 -0.99312687 0
-5.6994314 -8.693078 -0.96979189 9 0.073518202 0.08989279 -0.99323434 0
-5.7157426 -8.6585102 -0.96793401 9 0.074504457 0.090409376 -0.99311388 0
-5.7277789 -8.6242685 -0.96589047 9 0.074159011 0.090163447 -0.9931621 0
-5.7459903 -8.5929899 -0.96440423 10 0.074309446 0.090232313 -0.99314463 0
-5.7632957 -8.5669956 -0.9632895 10 0.074391536 0.090287544 -0.99313343 0
-5.7782674 -8.537674 -0.96180314 10 0.075019553 0.090669386 -0.99305141 0
-5.7953629 -8.5116291 -0.96068853 10 0.074513011 0.090333566 -0.99312019 0
-5.8101053 -8.4822693 -0.95920217 9 0.074501418 0.090333335 -0.99312115 0
-5.8322034 -8.4574175 -0.95845908 10 0.076362222 0.091628656 -0.99286103 0
-5.8519311 -8.4292383 -0.95734441 10 0.076050267 0.09142521 -0.99290371 0
-5.8637171 -8.3991938 -0.95567226 9 0.076353624 0.091636769 -0.99286091 0
-5.8840342 -8.3752413 -0.95492917 12 0.076848127 0.092026874 -0.99278677 0
-5.9019613 -8.34799 -0.95381451 9 0.07684043 0.092031419 -0.99278688 0
-5.9134097 -8.3179035 -0.95214248 8 0.076922104 0.092079826 -0.99277604 0
-5.9383531 -8.2976646 -0.95195663 9 0.077123553 0.092215948 -0.99274778 0
-5.9594569 -8.2751617 -0.95139927 10 0.077375636 0.092378564 -0.99271309 0
-5.9694209 -8.2434015 -0.94954139 10 0.10737011 0.059356492 0.99244571 0.0001839683
-5.990334 -8.2208271 -0.94898409 10 0.10627551 0.061603725 0.99242657 0.0001865933
-6.0097361 -8.1992474 -0.94842672 11 0.10576594 0.062976897 0.9923948 0.00019158366
-6.0267019 -8.1744194 -0.94749784 10 0.10717158 0.065843821 0.99205786 0.00021480802
-6.0499773 -8.1522484 -0.94712621 10 0.10585789 0.067069605 0.99211675 0.00022385172
-6.0703373 -8.1321297 -0.94675469 10 0.10647158 0.068822004 0.99193114 0.00022555105
-6.0882406 -8.1087761 -0.94601148 11 0.10617389 0.069249012 0.99193335 0.00022153315
-6.1110735 -8.0890875 -0.94582576 11 0.10715381 0.070351802 0.9917503 0.00022026294
-6.1362529 -8.072505 -0.94601148 11 0.10823298 0.071035489 0.99158436 0.00021647546
-6.1575603 -8.0537567 -0.94582576 14 0.1077769 0.072047219 0.99156106 0.00021102084
-6.1717162 -8.0228243 -0.94433951 19 0.10772891 0.073435068 0.99146444 0.00019019448
-6.1954937 -8.0044765 -0.94433951 14 0.10817865 0.074784674 0.99131459 0.00017620763
-6.2139831 -7.985086 -0.94396794 13 0.10830841 0.07614617 0.99119675 0.00016767651
-6.2378092 -7.9639578 -0.94378215 13 0.10869588 0.076795958 0.99110419 0.00015426727
-6.2601776 -7.9438529 -0.94359642 14 0.10934015 0.077655748 0.99096638 0.0001464261
-6.2798629 -7.9232178 -0.94322479 14 0.1093526 0.07766851 0.990964 0.00014514351
-6.3008609 -7.9014363 -0.94285321 14 0.10995369 0.078476705 0.99083382 0.00014150469
-6.3216558 -7.8822565 -0.94266748 14 0.11068574 0.079076119 0.99070466 0.00014345896
-6.3388834 -7.8530598 -0.94155276 14 0.11085099 0.079016894 0.99069089 0.00014485004
-6.3567991 -7.8360004 -0.94136697 14 0.11106094 0.078597285 0.99070078 0.0001527905
-6.3826432 -7.8175344 -0.94155276 14 0.11192872 0.078591503 0.99060351 0.00016691582
-6.4006577 -7.7950625 -0.94099534 14 0.11274018 0.078376777 0.99052846 0.00018747612
-6.421134 -7.7756228 -0.94080961 14 0.11378578 0.077694461 0.99046272 0.0002034621
-6.4468012 -7.7569442 -0.94099534 14 0.11500458 0.077389106 0.99034578 0.0002304524
-6.4671612 -7.7373838 -0.94080961 14 0.11571374 0.076645739 0.99032104 0.0002545772
-6.4849 -7.7147207 -0.94025224 14 0.11684931 0.075915195 0.99024397 0.00029098662
-6.5038447 -7.6935401 -0.93988067 14 0.11763187 0.07480064 0.99023616 0.00032106217
-6.5331469 -7.6791348 -0.94062382 14 0.11852517 0.073584452 0.99022079 0.00037218176
-6.5572376 -7.6585741 -0.94062382 13 0.11987385 0.072519474 0.99013692 0.00042354455
-6.577229 -7.6440396 -0.94080961 13 0.12000048 0.072264865 0.9901402 0.00043541892
-6.5999098 -7.6218309 -0.94062382 14 0.12106541 0.070643999 0.99012756 0.00048493
-6.6198401 -7.604528 -0.94062382 14 0.12176422 0.068487994 0.99019337 0.00051485829
-6.6358147 -7.5773616 -0.93969488 12 0.12068148 0.065068133 0.99055648 0.00055565248
-6.6661644 -7.566606 -0.94080961 13 -0.048378706 -0.060413893 0.99700034 0
-6.6965103 -7.5530744 -0.94173855 13 0.12118635 0.063252546 0.99061251 0.00059695862
-6.7321544 -7.5506945 -0.94378215 15 0.12692794 0.065826423 0.98972535 0.00052738696
-6.75454 -7.5333505 -0.94396794 13 0.12793367 0.063817054 0.98972744 0.00053046795
-6.7808652 -7.5177102 -0.94452524 13 0.12911251 0.06263455 0.98964989 0.00051050039
-6.7791204 -7.4763303 -0.94155276 12 0.12316375 0.054737881 0.99087554 0.0006561958
-6.7945213 -7.4461703 -0.94043803 11 -0.049361441 -0.060602628 0.99694067 0
-6.8071585 -7.4157081 -0.93913758 10 -0.049387172 -0.060537439 0.99694341 0
-6.8130455 -7.3832259 -0.9372797 10 -0.049668383 -0.060628541 0.99692386 0
-6.8200927 -7.3495746 -0.93542188 11 -0.049485523 -0.060435876 0.99694467 0
-6.8362708 -7.3181868 -0.93430716 10 -0.050044369 -0.060627773 0.99690515 0
-6.8458629 -7.2901034 -0.9330067 10 -0.04983921 -0.060472984 0.99692482 0
-6.8578892 -7.2596278 -0.93170619 11 -0.049804322 -0.060377728 0.99693233 0
-6.8697968 -7.2291431 -0.93040574 10 -0.050280042 -0.060532473 0.99689907 0
-6.8790712 -7.2010531 -0.92910522 10 -0.049877822 -0.060277693 0.99693471 0
-6.8838496 -7.1633806 -0.92687583 10 -0.049988367 -0.060258418 0.9969303 0
-6.9023061 -7.1400604 -0.92650431 10 -0.050192263 -0.060253594 0.99692035 0
-6.9083371 -7.1064782 -0.92464638 10 -0.050063409 -0.060110614 0.99693543 0
-6.9264507 -7.0804715 -0.92408907 10 -0.050131883 -0.060061831 0.99693501 0
-6.9350233 -7.0497437 -0.92260277 10 -0.049874894 -0.059876464 0.99695903 0
-6.9448805 -7.0204401 -0.92130226 11 -0.049250625 -0.059462853 0.99701476 0
-6.9556613 -6.987298 -0.91981602 10 -0.048800275 -0.059196513 0.99705279 0
-6.9638762 -6.9565878 -0.91832978 11 -0.04844537 -0.058982689 0.99708277 0
-6.9705606 -6.9244819 -0.91665769 11 -0.048337359 -0.058875106 0.99709439 0
-6.9868255 -6.8995719 -0.91610032 11 -0.046937745 -0.058277402 0.99719632 0
-6.9930534 -6.864862 -0.91424245 12 -0.046670619 -0.058133978 0.99721736 0
-7.0010281 -6.8367934 -0.91294199 10 -0.045196965 -0.057567008 0.99731797 0
-7.0110412 -6.803668 -0.91145575 13 -0.044071034 -0.057147946 0.99739254 0
-7.015934 -6.7728438 -0.90978372 10 -0.041925017 -0.056402337 0.99752742 0
-7.025681 -6.7397404 -0.90829748 11 -0.039048653 -0.055496186 0.99769503 0
-7.0355601 -6.7092452 -0.90699697 11 -0.035703994 -0.054452028 0.99787778 0
-7.0429854 -6.68121 -0.90569639 11 -0.034711968 -0.054176237 0.99792784 0
-7.0552492 -6.6508541 -0.90458179 11 -0.028319459 -0.052330464 0.99822819 0
-7.0610147 -6.6214638 -0.90309542 12 -0.020348853 -0.050148983 0.99853444 0
-7.0689759 -6.5896235 -0.90160918 12 -0.018833863 -0.049730003 0.9985851 0
-7.0782723 -6.559145 -0.90030873 11 -0.020445352 -0.050087564 0.99853557 0
-7.0889149 -6.5300188 -0.899194 12 -0.023573153 -0.05096234 0.99842232 0
-7.0939074 -6.4980912 -0.89752197 11 -0.023391977 -0.050899409 0.99842983 0
-7.1028485 -6.4676313 -0.89622152 10 -0.026439471 -0.051675782 0.9983139 0
-7.1120253 -6.4397507 -0.89510679 11 -0.026496502 -0.051635161 0.99831444 0
-7.1196227 -6.4105372 -0.89380628 11 -0.030304339 -0.052591182 0.99815613 0
-7.1267414 -6.3787599 -0.89232004 12 -0.03040788 -0.052592404 0.99815303 0
-7.1348405 -6.3457532 -0.89083374 12 -0.032854509 -0.053148877 0.99804592 0
-7.1454639 -6.321774 -0.89009064 13 -0.03144639 -0.052780949 0.99811089 0
-7.1477413 -6.2860785 -0.88804698 11 -0.033025414 -0.053109068 0.99804246 0
-7.1562734 -6.2582278 -0.88693225 11 -0.033688881 -0.053216014 0.99801451 0
-7.1683817 -6.2291851 -0.88600332 12 -0.033572666 -0.053152636 0.99802184 0
-7.1782165 -6.2026334 -0.8850745 13 -0.035097413 -0.053461742 0.99795294 0
-7.190546 -6.1761169 -0.88433129 13 -0.035840828 -0.053582184 0.99791998 0
-7.197166 -6.1469603 -0.88303083 13 -0.037776452 -0.053942777 0.99782914 0
-7.1991248 -6.1139464 -0.88117296 12 -0.038479835 -0.054028809 0.99779767 0
-7.2122087 -6.086164 -0.88042986 13 -0.039361797 -0.054151267 0.9977566 0
-7.2250657 -6.064702 -0.88005823 14 -0.038878396 -0.054063339 0.99778032 0
-7.2333794 -6.0330434 -0.87875777 14 -0.039075252 -0.054067042 0.99777246 0
-7.2364039 -6.0013795 -0.87708575 13 -0.039981525 -0.054188628 0.99772996 0
-7.2418852 -5.9697499 -0.87559944 14 -0.041518025 -0.054433603 0.9976539 0
-7.2451696 -5.940671 -0.8741132 13 -0.042903986 -0.054650519 0.99758333 0
-7.2452722 -5.9027843 -0.87188381 14 -0.043451764 -0.054713305 0.99755621 0
-7.2493477 -5.8725023 -0.87039757 14 -0.04473016 -0.054893028 0.99748987 0
-7.2527804 -5.8397269 -0.86872542 13 -0.045703027 -0.055023268 0.99743855 0
-7.2540555 -5.809515 -0.86705339 13 -0.047510382 -0.055250749 0.99734151 0
-7.2587957 -5.7780466 -0.86556715 12 -0.047586318 -0.055247847 0.99733806 0
-7.2634134 -5.7465982 -0.86408085 13 -0.048569147 -0.055351608 0.99728495 0
-7.2632136 -5.711482 -0.86203724 14 -0.048934445 -0.055378538 0.99726558 0
-7.2634463 -5.6789126 -0.86017936 13 -0.04971968 -0.055443145 0.99722314 0
-7.2702441 -5.647512 -0.85887891 13 -0.050089773 -0.055458304 0.99720377 0
-7.2749538 -5.618669 -0.8575784 13 -0.050543297 -0.055476602 0.99717987 0
-7.2716632 -5.5837774 -0.855349 13 -0.050921515 -0.055484835 0.9971602 0
-7.2739501 -5.5513053 -0.85367697 13 0.14166166 -0.044465516 0.98891598 0.00021130363
-7.273561 -5.5189338 -0.8518191 14 0.14224233 -0.045382969 0.98879093 0.00019735328
-7.2740049 -5.4853387 -0.84996128 14 0.14120588 -0.048763532 0.98877859 0.00015901362
-7.2759061 -5.4529824 -0.84828919 14 0.14317735 -0.051561404 0.98835301 0.00013983862
-7.2815247 -5.4255061 -0.84717458 13 0.14428383 -0.051688503 0.98818541 0.00013837572
-7.2813039 -5.3957529 -0.84550244 13 0.14400801 -0.053428464 0.98813313 0.0001302985
-7.2837868 -5.362226 -0.84383041 14 0.14510109 -0.055400439 0.98786455 0.00012998837
-7.2874842 -5.3336315 -0.84252995 14 0.14586005 -0.057380728 0.98763973 0.00012320932
-7.2871733 -5.300272 -0.84067208 14 0.1465598 -0.059320353 0.98742157 0.00011895254
-7.2899561 -5.2692966 -0.83918583 15 0.14724828 -0.060997434 0.98721695 0.00011224862
-7.2884712 -5.2372975 -0.83732802 14 0.14766262 -0.063402914 0.98700345 0.00010205593
-7.2884831 -5.2065072 -0.83565593 14 0.14818735 -0.065129519 0.98681235 9.5171301e-05
-7.2876611 -5.1733317 -0.83379811 14 0.14919049 -0.066678919 0.98655766 9.3842224e-05
-7.2883339 -5.1413546 -0.83212602 14 0.14954136 -0.06766282 0.98643756 8.8871406e-05
-7.287251 -5.1082764 -0.8302682 13 0.14991075 -0.068603702 0.98631644 8.3059567e-05
-7.283515 -5.0753846 -0.82822454 13 0.15053749 -0.069586851 0.98615211 7.8258548e-05
-7.2812901 -5.0436854 -0.82636678 12 0.15073879 -0.070296749 0.98607111 7.4653843e-05
-7.2692099 -5.0015965 -0.82320839 13 0.15088041 -0.071075708 0.98599356 7.3518888e-05
-7.2617798 -4.9666643 -0.82079321 12 0.15101542 -0.071052827 0.98597455 7.0332251e-05
-7.2591534 -4.9351697 -0.81893533 13 0.15096153 -0.07113535 0.98597687 7.0087859e-05
-7.2482171 -4.8945093 -0.81596285 14 0.1513688 -0.070952438 0.98592764 6.7916932e-05
-7.2395148 -4.8610849 -0.81354761 14 0.15144759 -0.070827276 0.98592448 6.933562e-05
-7.2340264 -4.8263221 -0.81131822 14 0.15147419 -0.070568249 0.98593903 7.0961672e-05
-7.2292342 -4.79037 -0.80908877 14 0.15167947 -0.070057318 0.98594385 7.6533215e-05
-7.2226281 -4.7606378 -0.80704522 14 0.15187557 -0.06996607 0.98592019 7.7915211e-05
-7.2175555 -4.7248359 -0.80481583 14 0.15165319 -0.068914592 0.98602843 8.6494685e-05
-7.2131791 -4.6914577 -0.80277216 14 0.15188825 -0.068530299 0.98601907 8.9168476e-05
-7.2070436 -4.6606627 -0.80072862 14 0.15155292 -0.068090804 0.98610109 9.5171679e-05
-7.2040863 -4.6284938 -0.79887068 14 0.15114392 -0.067964062 0.98617256 0.00010499638
-7.2001247 -4.5940576 -0.79682708 15 0.15087621 -0.066823691 0.98629153 0.00011761333
-7.1852245 -4.5581222 -0.79385453 16 0.15001944 -0.06654878 0.98644078 0.00012577021
-7.1784992 -4.5240436 -0.79162514 16 0.14956957 -0.065084636 0.98660678 0.00014505854
-7.1926765 -4.5014687 -0.79162514 15 0.14951512 -0.064361863 0.98666251 0.00014567534
-7.1766047 -4.4670448 -0.78865266 12 0.1488923 -0.063886382 0.98678756 0.00015674961
-7.1601133 -4.4256287 -0.78530848 12 0.14824279 -0.061997131 0.98700571 0.00016777888
-7.1460595 -4.3876948 -0.78233588 11 0.14829168 -0.06071252 0.98707831 0.00017287317
-7.1388254 -4.3575602 -0.78029233 12 0.14807114 -0.059508398 0.98718476 0.00017571315
-7.1303425 -4.321691 -0.77787715 10 0.14766024 -0.05753224 0.98736346 0.00018189018
-7.1328964 -4.294354 -0.77676243 11 0.14764324 -0.056177117 0.98744398 0.00018130285
-7.1321545 -4.268507 -0.77546197 11 0.14760762 -0.054680273 0.98753333 0.00018122533
-7.1337771 -4.242466 -0.77434725 11 0.1475926 -0.05306723 0.98762351 0.0001824646
-7.1453552 -4.2190204 -0.77416146 12 0.14724065 -0.052091699 0.98772806 0.00018432821
-7.1468034 -4.1930056 -0.77304679 12 0.14696603 -0.050653156 0.98784369 0.00017592519
-7.1523309 -4.1677713 -0.77230358 12 0.14682674 -0.048901718 0.98795265 0.00017345099
-7.1474309 -4.1365566 -0.77044582 12 0.14642468 -0.047318328 0.98808944 0.00017183273
-7.1426992 -4.1088943 -0.76877367 11 0.14594479 -0.04502435 0.98826766 0.00016641805
-7.142756 -4.0807686 -0.76747322 11 0.1455314 -0.043400709 0.98840117 0.00015790234
-7.1461735 -4.0546441 -0.76654434 10 0.14536913 -0.041533321 0.98850542 0.00015003793
-7.1505289 -4.0307598 -0.76580119 10 0.14488739 -0.040957734 0.98860008 0.00014790423
-7.1509919 -4.001471 -0.76450068 11 0.14451335 -0.039423168 0.9887172 0.00014040658
-7.1569166 -3.9785824 -0.76394331 9 0.14428997 -0.038667824 0.9887796 0.00013957034
-7.1557965 -3.9518416 -0.7626428 11 0.14390312 -0.037136447 0.98889476 0.00012996745
-7.1629381 -3.9264719 -0.7620855 10 0.14359914 -0.035244126 0.98900825 0.00011860825
-7.1661978 -3.9038944 -0.76134235 10 0.14318873 -0.034775995 0.9890843 0.00011942515
-7.168992 -3.8778772 -0.76041347 10 0.14283015 -0.033370849 0.98918456 0.00010571448
-7.1699409 -3.8509357 -0.7592988 9 0.14244741 -0.031630598 0.98929679 9.8300596e-05
-7.1718822 -3.8262112 -0.75836986 9 0.1421292 -0.030224442 0.98938662 8.7964982e-05
-7.1719813 -3.8005731 -0.75725514 9 0.14179188 -0.029783387 0.98944831 8.6798158e-05
-7.1785989 -3.7752442 -0.75669783 8 0.14183579 -0.028592575 0.98947722 7.8212892e-05
-7.1831627 -3.7536702 -0.75614041 9 0.14133847 -0.026978226 0.98959368 6.5183878e-05
-7.1889658 -3.7295892 -0.75558311 10 0.14114845 -0.026456937 0.98963487 6.2831023e-05
-7.1876068 -3.7018616 -0.75428259 9 0.14071254 -0.02530805 0.9897269 5.7827008e-05
-7.190825 -3.6781476 -0.75353944 8 0.14076081 -0.024172671 0.98974854 4.9586073e-05
-7.1963797 -3.6540906 -0.75298208 8 0.14065066 -0.023331584 0.98978436 4.3819833e-05
-7.1929636 -3.6255512 -0.75149578 9 0.14071 -0.022338854 0.98979878 3.7821555e-05
-7.1959386 -3.6018853 -0.75075275 8 0.14073764 -0.022332946 0.98979497 3.6047772e-05
-7.2030263 -3.5787475 -0.75038111 8 0.14079432 -0.021581288 0.98980361 2.9516859e-05
-7.2082548 -3.5547175 -0.74982375 8 0.14080492 -0.020942876 0.98981589 2.335006e-05
-7.2121706 -3.5332067 -0.74926639 8 0.14085469 -0.020886404 0.98980993 2.5783198e-05
-7.211266 -3.5078266 -0.74815178 9 0.14084801 -0.020299386 0.9898231 2.0784144e-05
-7.2150755 -3.4816937 -0.74740857 9 0.14087243 -0.019666208 0.9898324 1.4173302e-05
-7.2193823 -3.4589496 -0.74685121 9 0.14086615 -0.019088514 0.98984462 1.0530256e-05
-7.2170248 -3.4315281 -0.74555069 8 0.14082323 -0.01888179 0.98985469 8.9286996e-06
-7.2217717 -3.4075518 -0.74499339 9 0.1408803 -0.018468229 0.9898544 8.3503946e-06
-7.2204394 -3.3823028 -0.74387866 8 0.14085776 -0.018183997 0.98986286 8.2262386e-06
-7.2226334 -3.3587668 -0.74313551 8 0.14082631 -0.017962061 0.98987132 6.3253892e-06
-7.2253361 -3.3339849 -0.74239242 8 0.14081529 -0.017916124 0.98987377 5.9749877e-06
-7.2189012 -3.3050709 -0.74072039 7 0.14076418 -0.017851956 0.98988217 4.1291796e-06
-7.2286744 -3.2836387 -0.74072039 7 0.14075294 -0.0176837 0.98988682 6.1487344e-06
-7.2305551 -3.2601652 -0.73997724 8 0.14075048 -0.017605269 0.98988855 5.1063057e-06
-7.2359958 -3.2383335 -0.73960567 8 0.14075659 -0.017465459 0.98989016 3.7170319e-06
-7.2377315 -3.2148802 -0.73886251 8 0.14071061 -0.017314084 0.9898994 3.3232866e-06
-7.2459722 -3.1913247 -0.73867673 8 0.14069413 -0.017133996 0.98990482 3.3343733e-06
-7.2475572 -3.1678874 -0.73793358 8 0.14065212 -0.016992971 0.98991323 3.2647522e-06
-7.2483377 -3.1411436 -0.7370047 8 0.14069231 -0.016945476 0.98990834 2.1138308e-06
-7.2510495 -3.1197948 -0.73644733 8 0.14064305 -0.016915347 0.98991591 2.2281856e-06
-7.2547793 -3.0959218 -0.73588997 8 0.14063276 -0.016862646 0.98991817 4.1090548e-06
-7.257134 -3.070013 -0.73514688 8 0.14059941 -0.016804127 0.98992395 4.4399967e-06
-7.2535977 -3.0476441 -0.73403215 7 0.14051813 -0.01674379 0.98993653 4.0943164e-06
-7.2594604 -3.0233078 -0.73366058 8 0.14060465 -0.016684622 0.98992527 4.767769e-06
-7.262876 -2.9994762 -0.73310322 8 0.1405962 -0.016597614 0.98992789 6.3845355e-06
-7.2596493 -2.9759195 -0.73198855 8 0.14053205 -0.016496373 0.98993868 7.4001546e-06
-7.2629123 -2.9521184 -0.73143119 8 0.1406087 -0.016418286 0.98992914 5.5401601e-06
-7.2647624 -2.9263084 -0.73068804 7 0.14057091 -0.016349478 0.98993564 6.1775836e-06
-7.2631536 -2.9035845 -0.7297591 8 0.14051613 -0.016263502 0.98994482 6.7161027e-06
-7.2698846 -2.8812892 -0.72957337 8 0.14058664 -0.016221611 0.98993546 7.6939878e-06
-7.2709885 -2.856791 -0.72883016 8 0.14058332 -0.016251286 0.98993546 6.9064104e-06
-7.2728763 -2.835577 -0.7282728 8 0.1405571 -0.01616833 0.98994052 6.5076233e-06
-7.2738276 -2.8111138 -0.7275297 8 0.14059135 -0.016173569 0.98993558 7.0194965e-06
-7.2770443 -2.7861123 -0.72697234 8 0.14065932 -0.016154267 0.98992628 5.42824e-06
-7.2731447 -2.7628081 -0.72585768 8 0.14060289 -0.016163973 0.98993409 7.0888063e-06
-7.2733769 -2.7396784 -0.72511452 7 0.14064822 -0.016135614 0.98992819 6.7364808e-06
-7.2805567 -2.714848 -0.72492874 7 0.14073215 -0.015979806 0.98991877 5.2686478e-06
-7.2801681 -2.6930161 -0.72418559 7 0.14075555 -0.015895791 0.9899168 5.1646311e-06
-7.2783117 -2.6692467 -0.72325665 7 0.14072868 -0.015862769 0.98992109 6.1005685e-06
-7.2810464 -2.64433 -0.72269928 7 0.14078593 -0.015864495 0.98991293 5.7575221e-06
-7.2767038 -2.6212096 -0.72158462 7 0.14071719 -0.015735505 0.98992479 6.1273599e-06
-7.2736483 -2.5943217 -0.72046995 7 0.14074033 -0.015720017 0.98992175 4.4627513e-06
-7.2831912 -2.5733938 -0.72065568 7 0.14082077 -0.015604941 0.98991215 6.9923981e-06
-7.2880244 -2.5536568 -0.72046995 7 0.14084162 -0.015427679 0.98991191 7.3207725e-06
-7.2880435 -2.5294113 -0.71972674 8 0.14087395 -0.015210048 0.98991066 6.6029211e-06
-7.2898674 -2.5058336 -0.71916944 8 0.14090373 -0.015006388 0.98990953 7.823639e-06
-7.2892966 -2.482898 -0.71842629 7 0.14086552 -0.014780782 0.98991841 9.2845403e-06
-7.2970605 -2.4599869 -0.71842629 8 0.14092065 -0.014557506 0.98991388 9.906973e-06
-7.2982349 -2.4377072 -0.71786892 8 0.14089768 -0.01442385 0.98991907 1.2875297e-05
-7.2993431 -2.4154401 -0.71731162 8 0.14086898 -0.014164571 0.98992693 1.407918e-05
-7.2947059 -2.3913264 -0.71619689 9 0.14078823 -0.013544172 0.98994708 1.726457e-05
-7.2960863 -2.3678291 -0.71563953 8 0.14072692 -0.01325988 0.98995966 1.8282411e-05
-7.30267 -2.3474448 -0.71563953 7 0.14064698 -0.012850862 0.98997641 2.2335224e-05
-7.2986231 -2.3208687 -0.71452481 7 0.14060192 -0.012475071 0.98998761 2.4755072e-05
-7.2989755 -2.2999585 -0.7139675 7 0.14053103 -0.012081517 0.99000251 2.6030852e-05
-7.3000646 -2.2765131 -0.71341014 7 0.14044507 -0.011691238 0.99001944 2.8116398e-05
-7.3029814 -2.2536702 -0.71303856 7 0.14033021 -0.011209847 0.99004132 3.192871e-05
-7.3058267 -2.2308283 -0.71266699 8 0.1402521 -0.010664398 0.99005842 3.6072943e-05
-7.3044038 -2.2081127 -0.7119239 7 0.14011373 -0.010154054 0.99008334 4.0764982e-05
-7.3090143 -2.1858609 -0.71173805 7 0.13999113 -0.0095072379 0.99010706 4.39256e-05
-7.307075 -2.1644537 -0.7109949 8 0.13984306 -0.0088558504 0.99013412 4.6988538e-05
-7.3119278 -2.1409295 -0.71080917 7 0.13971539 -0.0082028732 0.99015772 5.0836377e-05
-7.3105969 -2.1170089 -0.71006602 8 0.13952439 -0.0074952603 0.99019027 5.6306948e-05
-7.3168454 -2.09531 -0.71006602 8 0.13931905 -0.0067156046 0.99022472 6.0512655e-05
-7.3165588 -2.0745153 -0.70950866 8 0.13911329 -0.0061751911 0.99025714 6.6154775e-05
-7.3207641 -2.0522614 -0.70932287 8 0.13895614 -0.0053458153 0.99028414 6.8993613e-05
-7.3187909 -2.029681 -0.70857972 7 0.13873816 -0.0043821451 0.99031943 7.1185677e-05
-7.3305426 -2.0095356 -0.70913708 8 0.13849814 -0.0034747715 0.99035662 7.5550583e-05
-7.328784 -1.9856948 -0.70839399 9 0.1382242 -0.0025051618 0.99039781 7.9734345e-05
-7.3307962 -1.9629108 -0.70802236 8 0.13808163 -0.0015274142 0.99041969 8.4052299e-05
-7.3304744 -1.940902 -0.70746505 8 0.13779691 -0.00050970743 0.9904604 8.944123e-05
-7.330421 -1.9176309 -0.70690769 8 0.13763702 0.00058161427 0.99048257 9.3561415e-05
-7.3296332 -1.896938 -0.70635039 7 0.13733 0.0016100353 0.99052399 9.7686425e-05
-7.3278384 -1.87193 -0.70560718 7 0.1371481 0.0027899407 0.99054658 0.000104192
-7.3330374 -1.8514589 -0.70560718 7 0.1368674 0.0039590164 0.99058151 0.00010846341
-7.3285189 -1.828565 -0.7046783 7 0.13667542 0.0052000792 0.9906022 0.00011364684
-7.3303595 -1.8045803 -0.70430672 7 0.13636994 0.0064111389 0.99063724 0.00011684388
-7.3295655 -1.7826908 -0.70374936 7 0.1361182 0.0076137441 0.99066335 0.00012385612
-7.3290138 -1.7595407 -0.703192 7 0.13582987 0.0089624682 0.99069166 0.00012603088
-7.3358369 -1.7395264 -0.70337778 7 0.13550623 0.010199424 0.99072403 0.00012865751
-7.334549 -1.7189531 -0.70282048 8 0.13528046 0.011008717 0.9907462 0.00013359443
-7.3399124 -1.695904 -0.70282048 8 0.13493176 0.012315267 0.99077839 0.00013751254
-7.3371463 -1.6723462 -0.70207733 8 0.13463767 0.013729857 0.99079978 0.00013977358
-7.3395567 -1.6526955 -0.70189154 7 0.13433976 0.015027172 0.99082136 0.00014261703
-7.3486009 -1.630492 -0.70226312 8 0.13384114 0.016506422 0.99086529 0.000147748
-7.3450637 -1.6095423 -0.70151997 8 0.13371852 0.017763903 0.9908601 0.00015018352
-7.3556461 -1.589003 -0.70207733 7 0.13325782 0.019199742 0.99089545 0.0001534511
-7.3603282 -1.5671726 -0.70207733 8 0.13277328 0.020559775 0.99093318 0.00015424598
-7.3610477 -1.5445088 -0.70170575 8 0.13249169 0.021896314 0.99094224 0.00015309124
-7.3614316 -1.5231395 -0.70133418 7 0.13232881 0.02264476 0.99094719 0.00015085617
-7.3698211 -1.5020877 -0.70170575 7 0.13180473 0.024035344 0.99098426 0.00015068804
-7.3739872 -1.4815009 -0.70170575 7 0.13162844 0.025350321 0.99097496 0.00014861248
-7.376142 -1.4605159 -0.70151997 7 0.13106735 0.026816173 0.99101067 0.00014727387
-7.3787394 -1.4369547 -0.70133418 7 0.13081107 0.028303958 0.99100316 0.00014428416
-7.3866348 -1.4170938 -0.70170575 8 0.13043025 0.029438855 0.99102032 0.00013894541
-7.3944774 -1.3971999 -0.70207733 7 0.13004516 0.030114401 0.99105066 0.00014353123
-7.4003077 -1.3769125 -0.70226312 8 0.12961136 0.03151042 0.99106407 0.00013839894
-7.4082775 -1.3556657 -0.70263463 7 0.129241 0.032662712 0.9910751 0.00013403723
-7.4063888 -1.332619 -0.70207733 7 0.12897345 0.033936456 0.99106717 0.00013115525
-7.4142313 -1.3113328 -0.70244884 7 0.12861344 0.035072166 0.9910745 0.00012492717
-7.4178638 -1.2906245 -0.70244884 7 0.12807637 0.036297586 0.99109983 0.00011849422
-7.4216609 -1.2686075 -0.70244884 8 0.12768888 0.037340384 0.99111116 0.00011351648
-7.4308481 -1.2501656 -0.70300621 7 0.12734579 0.038267765 0.99111986 0.00010785077
-7.4367037 -1.2271385 -0.703192 7 0.12704478 0.039316241 0.99111748 0.00010171523
-7.4440327 -1.2070053 -0.70356357 7 0.12649986 0.040393308 0.99114388 9.4777082e-05
-7.4497547 -1.1839237 -0.70374936 7 0.12620428 0.041338988 0.99114251 8.8416215e-05
-7.453032 -1.1631167 -0.70374936 7 0.12580635 0.042257678 0.99115449 8.334779e-05
-7.4601874 -1.1429019 -0.70412093 8 0.12544021 0.043042082 0.99116701 7.7326666e-05
-7.473196 -1.1235446 -0.70504981 8 0.12510423 0.043924827 0.99117082 7.3176707e-05
-7.4764967 -1.1013675 -0.70504981 8 0.12482689 0.044619318 0.99117482 7.0472954e-05
-7.4856439 -1.0800322 -0.70560718 7 0.12438562 0.045318078 0.9911986 6.5565771e-05
-7.4909725 -1.0567878 -0.70579302 7 0.1241832 0.046085756 0.99118853 6.0486727e-05
-7.4955049 -1.0387536 -0.70597875 8 0.12384156 0.046707865 0.99120212 5.4871412e-05
-7.5007043 -1.0154692 -0.70616454 9 0.12341968 0.047240842 0.99122953 4.9821945e-05
-7.5072856 -0.99635237 -0.70653611 8 0.12319248 0.047900308 0.99122614 4.2932446e-05
-7.5161328 -0.97484136 -0.70709348 8 0.12278203 0.048506968 0.99124748 3.8911647e-05
-7.5229435 -0.95303631 -0.70746505 8 0.1225349 0.04893446 0.99125707 3.4476459e-05
-7.5278769 -0.92964321 -0.70765084 8 0.12227957 0.049458914 0.99126261 3.0348039e-05
-7.5401692 -0.9111259 -0.70857972 7 0.12198469 0.049799751 0.99128187 2.5305493e-05
-7.5428395 -0.8887493 -0.70857972 8 0.12186661 0.050095495 0.99128151 2.2923865e-05
-7.5532055 -0.86859179 -0.70932287 8 0.12170647 0.050378218 0.99128681 2.0055784e-05
-7.5618339 -0.84552372 -0.70988023 8 0.1215864 0.050601318 0.99129021 1.6740547e-05
-7.5719399 -0.82658964 -0.71062338 8 0.12147854 0.050894164 0.99128842 1.4362598e-05
-7.5764799 -0.8030054 -0.71080917 8 0.12126005 0.05105694 0.99130678 1.2168899e-05
-7.592422 -0.78460151 -0.71210963 9 0.12111959 0.051296264 0.99131161 1.0591789e-05
-7.5947161 -0.76207048 -0.71210963 8 0.12104291 0.051411591 0.99131501 8.4566855e-06
-7.6027603 -0.74143839 -0.71266699 9 0.12094276 0.051402293 0.9913277 8.4248613e-06
-7.6110001 -0.7181108 -0.71322435 9 0.12074861 0.051596291 0.99134135 8.6951422e-06
-7.6189246 -0.69739997 -0.71378171 8 0.12061518 0.051630255 0.99135578 8.0249292e-06
-7.6269112 -0.67531759 -0.71433908 9 0.12058096 0.051687036 0.99135703 6.7028568e-06
-7.6346059 -0.65585881 -0.71489644 9 0.12046363 0.051649276 0.99137324 7.3694682e-06
-7.6445661 -0.63252908 -0.71563953 9 0.12033761 0.051566683 0.99139285 6.8311201e-06
-7.6483946 -0.61000043 -0.71582532 9 0.12021648 0.051482983 0.99141192 5.7438328e-06
-7.6520534 -0.58879381 -0.71601111 9 0.1201714 0.051368859 0.99142325 6.5386316e-06
-7.6537666 -0.5660885 -0.71601111 10 0.12013655 0.051287025 0.99143177 8.203242e-06
-7.6592903 -0.54499513 -0.71638268 9 0.1200133 0.051130351 0.99145478 8.5592619e-06
-7.6668344 -0.52267307 -0.71694005 8 0.11994472 0.05103936 0.99146771 8.5743814e-06
-7.6741376 -0.50298971 -0.71749741 9 0.11977637 0.051004078 0.99148989 9.2784094e-06
-7.6756797 -0.47887969 -0.71749741 9 0.12281221 0.041599721 0.99155772 0.0013785566
-7.6809621 -0.45767963 -0.71786892 9 0.12899221 0.024989899 0.99133062 0.0037466649
-7.688251 -0.43522498 -0.71842629 8 0.13165739 0.014658558 0.99118686 0.0049528293
-7.6913533 -0.41520247 -0.71861207 8 0.13221832 0.014097596 0.99112034 0.0050497362
-7.6965971 -0.39123917 -0.71898365 8 0.13171382 0.0092524113 0.99124455 0.0055888104
-7.6976595 -0.369746 -0.71898365 8 0.13116845 0.010122538 0.99130845 0.0055592456
-7.710598 -0.34878802 -0.72009832 8 0.13714911 -0.0062740389 0.99053055 0.0086340243
-7.717567 -0.32616052 -0.72065568 8 0.13725735 -0.0066804476 0.99051285 0.0087240143
-7.7105417 -0.30294746 -0.71991259 8 0.14762713 -0.039100278 0.98826987 0.016014023
-7.7212582 -0.28312635 -0.72084147 8 0.14806443 -0.050839812 0.98767006 0.017944977
-7.7300715 -0.25913447 -0.72158462 9 0.15351222 -0.065832309 0.98595142 0.020034984
-7.7327552 -0.23760952 -0.72177041 9 0.15444069 -0.1037122 0.98254353 0.02480441
-7.7413507 -0.21623656 -0.72251356 9 0.15490162 -0.11327582 0.98141432 0.025626583
-7.741992 -0.19191498 -0.72251356 9 0.14906476 -0.12430804 0.98098278 0.028002074
-7.7405362 -0.16889931 -0.72232777 8 0.16268581 -0.16154404 0.9733637 0.036196493
-7.7509065 -0.14882645 -0.72325665 9 0.16397122 -0.17143023 0.9714551 0.037655659
-7.7572875 -0.12592492 -0.72381401 9 0.16774659 -0.18699555 0.96793276 0.040184371
-7.7636003 -0.10298685 -0.72437137 9 0.17318225 -0.21124606 0.9619683 0.043889601
-7.7698593 -0.078656405 -0.72492874 10 0.17612879 -0.22012173 0.95943987 0.047257099
-7.7760129 -0.058360778 -0.7254861 9 0.17913981 -0.22861682 0.95689249 0.048494197
-7.7821255 -0.035315309 -0.72604346 9 0.17826171 -0.21914305 0.95927012 0.04916567
-7.7841825 -0.01494485 -0.72622919 9 0.17469047 -0.23192978 0.95691782 0.050705303
-7.794148 0.0095206015 -0.72715813 9 0.1743336 -0.23775247 0.955553 0.051767871
-7.7960768 0.03265503 -0.72734392 9 0.16721039 -0.22972149 0.958785 0.053087905
-7.7919626 0.055758245 -0.72697234 9 0.16927281 -0.21589416 0.96163219 0.056373473
-7.7917771 0.077517815 -0.72697234 9 0.16841741 -0.21807389 0.96129054 0.0579748
-7.7994947 0.099378258 -0.72771549 9 0.16891155 -0.22749482 0.95901775 0.059761148
-7.8051386 0.12261178 -0.7282728 9 0.16886874 -0.23129921 0.95811486 0.06133623
-7.8107638 0.14315525 -0.72883016 8 0.16664664 -0.23789094 0.95688903 0.061504856
-7.8162484 0.16782138 -0.72938752 9 0.16102333 -0.25237614 0.95413715 0.061421167
-7.8197312 0.18974493 -0.7297591 9 0.15253781 -0.2620444 0.95292443 0.062166598
-7.8251057 0.2131069 -0.73031646 9 0.14721751 -0.25308147 0.95617819 0.064437285
-7.8225303 0.23353343 -0.73013067 9 0.14820533 -0.22181974 0.96375883 0.067453504
-7.8336544 0.25986904 -0.73124534 10 0.14149404 -0.19516042 0.9705112 0.069665201
-7.8369269 0.28051966 -0.73161697 10 0.1425316 -0.16984302 0.97510928 0.071957082
-7.8381028 0.30247885 -0.7318027 11 0.13752653 -0.14576249 0.97971416 0.073317446
-7.849052 0.32760009 -0.73291743 12 0.12812762 -0.10849438 0.98580539 0.074564211
-7.8481064 0.34951803 -0.73291743 12 0.12585282 -0.089098461 0.98803967 0.075375505
-7.8470998 0.37143135 -0.73291743 11 0.12929739 -0.073811002 0.98885494 0.075687401
-7.8519301 0.39501312 -0.73347479 12 0.1247929 -0.065512285 0.99001753 0.077499136
-7.8468184 0.4167276 -0.73310322 11 0.12106469 -0.049053364 0.99143183 0.082236849
