# .PCD v0.7 - Point Cloud Data file format
VERSION 0.7
FIELDS x y z intensity normal_x normal_y normal_z curvature
SIZE 4 4 4 4 4 4 4 4
TYPE F F F F F F F F
COUNT 1 1 1 1 1 1 1 1
WIDTH 384
HEIGHT 1
VIEWPOINT 0 0 0 1 0 0 0
POINTS 384
DATA ascii
-3.7350571 -3.9098802 -1.149336 48 0.13072839 -0.026729083 0.99105781 0.0018374351
-3.7717626 -3.8799422 -1.1501676 15 0.13071051 -0.026550902 0.99106497 0.0018433784
-3.7825646 -3.8666761 -1.1497518 17 0.13047707 -0.026695337 0.99109185 0.0018485645
-3.8015792 -3.8644655 -1.1522467 20 0.1306323 -0.026533959 0.99107575 0.0018608409
-3.8123562 -3.8538342 -1.1522467 23 0.13029799 -0.026269164 0.99112678 0.001851404
-3.8337736 -3.829761 -1.1518309 38 0.12947379 -0.024989478 0.99126792 0.0018376934
-3.8694355 -3.8438566 -1.1593157 42 0.12917911 -0.025720218 0.99128765 0.0018809693
-3.8766477 -3.8282349 -1.1580682 42 0.12910573 -0.025020272 0.99131513 0.0018770575
-3.913363 -3.8215606 -1.1626424 51 0.12860605 -0.025227008 0.99137485 0.0019216256
-3.9214935 -3.8496077 -1.1680479 32 0.12768707 -0.027085023 0.99144465 0.0020243595
-3.9492171 -3.832407 -1.1697114 48 0.12607273 -0.026843354 0.99165773 0.0020941517
-3.9887929 -3.8505881 -1.1784436 48 0.12872259 -0.026239688 0.99133343 0.0020167357
-4.0163994 -3.8529346 -1.1830176 48 0.12905529 -0.025910344 0.99129885 0.0019940352
-4.0179038 -3.8315504 -1.1801069 44 0.12779641 -0.025305239 0.99147761 0.0019962096
-4.0364361 -3.8290973 -1.1826018 35 0.12790443 -0.024598369 0.99148142 0.0019514936
-4.0484467 -3.8163965 -1.1826018 21 0.12777276 -0.024102677 0.99151051 0.0019289139
-4.0541425 -3.8017707 -1.1813543 21 0.12709194 -0.023489248 0.99161273 0.0018962094
-4.0625424 -3.7870581 -1.1805227 32 0.12647025 -0.022427205 0.99171686 0.0018181725
-4.0751958 -3.7763169 -1.1809385 21 0.12561963 -0.021688722 0.99184138 0.0017322104
-4.0849438 -3.7628832 -1.1805227 16 0.12540296 -0.021154759 0.9918803 0.0016774109
-4.088223 -3.7448537 -1.1784436 26 0.12501796 -0.020883145 0.99193472 0.0016604594
-4.0949759 -3.7287569 -1.177196 16 0.12449934 -0.020035161 0.99201739 0.0016246621
-4.0995727 -3.7120543 -1.1755328 15 0.12409941 -0.019702289 0.99207419 0.0016201417
-4.1084695 -3.6992826 -1.175117 14 0.12335233 -0.019619839 0.99216896 0.0015558389
-4.1092234 -3.677943 -1.1722063 19 0.12267782 -0.019090211 0.99226296 0.0016246171
-4.1236806 -3.6676164 -1.1730379 14 0.12202584 -0.017860435 0.99236619 0.0014806456
-4.1244774 -3.64903 -1.1705428 14 0.12175713 -0.017264653 0.99240971 0.0015204599
-4.1323485 -3.6341925 -1.1697114 15 0.12126398 -0.016705668 0.99247974 0.0014922604
-4.1424809 -3.6226382 -1.1697114 14 0.12049718 -0.0158988 0.99258637 0.001454056
-4.1449809 -3.601908 -1.1672163 14 0.11979888 -0.014002578 0.99269938 0.0014234643
-4.146142 -3.5826445 -1.1647214 23 0.11950506 -0.013448951 0.99274248 0.0014610431
-4.1523018 -3.5665026 -1.163474 29 0.11978146 -0.012340424 0.99272358 0.0014248211
-4.1577826 -3.5510814 -1.1622264 35 0.12005032 -0.010376997 0.99271357 0.0014123187
-4.1602273 -3.5331249 -1.1601474 35 0.12000178 -0.010397051 0.99271923 0.0014216484
-4.1683154 -3.5175149 -1.1593157 35 0.11966279 -0.0080585256 0.99278188 0.0013753547
-4.1715159 -3.5015602 -1.1576524 35 0.11964182 -0.0063909236 0.99279648 0.0013582188
-4.1900086 -3.4947016 -1.1597315 26 0.12050797 -0.0070819077 0.99268711 0.0012296119
-4.1922221 -3.476743 -1.1576524 14 0.12055747 -0.0065031606 0.99268508 0.0011955921
-4.1994996 -3.4618006 -1.1568208 12 0.12128204 -0.0066182278 0.99259603 0.0011148481
-4.2040095 -3.4470742 -1.1555732 13 0.1212462 -0.0046640122 0.99261159 0.0010966768
-4.210269 -3.4301417 -1.1543257 11 0.12104926 -0.0036616784 0.99263978 0.0010564113
-4.2167912 -3.4159095 -1.1534942 12 0.12146809 -0.003667366 0.99258858 0.0009836948
-4.2147174 -3.3935676 -1.1501676 11 0.12195414 -0.0027839148 0.99253184 0.00098024553
-4.2205338 -3.3800755 -1.149336 12 0.12344734 -0.0030941183 0.99234629 0.00088666007
-4.2259517 -3.3638837 -1.1480885 12 0.12338243 -0.0014469048 0.99235815 0.0008404465
-4.2343802 -3.3501167 -1.1476727 13 0.124043 -0.002091286 0.9922747 0.00077984139
-4.2412257 -3.3351192 -1.146841 12 0.12476382 -0.0027205518 0.99218279 0.00073005812
-4.2443576 -3.3184433 -1.1451777 11 0.12476497 -0.0022039639 0.99218386 0.00069584121
-4.2516727 -3.3026915 -1.144346 12 0.12535746 -0.0027171781 0.99210793 0.00065984123
-4.2562337 -3.287219 -1.1430986 11 0.12544434 -0.001793236 0.99209905 0.00062687561
-4.2653966 -3.2753205 -1.1430986 12 0.12618157 -0.0022956326 0.99200451 0.00052088796
-4.2704301 -3.2590904 -1.1418511 12 0.12620012 -0.0030258032 0.99200016 0.00045580664
-4.2748394 -3.2436047 -1.1406035 11 0.12660734 -0.0035456645 0.99194658 0.0004364973
-4.281321 -3.2285507 -1.1397721 11 0.12716778 -0.0042684125 0.99187201 0.0004072256
-4.2846198 -3.2111406 -1.1381087 11 0.12725623 -0.0044119661 0.99186009 0.00040484947
-4.2920008 -3.1979947 -1.1376928 11 0.12754354 -0.0047422173 0.99182165 0.00039075469
-4.2972155 -3.1844177 -1.1368612 10 0.1284257 -0.0062992377 0.9916991 0.00030995772
-4.3024721 -3.1674223 -1.1356138 11 0.12864119 -0.0068132076 0.99166781 0.00030048596
-4.3081431 -3.1530838 -1.1347821 10 0.12872063 -0.0068850541 0.99165696 0.00029427218
-4.3143158 -3.1379859 -1.1339505 10 0.12906626 -0.007137089 0.99161029 0.00028712273
-4.3188505 -3.1217341 -1.1327031 11 0.12936713 -0.0075936858 0.99156767 0.00027828279
-4.3227854 -3.1062362 -1.1314555 9 0.12966284 -0.0076763756 0.99152845 0.00026967403
-4.3250747 -3.0896049 -1.1297923 11 0.13013023 -0.008191566 0.99146307 0.00024967626
-4.3358183 -3.0778906 -1.130208 10 0.13007157 -0.0088435244 0.99146515 0.00024230605
-4.33534 -3.0582461 -1.1277131 8 0.13075729 -0.0094326437 0.99136949 0.00020760113
-4.3395891 -3.0420005 -1.1264657 10 0.13100435 -0.009968793 0.99133164 0.00019001712
-4.3480668 -3.029871 -1.1264657 9 0.13123734 -0.011268669 0.99128693 0.00015628671
-4.3500786 -3.0132611 -1.1248024 10 0.13171932 -0.01213205 0.99121273 0.00012694376
-4.3579121 -2.9984713 -1.1243865 10 0.13190646 -0.012934227 0.99117774 0.00011075938
-4.3598084 -2.9818728 -1.1227232 10 0.132282 -0.013823539 0.99111569 8.2200757e-05
-4.3665009 -2.9685862 -1.1223074 10 0.13257405 -0.015086927 0.99105823 5.2068979e-05
-4.3741841 -2.9537587 -1.1218916 9 0.13277487 -0.016227588 0.99101335 3.0528085e-05
-4.3770299 -2.9390249 -1.1206441 9 0.13286549 -0.016423864 0.99099803 2.6070564e-05
-4.3824759 -2.9238544 -1.1198125 9 0.13313124 -0.017478803 0.99094427 5.6612139e-06
-4.3900099 -2.9089904 -1.1193967 9 0.13303314 -0.017485738 0.99095738 6.6423572e-06
-4.3971043 -2.8982553 -1.1193967 9 0.1330092 -0.017548501 0.99095947 5.9475333e-06
-4.4029145 -2.8822842 -1.118565 10 0.13299116 -0.017501874 0.99096268 6.9466178e-06
-4.4081664 -2.8670752 -1.1177334 9 0.132984 -0.017483482 0.99096394 6.6033817e-06
-4.4173002 -2.8565869 -1.1181492 9 0.13280678 -0.017515806 0.99098718 5.7517173e-06
-4.4241109 -2.8424103 -1.1177334 8 0.1328489 -0.017443962 0.99098283 5.7809862e-06
-4.4264216 -2.8242891 -1.11607 8 0.13290861 -0.017305184 0.99097717 6.1611076e-06
-4.4321489 -2.8116417 -1.1156542 8 0.13287672 -0.017292103 0.99098176 6.5503741e-06
-4.4321966 -2.7932649 -1.1135751 10 0.13299252 -0.017181123 0.99096805 7.1660852e-06
-4.4343162 -2.7751749 -1.1119118 9 0.1330386 -0.017057346 0.99096406 9.7543425e-06
-4.4410839 -2.7643323 -1.1119118 8 0.13297747 -0.017035507 0.9909727 7.9703632e-06
-4.4447551 -2.7472799 -1.1106644 10 0.13300046 -0.016999912 0.99097019 6.0672091e-06
-4.4528861 -2.7340808 -1.1106644 8 0.13297787 -0.017030606 0.99097264 5.703379e-06
-4.455019 -2.7193568 -1.109417 9 0.13298847 -0.016982356 0.9909721 5.2728442e-06
-4.4618678 -2.7043321 -1.109001 9 0.13292509 -0.016983556 0.99098057 5.6580261e-06
-4.4614916 -2.6860373 -1.1069219 8 0.13305137 -0.016938305 0.99096441 6.0884709e-06
-4.4701872 -2.6753521 -1.1073377 9 0.13290994 -0.016975552 0.99098271 4.8808274e-06
-4.474278 -2.6608584 -1.1065061 8 0.13290374 -0.01702687 0.99098271 6.0079815e-06
-4.4792461 -2.6447995 -1.1056745 9 0.13284661 -0.017041951 0.99099004 7.3811293e-06
-4.4798651 -2.6283219 -1.1040112 8 0.13290742 -0.017058702 0.99098164 8.7887929e-06
-4.4842629 -2.6130481 -1.1031796 9 0.1328657 -0.017075593 0.99098694 9.975779e-06
-4.486917 -2.5967913 -1.101932 9 0.13291472 -0.017131457 0.99097943 1.0576741e-05
-4.4920044 -2.5840611 -1.1015162 8 0.13286734 -0.017167034 0.9909851 8.3436134e-06
-4.496254 -2.5687804 -1.1006845 9 0.13291202 -0.017159199 0.99097931 8.7779517e-06
-4.500453 -2.5534976 -1.099853 8 0.13292642 -0.017174093 0.99097711 9.5079013e-06
-4.4990454 -2.5361161 -1.0977738 8 0.13297752 -0.017164849 0.99097043 8.2418701e-06
-4.5086975 -2.5229256 -1.0981896 8 0.13296843 -0.017152674 0.9909718 8.6644532e-06
-4.5140152 -2.5093744 -1.0977738 8 0.13295263 -0.017172378 0.99097365 9.8905048e-06
-4.5141559 -2.492976 -1.0961106 8 0.13296616 -0.017198533 0.99097133 8.4924595e-06
-4.5202498 -2.4778426 -1.0956948 8 0.13297519 -0.017204648 0.99097002 9.0424828e-06
-4.525003 -2.4650636 -1.0952789 9 0.13294354 -0.017230202 0.99097383 8.7017697e-06
-4.5288563 -2.4497652 -1.0944473 8 0.13295361 -0.01725704 0.99097204 9.0309522e-06
-4.5309348 -2.4335399 -1.0931998 8 0.13296016 -0.017257668 0.99097103 6.9746784e-06
-4.5342603 -2.4190357 -1.0923681 9 0.13295393 -0.017273523 0.99097162 6.0036141e-06
-4.5340843 -2.4026999 -1.0907048 8 0.13300458 -0.017245138 0.99096543 7.664994e-06
-4.5398779 -2.3875339 -1.090289 7 0.13298748 -0.017240152 0.99096781 8.6768196e-06
-4.5478473 -2.3765461 -1.0907048 7 0.13295589 -0.017235184 0.9909721 9.736882e-06
-4.5461955 -2.3585372 -1.0886257 7 0.13297965 -0.017180871 0.99096984 8.8635961e-06
-4.5479555 -2.3423517 -1.0873781 8 0.13296905 -0.017173622 0.99097139 9.8570817e-06
-4.5527377 -2.3287511 -1.0869623 9 0.13292454 -0.017173413 0.99097741 9.3979315e-06
-4.5613713 -2.316118 -1.0873781 8 0.1328948 -0.017183542 0.9909811 9.0191179e-06
-4.5647297 -2.3008125 -1.0865467 8 0.13292219 -0.017162926 0.99097788 8.3959339e-06
-4.5658889 -2.2854292 -1.0852991 8 0.13293542 -0.017123999 0.99097675 7.0868582e-06
-4.5691452 -2.2701316 -1.0844674 9 0.13292448 -0.017106185 0.99097848 6.9203397e-06
-4.5776162 -2.2574301 -1.0848833 9 0.13286233 -0.017049788 0.99098784 4.6022583e-06
-4.5799961 -2.2437174 -1.0840516 8 0.13285771 -0.016992241 0.99098939 5.6880558e-06
-4.582725 -2.229207 -1.08322 9 0.13285756 -0.016988307 0.99098951 6.7968945e-06
-4.5826583 -2.2113991 -1.0815567 9 0.13288365 -0.01687941 0.9909879 3.743814e-06
-4.5888157 -2.1985929 -1.0815567 8 0.13286942 -0.016846621 0.9909904 3.4726204e-06
-4.5935526 -2.1841278 -1.0811409 9 0.13284959 -0.016795326 0.99099398 2.53693e-06
-4.5947046 -2.1679852 -1.0798935 9 0.13285905 -0.016726647 0.9909938 3.1289862e-06
-4.5989695 -2.1543159 -1.0794777 8 0.13282308 -0.016655022 0.99099976 3.3278382e-06
-4.5978718 -2.1381648 -1.0778142 7 0.13286307 -0.016561143 0.990996 4.968088e-06
-4.6024199 -2.1236932 -1.0773984 8 0.13283978 -0.016512815 0.991 4.6166651e-06
-4.6087008 -2.110028 -1.0773984 9 0.13276304 -0.016327707 0.99101329 6.2413492e-06
-4.6131592 -2.0955362 -1.0769826 8 0.13270673 -0.016244048 0.99102223 5.2463379e-06
-4.6136432 -2.0802331 -1.0757352 8 0.13269183 -0.016131775 0.9910261 6.7230744e-06
-4.6158633 -2.0657427 -1.0749035 9 0.13268241 -0.016029606 0.99102896 6.207862e-06
-4.61625 -2.0504618 -1.0736561 8 0.13268661 -0.015910074 0.99103028 6.4187193e-06
-4.6172981 -2.0335846 -1.0724087 7 0.13266701 -0.015725814 0.99103594 6.2863287e-06
-4.6229587 -2.0206826 -1.0724087 7 0.13263161 -0.015575485 0.99104303 6.9010175e-06
-4.6238995 -2.0038154 -1.0711612 7 0.13262048 -0.015431485 0.99104679 1.0825917e-05
-4.6291299 -1.9917027 -1.0711612 8 0.13255011 -0.015230726 0.99105924 1.1025776e-05
-4.6350188 -1.9779588 -1.0711612 9 0.1324864 -0.015071121 0.99107027 1.2098284e-05
-4.6394081 -1.9626265 -1.0707452 8 0.13242336 -0.014888723 0.99108142 1.1330819e-05
-4.6459928 -1.9520428 -1.0711612 8 0.13234684 -0.014747339 0.99109375 1.2587495e-05
-4.6502972 -1.9366839 -1.0707452 9 0.13231614 -0.014539923 0.99110091 1.1572062e-05
-4.6542144 -1.9221319 -1.0703294 8 0.13225386 -0.014338413 0.99111217 1.1122216e-05
-4.6519904 -1.9069721 -1.0686662 8 0.13220336 -0.01407716 0.99112266 1.2378831e-05
-4.6558151 -1.8924251 -1.0682503 9 0.1321713 -0.013871683 0.99112982 1.3357178e-05
-4.6562943 -1.8755951 -1.0670029 9 0.13211116 -0.013625878 0.99114126 1.4837196e-05
-4.6593719 -1.862673 -1.0665871 8 0.13207556 -0.013416713 0.99114883 1.5631176e-05
-4.6612401 -1.8473996 -1.0657555 9 0.13204142 -0.013150278 0.991157 1.780202e-05
-4.6685224 -1.8342751 -1.0661713 9 0.13194008 -0.012830568 0.9911747 1.9206551e-05
-4.669663 -1.8206263 -1.0653396 8 0.13191225 -0.012622275 0.99118108 1.8464169e-05
-4.6732197 -1.8060576 -1.0649238 9 0.13186491 -0.01234882 0.99119079 1.9446565e-05
-4.6733894 -1.7892687 -1.0636762 9 0.13180983 -0.01197185 0.99120271 2.140596e-05
-4.6780581 -1.7770272 -1.0636762 8 0.13176265 -0.011699947 0.99121231 2.1598606e-05
-4.6793413 -1.7625774 -1.0628448 8 0.13169147 -0.011369909 0.99122554 2.0352743e-05
-4.6814942 -1.7456832 -1.062013 10 0.1316193 -0.010883708 0.99124056 2.1638803e-05
-4.686048 -1.7334218 -1.062013 9 0.1315323 -0.010617117 0.99125504 2.182746e-05
-4.6871967 -1.7189816 -1.0611813 9 0.1314652 -0.010285146 0.99126744 2.2899912e-05
-4.6888967 -1.7029132 -1.0603497 9 0.13138627 -0.0098189292 0.99128264 2.4355606e-05
-4.6896577 -1.6893055 -1.0595181 9 0.1313277 -0.0094355252 0.99129409 2.3526674e-05
-4.693099 -1.6739067 -1.0591023 9 0.13125549 -0.0090353014 0.99130738 2.225702e-05
-4.6961999 -1.6593238 -1.0586864 10 0.13115288 -0.0084472476 0.99132621 2.4700597e-05
-4.6949902 -1.6450813 -1.057439 9 0.13112377 -0.0081446553 0.99133253 2.6052729e-05
-4.6998501 -1.6311446 -1.057439 8 0.13099287 -0.0076672062 0.99135369 2.7993312e-05
-4.7028189 -1.6165564 -1.057023 9 0.13090056 -0.0070611429 0.99137032 3.0816467e-05
-4.7036119 -1.6021556 -1.0561916 10 0.13083191 -0.006654189 0.99138224 3.2365086e-05
-4.7067676 -1.5867468 -1.0557756 9 0.13078462 -0.0062601273 0.99139106 3.3984543e-05
-4.7093248 -1.5729767 -1.0553598 8 0.13065836 -0.0057553994 0.99141073 3.581481e-05
-4.7118421 -1.5592048 -1.054944 8 0.13055445 -0.0052125072 0.99142742 3.7798905e-05
-4.7143183 -1.5454322 -1.0545281 9 0.13042216 -0.0047807316 0.99144703 4.2496442e-05
-4.7170219 -1.5308347 -1.0541123 9 0.13030981 -0.0041778828 0.9914645 4.7540736e-05
-4.7194161 -1.5170574 -1.0536965 9 0.13020505 -0.0037003043 0.99148023 5.3215099e-05
-4.7148376 -1.4992579 -1.0516174 7 0.13009514 -0.0030446246 0.99149686 5.8732097e-05
-4.7224779 -1.488086 -1.0524491 9 0.12997015 -0.002610974 0.99151444 5.8783524e-05
-4.7231369 -1.4729025 -1.0516174 9 0.1298364 -0.0020512547 0.99153334 6.1953622e-05
-4.7274861 -1.458883 -1.0516174 9 0.12966213 -0.0014219159 0.99155718 6.5164968e-05
-4.7355366 -1.4459922 -1.0524491 8 0.12948033 -0.00077483192 0.99158168 6.6602552e-05
-4.7320662 -1.430498 -1.0507858 8 0.12940268 -0.0002041946 0.99159211 7.0256559e-05
-4.7344146 -1.4158914 -1.0503699 9 0.12927781 0.00029941308 0.99160838 7.2146177e-05
-4.7381053 -1.4034905 -1.0503699 9 0.12912953 0.00085530704 0.9916274 7.5410142e-05
-4.7406135 -1.3880497 -1.0499542 9 0.12897347 0.00152273 0.99164689 7.7015255e-05
-4.7447114 -1.3739775 -1.0499542 8 0.1288487 0.0022120986 0.99166179 7.823771e-05
-4.7412438 -1.3577403 -1.0482908 7 0.12872896 0.0028693362 0.99167567 8.2524108e-05
-4.7410183 -1.3442543 -1.0474591 7 0.12857163 0.0035661506 0.99169374 8.5797314e-05
-4.7412186 -1.3291262 -1.0466275 7 0.128397 0.004365291 0.99171329 9.1580863e-05
-4.7467966 -1.3164036 -1.0470433 8 0.12827891 0.0048942161 0.99172604 9.3090683e-05
-4.7487955 -1.3017963 -1.0466275 7 0.12809771 0.0057266802 0.99174505 0.00010011023
-4.7526364 -1.2877015 -1.0466275 9 0.12804079 0.0061906911 0.99174958 9.8850214e-05
-4.7545466 -1.2730882 -1.0462117 8 0.12776235 0.0071647591 0.99177897 0.0001042288
-4.7524099 -1.2583035 -1.0449642 7 0.1276699 0.0078155166 0.99178588 0.00010631601
-4.7561226 -1.244197 -1.0449642 7 0.12753797 0.008555416 0.99179679 0.00010681494
-4.7612576 -1.2322322 -1.0453801 8 0.12742646 0.0090172831 0.99180704 0.0001100492
-4.7651052 -1.217268 -1.0453801 8 0.12726626 0.0097256219 0.99182093 0.00011255132
-4.7665892 -1.2034773 -1.0449642 7 0.12706102 0.01040645 0.9918403 0.0001160321
-4.7642374 -1.1887419 -1.0437168 7 0.12704141 0.011129649 0.991835 0.00011548652
-4.7698474 -1.1742361 -1.0441326 8 0.12682433 0.011936188 0.99185342 0.00011602618
-4.7693057 -1.1599866 -1.043301 7 0.12670495 0.01285373 0.99185717 0.00011842333
-4.7784333 -1.1472005 -1.0445484 8 0.12647842 0.013521068 0.9918772 0.00011845027
-4.7797155 -1.1334004 -1.0441326 8 0.12636025 0.014255189 0.99188197 0.00011968359
-4.7769523 -1.1195449 -1.0428852 7 0.12624827 0.015269001 0.99188119 0.00012134507
-4.7880692 -1.1062946 -1.0445484 9 0.12600091 0.015838144 0.99190366 0.00012155237
-4.7837019 -1.0903429 -1.0428852 8 0.12594807 0.016858695 0.99189359 0.00012094451
-4.7903571 -1.0786759 -1.0437168 8 0.12575081 0.017409751 0.99190909 0.00012188623
-4.7899022 -1.0627733 -1.0428852 8 0.1255835 0.018439032 0.99191165 0.00012395342
-4.7850246 -1.0485545 -1.0412219 7 0.12560047 0.019022843 0.99189848 0.00012444993
-4.7995877 -1.0368307 -1.0437168 8 0.12530686 0.019636791 0.99192363 0.00012622827
-4.8007288 -1.0221788 -1.043301 8 0.12513129 0.020518685 0.99192804 0.00012926359
-4.803741 -1.0079299 -1.043301 8 0.12494495 0.021298505 0.99193507 0.00013266505
-4.8046212 -0.99411482 -1.0428852 9 0.12483053 0.02216078 0.99193054 0.00013435433
-4.8113837 -0.98063713 -1.0437168 8 0.12462462 0.02291316 0.99193943 0.00013398009
-4.8141036 -0.96719706 -1.0437168 8 0.12442416 0.023597335 0.99194849 0.00013526365
-4.8110285 -0.95260954 -1.0424694 7 0.12431256 0.024454072 0.99194169 0.00013105593
-4.8139977 -0.93749034 -1.0424694 8 0.1241791 0.02525322 0.99193835 0.00012827342
-4.8223605 -0.9251489 -1.0437168 8 0.12391454 0.026109522 0.99194932 0.00012793673
-4.8210807 -0.91095191 -1.0428852 7 0.12391258 0.026794132 0.99193132 0.00012471344
-4.8293753 -0.89856088 -1.0441326 8 0.12364294 0.027644046 0.99194169 0.00012461873
-4.8243227 -0.88281912 -1.0424694 7 0.12355441 0.028475113 0.99192917 0.00012150602
-4.8346229 -0.86988544 -1.0441326 8 0.12340232 0.029218301 0.99192649 0.00012022409
-4.8333287 -0.85485637 -1.043301 7 0.12323964 0.029888103 0.99192679 0.00011785261
-4.837625 -0.84169215 -1.0437168 8 0.12308513 0.030529886 0.99192637 0.00011897293
-4.8420296 -0.82766306 -1.0441326 8 0.1228401 0.031494919 0.99192655 0.0001134394
-4.8441796 -0.81498456 -1.0441326 8 0.1228323 0.032093342 0.99190843 0.00011142254
-4.8505764 -0.80039889 -1.0449642 8 0.12257748 0.032942321 0.99191207 0.00010987571
-4.8508611 -0.78653806 -1.0445484 8 0.12249397 0.033715311 0.99189639 0.00010600461
-4.8513765 -0.77098644 -1.0441326 9 0.12239574 0.034463368 0.99188286 9.9975427e-05
-4.8573766 -0.75803989 -1.0449642 8 0.12223185 0.035102088 0.99188066 9.8094606e-05
-4.8614082 -0.7447685 -1.0453801 8 0.12210701 0.035633624 0.99187708 9.5396012e-05
-4.8692727 -0.73206222 -1.0466275 8 0.12189122 0.036394551 0.99187601 9.3234004e-05
-4.8617458 -0.71618688 -1.0445484 7 0.12187175 0.03704223 0.99185437 9.2571056e-05
-4.8619132 -0.70147914 -1.0441326 7 0.12178262 0.037762862 0.99183816 9.1202499e-05
-4.8776526 -0.68811417 -1.0470433 8 0.121533 0.03846807 0.99184173 8.5860171e-05
-4.8754444 -0.67565632 -1.0462117 9 0.12144171 0.038933378 0.99183476 8.7051216e-05
-4.8775425 -0.66033721 -1.0462117 8 0.12131332 0.039739966 0.99181849 8.1167396e-05
-4.8753762 -0.6470505 -1.0453801 7 0.12126342 0.040208183 0.99180567 8.2151375e-05
-4.8869748 -0.63383991 -1.0474591 9 0.12110777 0.040729046 0.99180341 8.0476166e-05
-4.8830118 -0.6185993 -1.0462117 7 0.12100567 0.041415375 0.99178749 7.8691904e-05
-4.8888135 -0.60373628 -1.0470433 8 0.12086025 0.042068116 0.99177772 7.3292402e-05
-4.8923202 -0.59116966 -1.0474591 8 0.12071979 0.042570312 0.99177337 7.0664792e-05
-4.8921094 -0.57642204 -1.0470433 8 0.12066078 0.04310789 0.99175733 6.93818e-05
-4.8956437 -0.56298161 -1.0474591 7 0.12055403 0.043654587 0.99174643 6.4347056e-05
-4.8993325 -0.54781711 -1.047875 7 0.12046061 0.044313353 0.9917286 6.1461753e-05
-4.9026942 -0.53520185 -1.0482908 8 0.12038465 0.044820387 0.99171501 5.835246e-05
-4.9121332 -0.52062035 -1.0499542 8 0.12027203 0.045377005 0.99170333 5.3962511e-05
-4.9115338 -0.50755835 -1.0495384 8 0.1202356 0.045889199 0.99168426 5.4081727e-05
-4.9149642 -0.49317831 -1.0499542 8 0.12017954 0.046347953 0.99166965 4.9383489e-05
-4.9163227 -0.47945091 -1.0499542 7 0.12014025 0.046842922 0.99165124 4.6804224e-05
-4.9217 -0.46437079 -1.0507858 9 0.12009489 0.047347978 0.9916327 4.4874763e-05
-4.9210286 -0.45044747 -1.0503699 8 0.12001374 0.04772779 0.9916243 4.1318122e-05
-4.9262414 -0.43618932 -1.0512016 7 0.11996679 0.048116926 0.99161118 3.9830687e-05
-4.9332137 -0.42379293 -1.0524491 10 0.11994615 0.048479363 0.99159598 3.6719332e-05
-4.9286718 -0.40780967 -1.0512016 7 0.11990864 0.048881009 0.99158078 3.6587026e-05
-4.943511 -0.39427146 -1.0541123 8 0.11981966 0.049296148 0.99157107 2.9726727e-05
-4.9406919 -0.38016576 -1.0532807 8 0.11981617 0.049681008 0.99155229 2.7471597e-05
-4.9476504 -0.36593854 -1.0545281 8 0.11976749 0.05000633 0.99154174 2.4644067e-05
-4.9506049 -0.35225919 -1.054944 9 0.11977422 0.05031601 0.99152535 2.2068518e-05
-4.9535799 -0.33770168 -1.0553598 8 0.11974575 0.050717115 0.99150831 1.9124687e-05
-4.9583516 -0.32498762 -1.0561916 9 0.11972535 0.050839998 0.99150449 1.7214858e-05
-4.9632525 -0.30965346 -1.057023 8 0.11967931 0.051258821 0.99148852 1.3273402e-05
-4.9582396 -0.29544285 -1.0557756 9 0.11972685 0.051403806 0.99147528 1.3232627e-05
-4.9630003 -0.28095099 -1.0566074 9 0.11975453 0.051632464 0.99145997 9.848176e-06
-4.965673 -0.268062 -1.057023 9 0.11973481 0.051864769 0.99145031 9.2696864e-06
-4.9684443 -0.25255966 -1.057439 10 0.11970331 0.052250408 0.9914338 7.3062856e-06
-4.9730382 -0.23887272 -1.0582706 8 0.11972572 0.052419133 0.99142218 6.0923398e-06
-4.9756398 -0.2250725 -1.0586864 9 0.11973708 0.052583776 0.9914121 6.9711327e-06
-4.980195 -0.21047346 -1.0595181 8 0.11976518 0.052732743 0.99140084 8.2128518e-06
-4.9847069 -0.19584931 -1.0603497 10 0.11976837 0.052900571 0.99139142 9.8427117e-06
-4.9891124 -0.18294288 -1.0611813 8 0.11979633 0.053043336 0.99138045 7.9855936e-06
-4.9877076 -0.16720247 -1.0607655 10 0.11983993 0.053207859 0.99136645 7.7819859e-06
-4.9940214 -0.15345462 -1.062013 9 0.11988388 0.053326093 0.99135464 7.519327e-06
-4.998342 -0.13961701 -1.0628448 10 0.11989605 0.053497884 0.99134398 7.3399665e-06
-4.9967995 -0.12386485 -1.0624288 9 0.11991822 0.053593405 0.99133617 8.4784451e-06
-5.0010567 -0.10912359 -1.0632606 10 0.12000243 0.053681821 0.99132115 8.1987228e-06
-5.0032811 -0.096068837 -1.0636762 10 0.12004781 0.053775217 0.99131066 7.9692954e-06
-5.0133247 -0.081381865 -1.0657555 9 0.12011094 0.053807277 0.9913013 7.5763965e-06
-5.0076756 -0.06642855 -1.064508 9 0.12016785 0.053968038 0.99128562 9.5405503e-06
-5.0156841 -0.050775137 -1.0661713 10 0.12023783 0.054036845 0.9912734 8.9555278e-06
-5.013844 -0.037630063 -1.0657555 8 0.12024438 0.054133441 0.99126732 1.060592e-05
-5.0158896 -0.022762122 -1.0661713 9 0.12029966 0.05418621 0.99125767 8.6358723e-06
-5.019845 -0.0096375989 -1.0670029 10 0.12036508 0.054188091 0.99124962 9.4005936e-06
-5.0218062 0.0061341682 -1.0674187 9 0.12044511 0.054264087 0.99123579 9.0596895e-06
-5.0237226 0.021042611 -1.0678345 9 0.12050221 0.054310203 0.99122638 9.7134134e-06
-5.0236378 0.035948481 -1.0678345 9 0.1205702 0.054314237 0.99121785 1.0098218e-05
-5.0254741 0.049996778 -1.0682503 9 0.12062398 0.054331761 0.99121034 1.1426847e-05
-5.0272708 0.064055614 -1.0686662 9 0.12067983 0.0543673 0.99120158 1.0744089e-05
-5.034883 0.079093538 -1.0703294 9 0.12073763 0.054351248 0.99119538 1.2927612e-05
-5.0385704 0.092346638 -1.0711612 9 0.12081297 0.054368198 0.99118531 1.3842575e-05
-5.0304317 0.10800757 -1.0694978 10 0.12089656 0.054484122 0.99116874 1.1353687e-05
-5.0398898 0.12229238 -1.071577 9 0.12100093 0.054412205 0.99115998 1.1569509e-05
-5.04146 0.13729782 -1.0719928 10 0.12105645 0.054404143 0.99115366 8.846916e-06
-5.0430388 0.15055463 -1.0724087 10 0.12107819 0.054379877 0.99115229 9.8781693e-06
-5.046422 0.16740704 -1.0732403 10 0.12116441 0.054339595 0.991144 1.2984764e-05
-5.0498767 0.18075833 -1.0740719 9 0.12127392 0.054310206 0.9911322 1.3976768e-05
-5.0473971 0.19478321 -1.0736561 10 0.12132391 0.054273065 0.99112815 1.2372144e-05
-5.0506697 0.21080253 -1.0744877 10 0.12143989 0.05417829 0.99111909 1.1273614e-05
-5.0520158 0.2249932 -1.0749035 9 0.12151264 0.054085668 0.99111527 1.268919e-05
-5.0552759 0.23928432 -1.0757352 9 0.12155978 0.054003738 0.99111396 1.2996058e-05
-5.0604053 0.25457773 -1.0769826 10 0.12168829 0.053906891 0.99110341 1.0363759e-05
-5.0616283 0.26881215 -1.0773984 10 0.12177464 0.053867411 0.99109501 8.8225934e-06
-5.0627613 0.28393772 -1.0778142 9 0.12184478 0.053836089 0.99108809 9.7803058e-06
-5.0677557 0.29930428 -1.0790617 9 0.12187108 0.053890981 0.99108183 1.1067073e-05
-5.0648928 0.31421968 -1.0786459 10 0.12192405 0.053844608 0.99107784 1.0812298e-05
-5.0660048 0.32760388 -1.0790617 10 0.12202272 0.053780239 0.99106914 9.6761196e-06
-5.0669026 0.343649 -1.0794777 8 0.12208782 0.053727794 0.99106401 9.5463365e-06
-5.0717773 0.35821092 -1.0807251 10 0.12220009 0.053730723 0.99105006 8.7588423e-06
-5.0727086 0.37251621 -1.0811409 10 0.12226859 0.053714283 0.99104244 7.5857452e-06
-5.0735312 0.38771495 -1.0815567 11 0.12233359 0.053665824 0.99103707 6.7077845e-06
-5.0763292 0.40219074 -1.0823884 10 0.12238767 0.0535657 0.99103582 7.8455851e-06
-5.0751138 0.41724983 -1.0823884 10 0.12251451 0.053531878 0.99102199 6.6519074e-06
-5.0797009 0.43280467 -1.0836358 10 0.12263036 0.053350393 0.99101746 8.233872e-06
-5.0726266 0.44647396 -1.0823884 10 0.12273488 0.053348672 0.99100459 6.6645789e-06
-5.079072 0.46223104 -1.0840516 11 0.1228286 0.053195298 0.99100125 6.8459958e-06
-5.0776782 0.47729921 -1.0840516 9 0.12292924 0.053139489 0.99099171 7.0885271e-06
-5.0859756 0.4933075 -1.0861309 10 0.12307335 0.05287414 0.99098802 8.6381315e-06
-5.0846672 0.50662124 -1.0861309 8 0.1232339 0.052507419 0.9909876 1.0479459e-05
-5.0811038 0.52239156 -1.0857149 10 0.12340672 0.052061021 0.99098969 1.6187863e-05
-5.0796251 0.53657901 -1.0857149 9 0.1237293 0.051135283 0.99099761 3.9853487e-05
-5.0819006 0.55207109 -1.0865467 9 0.12415667 0.049749069 0.99101466 8.6698928e-05
-5.0841284 0.5675801 -1.0873781 10 0.12424968 0.049359266 0.99102259 9.1580878e-05
-5.0883546 0.58244324 -1.0886257 10 0.124597 0.048190631 0.99103642 0.00012016414
-5.0867081 0.59665066 -1.0886257 8 0.12471044 0.047855143 0.99103838 0.00012227945
-5.0886936 0.61309636 -1.0894574 10 0.12521508 0.046454675 0.99104142 0.00025499176
-5.0910635 0.62600529 -1.090289 10 0.12530366 0.046279088 0.99103838 0.00025563553
-5.0929532 0.64248729 -1.0911206 10 0.12598272 0.044498198 0.99103397 0.00039381775
-5.0929651 0.65784526 -1.0915365 10 0.12650631 0.043075591 0.9910301 0.00052340655
-5.0912256 0.67117554 -1.0915365 9 0.12662834 0.042911712 0.99102163 0.00052866637
-5.0949073 0.68795353 -1.0927839 10 0.12657663 0.042872023 0.99102992 0.00053285278
-5.0987802 0.70297927 -1.0940313 10 0.12651503 0.042963181 0.99103385 0.00053916237
-5.0987353 0.71748793 -1.0944473 11 0.1265967 0.042785451 0.99103111 0.00054577464
-5.1004562 0.73316872 -1.0952789 12 0.1264479 0.043213379 0.99103153 0.00056818337
-5.098258 0.74829912 -1.0952789 11 0.12649515 0.04292405 0.99103808 0.00057668315
-5.1001515 0.76222259 -1.0961106 10 0.12636751 0.042965692 0.99105263 0.00059207319
-5.1015997 0.77883083 -1.0969422 12 0.12624845 0.043130536 0.99106061 0.00060127419
-5.1013379 0.79337519 -1.097358 11 0.12643132 0.043094963 0.99103886 0.00060783856
-5.1048994 0.80853611 -1.0986055 12 0.12629394 0.042821635 0.99106818 0.00063357537
-5.1063404 0.82430291 -1.0994371 11 0.12632655 0.043248665 0.99104548 0.00064532575
-5.1038718 0.83945036 -1.0994371 11 0.12629151 0.043584261 0.99103522 0.00066526292
-5.107296 0.8546688 -1.1006845 9 0.12631489 0.044500872 0.99099153 0.0007083274
-5.1047378 0.86981773 -1.1006845 10 0.12638111 0.045925863 0.99091804 0.00074843521
-5.1098447 0.88629752 -1.1023479 10 0.12635334 0.046570286 0.99089152 0.00077391113
-5.1091194 0.90179408 -1.1027638 10 0.12631361 0.047675721 0.99084401 0.00079984643
-5.1085067 0.91640359 -1.1031796 11 0.1259995 0.04882801 0.99082792 0.00082886836
-5.1115389 0.93261051 -1.104427 10 0.12602444 0.049642891 0.99078423 0.00084866222
-5.1145196 0.94884348 -1.1056745 10 0.12582037 0.050835043 0.99074978 0.0008921377
-5.1158628 0.96295285 -1.1065061 12 0.12578364 0.051677108 0.99071085 0.00091835216
-5.1129832 0.97812921 -1.1065061 11 0.12554166 0.052785747 0.99068308 0.00094393326
-5.1196599 0.99516088 -1.1085852 11 0.12546593 0.053481162 0.99065536 0.00096702634
-5.1128464 1.0095892 -1.1077535 11 0.12518962 0.054531679 0.99063307 0.00098559272
-5.1157618 1.0250164 -1.109001 12 0.12479305 0.055940852 0.99060458 0.0010230022
-5.1167135 1.0400767 -1.1098328 12 0.12486205 0.056702655 0.99055248 0.0010472022
-5.1176214 1.0551517 -1.1106644 12 0.12447876 0.057638414 0.99054676 0.0010651997
-5.1161957 1.0716252 -1.1110802 11 0.12399624 0.058581479 0.99055189 0.0010947863
-5.1189251 1.0871266 -1.1123277 12 0.1240642 0.059092328 0.99051309 0.0011185551
-5.119308 1.1040277 -1.1131593 14 0.12405493 0.060182758 0.99044853 0.0011559827
-5.1280632 1.1190362 -1.1156542 15 0.12381893 0.061786879 0.99037933 0.0012173136
-5.1187925 1.1338707 -1.1144067 14 0.12378011 0.062995389 0.99030805 0.001232447
-5.1171141 1.1503757 -1.1148226 17 0.12364833 0.064278528 0.99024206 0.0012700852
-5.11238 1.1624423 -1.1144067 18 0.12347032 0.065269768 0.99019945 0.001288556
-5.1087027 1.1784966 -1.1144067 21 0.12315699 0.066539876 0.99015397 0.0013230252
-5.1128035 1.1954311 -1.11607 25 0.12293386 0.068107747 0.99007505 0.0013542785
-5.1075411 1.2092537 -1.1156542 25 0.122116 0.06857536 0.99014395 0.0013960963
-5.1155586 1.2262485 -1.1181492 27 0.12192334 0.070279412 0.99004823 0.0014393931
-5.1154838 1.2432365 -1.1189809 23 0.12192044 0.071552143 0.98995745 0.0014594065
-5.1217098 1.2589598 -1.1210599 18 0.12164377 0.072921239 0.98989153 0.0014783558
-5.1293421 1.2769866 -1.1235549 14 0.12125241 0.074944243 0.98978841 0.0015067107
-5.1236334 1.2917221 -1.1231391 13 0.12139719 0.075928383 0.98969573 0.0015111705
-5.1240253 1.306098 -1.1239706 13 0.12137233 0.076803103 0.9896313 0.001509942
-5.1236858 1.3231665 -1.1248024 14 0.12137628 0.078224406 0.98951942 0.0015177017
-5.1235223 1.3393528 -1.125634 18 0.12144447 0.079094037 0.98944199 0.001560459
-5.1294551 1.3552606 -1.1277131 14 0.12163537 0.079877071 0.98935556 0.0015955606
-5.1273012 1.3709798 -1.1281289 14 0.12180038 0.081093125 0.98923641 0.0016160273
-5.1229692 1.3870797 -1.1281289 16 0.12159821 0.082245588 0.98916608 0.0016046691
-5.1136594 1.3989387 -1.1268815 25 0.12166067 0.08296302 0.98909843 0.0015763105
-5.1191607 1.4158196 -1.1289606 23 0.12202467 0.083619364 0.98899835 0.0015813486
-5.114687 1.4318966 -1.1289606 18 0.12227067 0.084343217 0.98890656 0.0015975224
-5.1146865 1.4463458 -1.1297923 21 0.12230278 0.085203074 0.9888289 0.0015851662
-5.1157589 1.4640217 -1.1310396 37 0.12237114 0.085904464 0.98875976 0.0016071781
-5.1113925 1.4791944 -1.1310396 48 0.12212897 0.086336561 0.98875201 0.001581843
-5.0943589 1.488729 -1.1281289 44 0.12186558 0.086665913 0.9887557 0.0015541102
-5.0821524 1.5025076 -1.1264657 26 0.12222254 0.087493718 0.9886387 0.0015635437
-5.064816 1.5127739 -1.1235549 20 0.12209217 0.087773003 0.98863006 0.0015624062
-5.0399699 1.5206958 -1.1189809 21 0.12211975 0.088162325 0.98859203 0.0015815235
-5.0295539 1.5348103 -1.1177334 29 0.12244901 0.088831998 0.98849136 0.001579114
-5.0121622 1.5448141 -1.1148226 23 0.12281834 0.089096114 0.9884218 0.0015729571
-4.9779425 1.549502 -1.1081694 21 0.12237236 0.089460686 0.98844415 0.0015789286
-4.9733229 1.5642654 -1.1081694 17 0.12278456 0.090412349 0.98830646 0.0015886615
-4.9835749 1.5837549 -1.111496 17 0.12276954 0.090689652 0.98828292 0.0015881598
