# .PCD v0.7 - Point Cloud Data file format
VERSION 0.7
FIELDS x y z intensity normal_x normal_y normal_z curvature
SIZE 4 4 4 4 4 4 4 4
TYPE F F F F F F F F
COUNT 1 1 1 1 1 1 1 1
WIDTH 441
HEIGHT 1
VIEWPOINT 0 0 0 1 0 0 0
POINTS 441
DATA ascii
-2.9897325 -3.6410558 -1.2333345 18 -0.012063499 0.031896513 0.99941844 0.046087578
-3.0060487 -3.6401515 -1.235867 21 -0.0099163326 0.031175274 0.99946475 0.044907112
-3.0013926 -3.6113467 -1.2292825 28 -0.01095943 0.03735121 0.99924213 0.044307809
-3.0151882 -3.6074049 -1.2308021 24 -0.011079251 0.038702391 0.99918938 0.043664411
-3.0352104 -3.6108191 -1.2348541 16 0.0083102193 0.030112704 0.99951196 0.035960946
-3.0602701 -3.6200602 -1.2409321 25 0.016283873 0.025632543 0.99953884 0.031421926
-3.0791514 -3.6192694 -1.2439711 34 0.033661216 0.017631823 0.99927777 0.024534151
-3.0942805 -3.6139877 -1.2454906 34 0.034936693 0.018371806 0.99922067 0.023188582
-3.1207683 -3.6269493 -1.2525816 31 0.045945555 0.012254793 0.99886876 0.0196236
-3.130882 -3.6156635 -1.2520752 38 0.05363404 0.011427118 0.99849528 0.017425725
-3.163203 -3.633723 -1.2611922 38 0.056931183 -0.00098901556 0.99837768 0.014666906
-3.1616876 -3.588757 -1.2520752 63 0.062938422 0.0099132052 0.9979682 0.014122466
-3.1816187 -3.6330545 -1.2642312 38 0.070121042 -0.0023573667 0.99753577 0.011969768
-3.2153051 -3.6265812 -1.2687898 63 0.087999828 -0.0054091359 0.99610585 0.0091404682
-3.2357206 -3.6291409 -1.2728417 63 0.1014827 -0.0096343644 0.99479067 0.0064519048
-3.245841 -3.6200922 -1.2728417 63 0.10484407 -0.0097274138 0.99444103 0.0059745796
-3.2565687 -3.6104448 -1.2728417 66 0.1090735 -0.010571154 0.99397749 0.0050498811
-3.2725074 -3.6090736 -1.2753743 60 0.11276761 -0.011367591 0.99355638 0.0046578296
-3.2786131 -3.5930581 -1.2733483 63 0.11593872 -0.012061797 0.9931832 0.0041125235
-3.287951 -3.5818889 -1.2728417 66 0.11826959 -0.012607603 0.99290144 0.0036204034
-3.2973175 -3.5732684 -1.2728417 60 0.12242459 -0.013442256 0.99238676 0.0029479538
-3.3099155 -3.5668828 -1.2738547 60 0.12547997 -0.014106281 0.99199587 0.0025170553
-3.3111596 -3.5445764 -1.2698028 56 0.12579654 -0.013457471 0.99196476 0.0024798855
-3.3296988 -3.545769 -1.2733483 60 0.12828259 -0.014117208 0.99163717 0.0021896774
-3.3388751 -3.5344679 -1.2728417 60 0.13179176 -0.014770346 0.99116737 0.0017432817
-3.3466821 -3.5217407 -1.2718288 40 0.13195895 -0.014314366 0.99115181 0.001718172
-3.3518813 -3.5087693 -1.2703092 24 0.13266492 -0.014007547 0.99106193 0.0016743401
-3.3609369 -3.4974136 -1.2698028 28 0.13398066 -0.013702385 0.99088919 0.0015303417
-3.3686099 -3.4846439 -1.2687898 28 0.13382474 -0.013186464 0.99091727 0.0015195955
-3.3715844 -3.4682863 -1.2662572 23 0.13358341 -0.012722252 0.99095589 0.0014981384
-3.3838167 -3.4590614 -1.2667638 18 0.13442788 -0.012398079 0.9908458 0.0014740953
-3.3866785 -3.4427013 -1.2642312 17 0.13401766 -0.011771616 0.99090898 0.0014615034
-3.3935583 -3.4304798 -1.2632183 16 0.13407741 -0.011149966 0.99090815 0.0014480124
-3.401588 -3.4170597 -1.2622052 15 0.13388197 -0.0095387092 0.99095136 0.0014190573
-3.4042733 -3.4007101 -1.2596728 25 0.13404006 -0.0088434583 0.99093646 0.0013966367
-3.4055207 -3.3830085 -1.2566338 34 0.13400088 -0.0081351213 0.99094784 0.0013580112
-3.4141667 -3.3715296 -1.2561271 36 0.13397701 -0.0081501957 0.99095094 0.0013357645
-3.4255352 -3.362741 -1.2566338 34 0.13398138 -0.0076953126 0.99095398 0.0013098946
-3.4274054 -3.347003 -1.2541012 33 0.13394231 -0.0065579149 0.99096739 0.0012991631
-3.436516 -3.3348706 -1.2535946 33 0.13467056 -0.0062574432 0.99087065 0.0012173505
-3.4410584 -3.3218315 -1.2520752 33 0.13467695 -0.0062666349 0.9908697 0.0011976865
-3.4486847 -3.3083253 -1.2510622 31 0.1346841 -0.0058673043 0.99087119 0.0011781361
-3.4612863 -3.3007491 -1.2520752 17 0.13458075 -0.0054107211 0.99088788 0.0011705155
-3.4643004 -3.2863505 -1.2500491 16 0.13448212 -0.0047111996 0.99090481 0.0011414759
-3.4760163 -3.2767768 -1.2505556 19 0.13395639 -0.0037512984 0.99098015 0.0011252918
-3.4775262 -3.2610488 -1.2480232 15 0.13366878 -0.0030111398 0.99102145 0.0011034794
-3.4857705 -3.2493975 -1.2475166 14 0.1333219 -0.0025119928 0.99106961 0.0010851863
-3.4939773 -3.2377257 -1.2470101 13 0.13303918 -0.0020920006 0.9911086 0.0010605786
-3.4992993 -3.2234116 -1.2454906 13 0.13291013 -0.0017061202 0.9911266 0.0010368777
-3.5097141 -3.2149339 -1.2459971 13 0.1326607 -0.0012812925 0.99116069 0.0010219868
-3.509223 -3.1953886 -1.2424515 13 0.13266845 -0.00043984989 0.99116039 0.0009988083
-3.519567 -3.1868746 -1.2429582 12 0.13252147 0.00097567285 0.9911797 0.00096394081
-3.5241394 -3.1731496 -1.2414386 12 0.13243707 0.0018359974 0.99118972 0.00093297806
-3.5306556 -3.1600986 -1.2404256 12 0.1319987 0.0034148961 0.99124402 0.00090477394
-3.5362282 -3.1451342 -1.238906 12 0.1319637 0.0034704728 0.99124843 0.00088816031
-3.5415518 -3.133301 -1.237893 12 0.1317315 0.0037965747 0.99127817 0.00086821185
-3.5479279 -3.1202238 -1.2368801 12 0.1315871 0.0038712791 0.99129701 0.00085244991
-3.553714 -3.1077561 -1.235867 13 0.13129649 0.0046239113 0.99133235 0.00082634331
-3.5576177 -3.091501 -1.2338411 12 0.13140488 0.0040298812 0.99132061 0.00080943166
-3.5662372 -3.0815539 -1.2338411 13 0.13136365 0.0041523692 0.99132556 0.00079261919
-3.5738974 -3.0696986 -1.2333345 12 0.13135482 0.0045301486 0.99132508 0.00076110096
-3.576571 -3.0546799 -1.2313086 13 0.13143905 0.0044812537 0.99131423 0.00073431019
-3.5850875 -3.0446801 -1.2313086 12 0.13164151 0.0042933379 0.99128813 0.00072107976
-3.5887194 -3.0284114 -1.2292825 12 0.1319405 0.0038238785 0.99125028 0.00070832222
-3.5936711 -3.0165186 -1.2282696 12 0.13209315 0.0034165259 0.99123144 0.00069901667
-3.6016448 -3.0039735 -1.2277629 12 0.13216391 0.0032379983 0.99122262 0.00068842014
-3.6070411 -2.9914336 -1.22675 12 0.13220116 0.0029666738 0.99121851 0.00067701662
-3.6114221 -2.9770267 -1.2252305 11 0.13222916 0.0025878679 0.99121583 0.00066545396
-3.6192031 -2.9675627 -1.2252305 13 0.13221492 0.0022408392 0.99121851 0.00066396053
-3.6240087 -2.9525106 -1.223711 12 0.13229303 0.0018990382 0.99120885 0.00066013419
-3.6262257 -2.9375083 -1.2216851 12 0.13242991 0.0015465526 0.99119115 0.00064654095
-3.6349256 -2.9267359 -1.2216851 12 0.13258006 0.0013702796 0.9911713 0.00063927076
-3.6410651 -2.9159997 -1.2211784 12 0.13261481 0.00069050537 0.99116737 0.00062450155
-3.6421316 -2.8991594 -1.2186459 11 0.13296035 0.0006394267 0.99112117 0.00062052073
-3.6492007 -2.8871398 -1.2181395 14 0.1332258 -0.00090363371 0.99108529 0.00054408755
-3.6577508 -2.8762996 -1.2181395 13 0.13322523 -0.0018700397 0.99108404 0.0005276007
-3.6627195 -2.8636906 -1.2171265 13 0.13321866 -0.0029616824 0.99108231 0.00048155346
-3.670171 -2.8509822 -1.21662 12 0.1335707 -0.003896429 0.99103165 0.00045324414
-3.6719925 -2.8359919 -1.2145939 12 0.13388453 -0.0049607861 0.9909845 0.00041549915
-3.6783633 -2.8245482 -1.2140874 10 0.13394335 -0.0058806762 0.99097157 0.00038511929
-3.6805751 -2.8089273 -1.2120614 9 0.13426557 -0.0071610198 0.99091953 0.00032209361
-3.6899464 -2.7998073 -1.2125679 9 0.13469641 -0.0081031686 0.99085379 0.00028419925
-3.695148 -2.7865167 -1.211555 9 0.13514411 -0.0090640942 0.99078453 0.00023216043
-3.6972063 -2.7708991 -1.2095288 8 0.13560469 -0.010765476 0.99070448 0.00015189695
-3.706481 -2.7617204 -1.2100354 11 0.13571063 -0.0111734 0.99068552 0.00013903277
-3.7090352 -2.7485514 -1.2085159 9 0.13628225 -0.013204026 0.99058205 5.4427153e-05
-3.7223263 -2.7403266 -1.2100354 10 0.13642743 -0.014192185 0.99054837 2.9987264e-05
-3.7174737 -2.7207792 -1.2059834 9 0.136572 -0.015083377 0.99051535 1.1748204e-05
-3.7239656 -2.7085989 -1.2054769 9 0.13666689 -0.015203037 0.99050039 1.2173539e-05
-3.7288492 -2.6952717 -1.2044638 9 0.13667782 -0.015438638 0.99049526 1.4840659e-05
-3.7379327 -2.6859772 -1.2049704 10 0.13673843 -0.015445133 0.9904868 1.6844901e-05
-3.7438438 -2.6744041 -1.2044638 10 0.13673516 -0.015563835 0.99048537 1.6524138e-05
-3.7407188 -2.6554444 -1.2009183 9 0.13670151 -0.015628286 0.99048901 1.5320806e-05
-3.7454193 -2.642103 -1.1999054 9 0.13672172 -0.015668286 0.99048561 1.4285677e-05
-3.7595792 -2.6354203 -1.2019314 10 0.13675609 -0.015679503 0.99048072 1.3414581e-05
-3.7621617 -2.6215937 -1.2004119 10 0.13675991 -0.015682729 0.99048001 1.4102588e-05
-3.7694681 -2.6110775 -1.2004119 10 0.1367539 -0.015673215 0.99048108 1.33113e-05
-3.7744644 -2.5970287 -1.1993988 10 0.13680103 -0.01568516 0.99047434 1.3040553e-05
-3.7753134 -2.5821099 -1.1973728 9 0.1368717 -0.015631996 0.9904654 9.7785469e-06
-3.7761097 -2.5672059 -1.1953468 9 0.13694578 -0.015617291 0.99045539 9.2076425e-06
-3.7841561 -2.55533 -1.1953468 9 0.13698746 -0.015630417 0.99044949 1.0487257e-05
-3.7860143 -2.5421782 -1.1938273 9 0.13703257 -0.015662484 0.99044269 1.0616657e-05
-3.7951491 -2.5320079 -1.1943338 10 0.13708732 -0.015676238 0.99043494 9.0667563e-06
-3.7966344 -2.5157969 -1.1923078 9 0.13715526 -0.015664063 0.99042571 7.6905199e-06
-3.8011546 -2.5054481 -1.1918013 9 0.1371769 -0.015630895 0.9904232 7.9289903e-06
-3.8090072 -2.4934943 -1.1918013 9 0.13721642 -0.01566308 0.9904173 8.2135912e-06
-3.8115225 -2.4790175 -1.1902819 8 0.13721161 -0.015661143 0.9904179 7.8697003e-06
-3.816375 -2.4679797 -1.1897753 8 0.13723108 -0.015707964 0.99041456 1.0148576e-05
-3.8236811 -2.4566453 -1.1897753 10 0.13724937 -0.015753342 0.99041128 9.2968357e-06
-3.8232243 -2.4394178 -1.1872427 9 0.13727802 -0.015789874 0.99040669 7.1151171e-06
-3.8263304 -2.427326 -1.1862297 9 0.13729818 -0.015806535 0.99040365 7.3746073e-06
-3.8335149 -2.4159632 -1.1862297 9 0.13731001 -0.0158474 0.99040133 7.4297418e-06
-3.8361661 -2.4008284 -1.1847103 9 0.13733093 -0.015877618 0.99039799 7.5881871e-06
-3.8387358 -2.3894036 -1.1836972 9 0.13731356 -0.015905051 0.9903999 9.0817657e-06
-3.8445778 -2.3763134 -1.1831908 9 0.13730268 -0.015908869 0.99040139 1.0694042e-05
-3.8499622 -2.3638844 -1.1826842 9 0.13731432 -0.015950084 0.99039912 1.0929386e-05
-3.8528349 -2.3517818 -1.1816713 9 0.13731545 -0.015968213 0.99039871 1.1962066e-05
-3.8568954 -2.3376591 -1.1806582 9 0.1373322 -0.015985178 0.99039602 1.1708381e-05
-3.8654714 -2.3272035 -1.1811647 10 0.13731389 -0.015976921 0.99039871 1.4678159e-05
-3.8732116 -2.3180695 -1.1816713 10 0.13730384 -0.015978619 0.99040008 1.5870855e-05
-3.8680291 -2.3003216 -1.1781257 9 0.1373194 -0.015953578 0.99039835 1.198779e-05
-3.8735707 -2.2871742 -1.1776192 9 0.13731152 -0.015935708 0.99039972 1.1607875e-05
-3.8749356 -2.2734118 -1.1760997 9 0.13730717 -0.015918881 0.99040061 1.238912e-05
-3.8749774 -2.258008 -1.1740737 9 0.13730875 -0.015916545 0.99040043 1.0507467e-05
-3.8816602 -2.2465005 -1.1740737 9 0.13730004 -0.015907891 0.99040174 9.4644429e-06
-3.8841736 -2.2344019 -1.1730608 9 0.13730223 -0.015902972 0.99040151 1.0510616e-05
-3.8941462 -2.2247868 -1.1740737 8 0.13729662 -0.015927752 0.99040192 9.6585245e-06
-3.8956816 -2.2103581 -1.1725541 8 0.13730934 -0.015919875 0.99040025 7.5993703e-06
-3.8950975 -2.1956701 -1.1705282 9 0.13732705 -0.015896855 0.99039817 5.7427951e-06
-3.9053524 -2.1853127 -1.1715412 10 0.13729654 -0.015904091 0.99040228 7.1744039e-06
-3.9063666 -2.1715779 -1.1700218 9 0.13730873 -0.015892284 0.99040079 6.4413221e-06
-3.9090283 -2.1587899 -1.1690086 9 0.13730031 -0.015846035 0.9904027 4.7194044e-06
-3.9140944 -2.1455696 -1.1685022 8 0.13729279 -0.015809994 0.99040437 6.292059e-06
-3.9196982 -2.1353147 -1.1685022 9 0.13727774 -0.015784424 0.99040681 5.0653493e-06
-3.9243143 -2.1227543 -1.1679956 9 0.13722973 -0.015754431 0.99041396 7.7201876e-06
-3.9340048 -2.1129322 -1.1690086 10 0.13719308 -0.015743582 0.99041921 6.4532296e-06
-3.9279406 -2.0955629 -1.1654632 9 0.13717681 -0.015681643 0.99042243 6.8580985e-06
-3.9320681 -2.0836797 -1.1649567 9 0.13712701 -0.01565199 0.99042982 8.2373126e-06
-3.9368818 -2.0704167 -1.16445 9 0.13710833 -0.015630826 0.99043268 6.9954253e-06
-3.9405739 -2.0592062 -1.1639436 9 0.13709895 -0.015580822 0.99043483 5.8065002e-06
-3.9432313 -2.0457232 -1.1629306 8 0.13707896 -0.015518791 0.99043852 4.2478982e-06
-3.9475632 -2.0331292 -1.1624241 9 0.13705389 -0.01544095 0.99044323 2.7567735e-06
-3.9515033 -2.0212162 -1.1619177 9 0.13703966 -0.015400121 0.99044579 2.22841e-06
-3.9540329 -2.007731 -1.1609046 8 0.13699527 -0.015336942 0.99045295 2.2056122e-06
-3.9599724 -1.9959899 -1.1609046 9 0.13696826 -0.015287603 0.99045748 1.4395465e-06
-3.9603405 -1.9823254 -1.1593851 8 0.13692923 -0.015225365 0.99046379 2.8416612e-06
-3.962739 -1.9688451 -1.1583722 9 0.13693106 -0.015137675 0.99046487 3.9934821e-06
-3.9650929 -1.9553671 -1.1573591 9 0.13688411 -0.015053785 0.99047267 7.0841352e-06
-3.9684608 -1.9441295 -1.1568526 9 0.13690838 -0.01495524 0.99047089 8.4488393e-06
-3.9721341 -1.9321929 -1.1563461 9 0.13686337 -0.014882533 0.9904781 8.6345617e-06
-3.9746997 -1.9180238 -1.1553332 8 0.13685548 -0.014709426 0.99048185 6.6072744e-06
-3.9835298 -1.9085883 -1.1563461 8 0.13680826 -0.014659665 0.99048907 5.9208937e-06
-3.9821861 -1.8934371 -1.15432 8 0.13678209 -0.014472036 0.99049544 9.3216249e-06
-3.9877861 -1.8816141 -1.15432 9 0.13677268 -0.0143752 0.99049813 9.8113451e-06
-3.9825127 -1.8655462 -1.151281 9 0.13677256 -0.014191871 0.99050081 9.3848203e-06
-3.9912155 -1.8560491 -1.152294 8 0.13670619 -0.014088603 0.99051142 9.0919175e-06
-3.9931915 -1.8425773 -1.151281 8 0.13669573 -0.0139262 0.99051517 9.0735339e-06
-3.996882 -1.8299154 -1.1507746 8 0.13665493 -0.013771082 0.99052298 1.0226656e-05
-3.9987705 -1.8164489 -1.1497617 9 0.13664047 -0.013638837 0.9905268 1.0178484e-05
-4.0038276 -1.805275 -1.1497617 9 0.13656074 -0.013491527 0.99053979 1.2012658e-05
-4.005321 -1.792506 -1.1487485 9 0.13652447 -0.013326532 0.99054712 1.3508375e-05
-4.0103111 -1.7813137 -1.1487485 9 0.13647252 -0.013116945 0.99055701 1.2889702e-05
-4.0141168 -1.7679272 -1.1482421 9 0.13638967 -0.012918675 0.99057102 1.3556804e-05
-4.0172653 -1.7559355 -1.1477355 9 0.13635328 -0.012735058 0.99057847 1.7165343e-05
-4.0209861 -1.7425367 -1.1472291 9 0.136283 -0.012528458 0.99059069 1.9779602e-05
-4.0237575 -1.7312388 -1.1467226 8 0.13621075 -0.012340427 0.99060303 2.2413151e-05
-4.0306559 -1.7200516 -1.1472291 9 0.13613307 -0.012149986 0.99061608 2.1318219e-05
-4.0271301 -1.7036122 -1.1446965 8 0.13610937 -0.011902155 0.99062228 2.0679539e-05
-4.0366316 -1.696016 -1.146216 9 0.13599752 -0.011702763 0.99064004 2.0349949e-05
-4.036582 -1.6810933 -1.1446965 9 0.1359829 -0.011460366 0.99064493 2.5078463e-05
-4.0361872 -1.6668944 -1.143177 9 0.13588612 -0.011111919 0.99066216 2.7097907e-05
-4.045908 -1.6585231 -1.1446965 8 0.13579077 -0.010934605 0.99067724 2.5111485e-05
-4.0436411 -1.643598 -1.1426705 8 0.13570122 -0.010574468 0.99069339 2.3578381e-05
-4.0487852 -1.6308852 -1.1426705 8 0.13557754 -0.010221464 0.99071401 2.7978904e-05
-4.0476508 -1.6181259 -1.141151 8 0.13548952 -0.0098985434 0.99072933 3.0203631e-05
-4.0506353 -1.6053972 -1.1406446 9 0.13538149 -0.0095977923 0.99074697 3.1385793e-05
-4.0535812 -1.592663 -1.140138 8 0.13527419 -0.0092848865 0.99076468 3.3159471e-05
-4.0577364 -1.5820459 -1.140138 8 0.13519576 -0.0090534175 0.99077755 3.5565914e-05
-4.0606074 -1.5693016 -1.1396315 8 0.13509165 -0.0086582145 0.99079531 3.7330603e-05
-4.0637107 -1.5558451 -1.139125 8 0.13496828 -0.0083003277 0.99081516 3.9075039e-05
-4.0695786 -1.5458877 -1.1396315 8 0.13488854 -0.0079924706 0.99082857 3.9138638e-05
-4.0684485 -1.5324713 -1.1381121 8 0.13476777 -0.0076129492 0.990848 4.0797826e-05
-4.0735083 -1.5189712 -1.1381121 8 0.13463925 -0.0072623724 0.99086803 3.9406659e-05
-4.0738411 -1.5069596 -1.137099 8 0.13452357 -0.0069192695 0.99088621 3.8681083e-05
-4.0762172 -1.4949111 -1.1365925 8 0.13444136 -0.0064966194 0.99090022 3.8809158e-05
-4.0790744 -1.481438 -1.136086 8 0.13428842 -0.0060026157 0.99092412 4.1494884e-05
-4.0847597 -1.4714096 -1.1365925 8 0.13419019 -0.0057543078 0.9909389 4.4964068e-05
-4.0857167 -1.4572692 -1.1355795 9 0.13402982 -0.0052259564 0.99096352 4.8604335e-05
-4.0881982 -1.4444966 -1.1350731 9 0.13392282 -0.0048103007 0.99098003 4.8160557e-05
-4.0901403 -1.4331475 -1.1345664 8 0.13378733 -0.0043674521 0.99100041 5.1196195e-05
-4.0907187 -1.4197376 -1.1335535 8 0.13367309 -0.003932497 0.99101764 5.0652259e-05
-4.0930834 -1.4069647 -1.1330469 8 0.13352077 -0.0034664439 0.99103999 5.5078388e-05
-4.0969963 -1.3955289 -1.1330469 8 0.13338113 -0.0030429582 0.99106014 5.5404787e-05
-4.0995269 -1.3820337 -1.1325405 8 0.13326652 -0.0025403982 0.99107701 5.4443004e-05
-4.1052055 -1.3711929 -1.1330469 8 0.1331055 -0.0021278905 0.9910996 5.3970722e-05
-4.1035085 -1.3579 -1.1315275 8 0.13302825 -0.0015962885 0.99111098 5.5161978e-05
-4.1072841 -1.3464363 -1.1315275 8 0.13289587 -0.001101348 0.99112946 5.4270713e-05
-4.1094203 -1.3336471 -1.1310209 8 0.13275795 -0.00061159435 0.99114829 5.58994e-05
-4.1131287 -1.3221661 -1.1310209 8 0.13266857 -9.2517999e-05 0.99116045 5.8551435e-05
-4.1172624 -1.3092366 -1.1310209 8 0.13254188 0.00040399822 0.99117738 6.2098727e-05
-4.1169848 -1.2972908 -1.130008 9 0.13240267 0.00086804992 0.99119568 6.4366439e-05
-4.122663 -1.2856457 -1.1305145 8 0.1324113 0.0014046311 0.99119389 6.3585379e-05
-4.1227617 -1.2722675 -1.1295015 9 0.13217221 0.0020447569 0.99122465 6.6882771e-05
-4.1191168 -1.257769 -1.1274754 8 0.13206752 0.0024985441 0.99123758 6.8476555e-05
-4.1207614 -1.2457013 -1.126969 8 0.13193537 0.0030218225 0.99125367 7.3297029e-05
-4.1300001 -1.2351331 -1.1284884 9 0.13196091 0.0035956488 0.99124837 7.6781376e-05
-4.1239438 -1.2215675 -1.1259559 9 0.13164729 0.0041239415 0.99128801 7.9035526e-05
-4.1351881 -1.2107813 -1.1279819 8 0.13182065 0.0047574802 0.99126214 8.3647668e-05
-4.1331873 -1.1968919 -1.1264625 9 0.13142692 0.0053416057 0.99131143 8.2292645e-05
-4.1423001 -1.186222 -1.1279819 9 0.13172838 0.0058970074 0.99126828 8.8486158e-05
-4.1379461 -1.1732609 -1.1259559 9 0.13133846 0.0063826675 0.99131709 8.9025001e-05
-4.1432719 -1.1615013 -1.1264625 9 0.13140039 0.0069916123 0.9913047 8.9810637e-05
-4.1446347 -1.1494093 -1.1259559 8 0.13124199 0.0075699398 0.99132144 9.7142045e-05
-4.1424289 -1.135572 -1.1244364 8 0.13086137 0.0082064867 0.99136668 9.6532931e-05
-4.1457796 -1.1232768 -1.1244364 8 0.13074024 0.0087427841 0.99137813 0.00010120451
-4.1509643 -1.1114715 -1.124943 8 0.13077654 0.0094803572 0.99136657 0.00010284944
-4.1465702 -1.0978943 -1.1229168 8 0.13038108 0.010048877 0.99141306 0.00010474996
-4.1516814 -1.0860758 -1.1234235 9 0.13043158 0.010736281 0.99139917 0.00010421451
-4.148891 -1.0737493 -1.1219039 8 0.12997817 0.011333089 0.99145204 0.00010884643
-4.1503692 -1.0602309 -1.1213974 8 0.12983665 0.011978447 0.99146301 0.00011319092
-4.1589417 -1.0500573 -1.1229168 8 0.13006628 0.012749157 0.99142337 0.00011100742
-4.1543489 -1.0365664 -1.1208909 8 0.12957928 0.013225149 0.99148083 0.00011173369
-4.1538272 -1.0225849 -1.1198779 9 0.12951215 0.013941424 0.99147981 0.00011381711
-4.1623063 -1.0123527 -1.1213974 8 0.12950599 0.014543635 0.99147201 0.00011415739
-4.1615291 -0.99909484 -1.1203845 8 0.12918968 0.015173567 0.99150378 0.00011881562
-4.1643033 -0.98746943 -1.1203845 8 0.12905352 0.015801834 0.9915117 0.00011867004
-4.1706414 -0.97744757 -1.1213974 8 0.12916133 0.016393341 0.9914881 0.00011884525
-4.1718063 -0.96390563 -1.1208909 8 0.12882362 0.017247615 0.99151748 0.00012437413
-4.1727614 -0.95109212 -1.1203845 8 0.12860768 0.017803974 0.99153566 0.00012409546
-4.1752372 -0.94016528 -1.1203845 9 0.12844101 0.018359531 0.99154717 0.00012355199
-4.1781702 -0.92704356 -1.1203845 8 0.1283135 0.019047525 0.99155074 0.00012921625
-4.1786933 -0.91568756 -1.1198779 8 0.1280714 0.019685045 0.99156958 0.00012796857
-4.185174 -0.90410191 -1.1208909 8 0.12815891 0.020466298 0.99154246 0.00012969869
-4.1840534 -0.89087522 -1.1198779 8 0.12783419 0.021110192 0.99157083 0.00013403491
-4.1904655 -0.8792513 -1.1208909 8 0.12781148 0.021799577 0.99155885 0.00013403855
-4.1872201 -0.86636955 -1.1193714 8 0.12753372 0.022389608 0.9915815 0.00013471431
-4.1897721 -0.85394275 -1.1193714 8 0.12736964 0.023049079 0.99158752 0.00013108559
-4.1921406 -0.84223908 -1.1193714 8 0.12731686 0.02372954 0.99157816 0.00013058582
-4.1944761 -0.83052891 -1.1193714 8 0.12721281 0.024424242 0.9915747 0.00012939102
-4.2027621 -0.81845683 -1.1208909 9 0.12722623 0.025190216 0.99155378 0.00012580138
-4.1993308 -0.80562335 -1.1193714 8 0.12684967 0.025869006 0.9915846 0.00012951465
-4.2072682 -0.79497093 -1.1208909 8 0.12687708 0.02655158 0.99156302 0.00012856178
-4.205667 -0.78251284 -1.1198779 9 0.12658276 0.027136154 0.99158478 0.00013112398
-4.2098732 -0.77037889 -1.1203845 8 0.12649146 0.027922675 0.99157465 0.00013295027
-4.214045 -0.75822598 -1.1208909 8 0.12643717 0.028618695 0.99156165 0.00013136541
-4.2162762 -0.74572009 -1.1208909 8 0.12618513 0.029258488 0.99157518 0.00013019615
-4.2164354 -0.73361218 -1.1203845 8 0.12597656 0.029891623 0.99158275 0.0001287749
-4.2205014 -0.72142333 -1.1208909 8 0.1259139 0.030452732 0.99157363 0.00012638728
-4.2242832 -0.71069324 -1.1213974 8 0.12603605 0.031110885 0.99153775 0.00012658729
-4.2264953 -0.69741851 -1.1213974 8 0.12578318 0.03176105 0.99154919 0.0001248523
-4.2322454 -0.68623328 -1.1224104 9 0.12599628 0.032284319 0.99150527 0.00012135457
-4.23247 -0.67262912 -1.1219039 9 0.12553377 0.032999117 0.99154037 0.00012173974
-4.240067 -0.66170293 -1.1234235 8 0.1256687 0.033758473 0.9914977 0.00011846545
-4.2399855 -0.64956653 -1.1229168 8 0.12551838 0.034206368 0.99150139 0.00011833402
-4.236043 -0.63686043 -1.1213974 8 0.12511915 0.034750029 0.99153298 0.00012315436
-4.2436566 -0.62513578 -1.1229168 9 0.12518348 0.035388473 0.99150229 0.00011735252
-4.2474079 -0.61281794 -1.1234235 8 0.12513123 0.036032248 0.99148571 0.00011574852
-4.2435646 -0.59866023 -1.1219039 8 0.12470847 0.036750916 0.9915126 0.0001124017
-4.2507644 -0.58908594 -1.1234235 8 0.12467449 0.03723646 0.99149871 0.00011156329
-4.2506762 -0.57547009 -1.1229168 8 0.12456513 0.03788257 0.99148804 0.00010608738
-4.2540865 -0.56459409 -1.1234235 8 0.12446932 0.038513612 0.99147576 0.00010396958
-4.2653365 -0.55321348 -1.1259559 8 0.12457124 0.039140489 0.99143839 0.0001001057
-4.2631207 -0.54006904 -1.124943 8 0.12432362 0.039816365 0.9914425 9.6054689e-05
-4.2609553 -0.52619994 -1.1239299 8 0.12412122 0.040223885 0.99145144 9.6993201e-05
-4.2700014 -0.515971 -1.1259559 8 0.12412269 0.040827967 0.99142659 9.2270689e-05
-4.2715135 -0.50329918 -1.1259559 8 0.12398692 0.04134097 0.99142236 8.815575e-05
-4.2729025 -0.49136859 -1.1259559 8 0.12389465 0.041917589 0.99140966 8.0741986e-05
-4.2763481 -0.47815832 -1.1264625 8 0.12378238 0.04243743 0.99140149 7.7098215e-05
-4.2814317 -0.46738183 -1.1274754 8 0.123727 0.042971283 0.99138546 7.3159907e-05
-4.2809553 -0.45372394 -1.126969 8 0.12350457 0.043465361 0.9913916 7.2574949e-05
-4.2821288 -0.44251552 -1.126969 8 0.12345777 0.043961294 0.99137557 7.1423943e-05
-4.2872725 -0.43019432 -1.1279819 8 0.12337537 0.044455826 0.99136382 7.0785427e-05
-4.2903833 -0.41840789 -1.1284884 9 0.12333638 0.044897053 0.99134874 6.8920315e-05
-4.2936025 -0.40510872 -1.1289949 9 0.12321075 0.045437925 0.99133974 6.7565939e-05
-4.2927904 -0.39294156 -1.1284884 9 0.12318317 0.045966189 0.99131882 6.412153e-05
-4.2977915 -0.38054383 -1.1295015 8 0.12313297 0.046352882 0.99130702 6.3474872e-05
-4.2968459 -0.36912507 -1.1289949 9 0.12306957 0.046801381 0.99129385 6.6159912e-05
-4.3037686 -0.35610378 -1.1305145 9 0.12302092 0.04734819 0.99127394 6.2460167e-05
-4.3048067 -0.3433314 -1.1305145 8 0.12298994 0.047822829 0.99125499 5.7684134e-05
-4.3038192 -0.33116105 -1.130008 9 0.12298675 0.048189092 0.99123764 5.4573306e-05
-4.3067126 -0.31853342 -1.1305145 9 0.122972 0.048622157 0.99121839 4.9679355e-05
-4.309515 -0.30664259 -1.1310209 9 0.12287362 0.049056936 0.99120909 4.6816549e-05
-4.3142667 -0.2941176 -1.1320339 9 0.12284139 0.049410384 0.9911955 4.4033717e-05
-4.3208137 -0.28320119 -1.1335535 8 0.12277709 0.049825456 0.99118274 4.1599604e-05
-4.321682 -0.26962638 -1.1335535 9 0.12272804 0.050234575 0.9911682 4.0519099e-05
-4.3224182 -0.25755665 -1.1335535 8 0.12274803 0.05057789 0.99114823 4.3052791e-05
-4.3250947 -0.24483973 -1.1340599 9 0.12269212 0.050990783 0.99113393 4.1034404e-05
-4.3315172 -0.23382837 -1.1355795 9 0.12263741 0.051250856 0.99112731 3.9659557e-05
-4.3264332 -0.21992448 -1.1340599 9 0.12272968 0.051633239 0.99109608 3.6838606e-05
-4.3308959 -0.20802836 -1.1350731 9 0.12264009 0.051895153 0.99109346 3.4512232e-05
-4.3353257 -0.19610798 -1.136086 9 0.12264826 0.052221611 0.99107534 3.1769039e-05
-4.3378215 -0.18332542 -1.1365925 9 0.12263457 0.052535076 0.99106044 2.9422594e-05
-4.3422127 -0.17060569 -1.1376054 9 0.12257093 0.052888736 0.99104947 3.0294113e-05
-4.3407111 -0.15916704 -1.137099 9 0.1225713 0.053087879 0.9910388 3.1131054e-05
-4.3431234 -0.14559412 -1.1376054 9 0.12258741 0.053417597 0.99101913 2.6927763e-05
-4.3454475 -0.13352546 -1.1381121 9 0.12258305 0.053705186 0.99100405 2.4996749e-05
-4.3458033 -0.12138987 -1.1381121 8 0.1226045 0.053949442 0.99098819 2.2227936e-05
-4.351965 -0.10788016 -1.1396315 8 0.12259465 0.054164372 0.99097764 1.8949266e-05
-4.3522658 -0.094966903 -1.1396315 8 0.12263802 0.054405365 0.99095911 1.6383392e-05
-4.354435 -0.083610229 -1.140138 9 0.12264992 0.054596443 0.99094713 1.7791795e-05
-4.3546638 -0.070689745 -1.140138 9 0.12266596 0.054741856 0.99093711 1.7169672e-05
-4.3645272 -0.057896964 -1.1426705 10 0.12262589 0.054993719 0.99092817 1.8063338e-05
-4.3608179 -0.044145748 -1.1416576 9 0.12268663 0.05511532 0.99091387 1.6208392e-05
-4.3647881 -0.032758746 -1.1426705 9 0.12270795 0.05526714 0.99090278 1.4582849e-05
-4.3629317 -0.019798998 -1.142164 9 0.12272677 0.055427354 0.99089152 1.3069606e-05
-4.364903 -0.0083801765 -1.1426705 9 0.12272856 0.05556269 0.99088371 1.4421665e-05
-4.3726468 0.005341216 -1.1446965 10 0.12271186 0.055758562 0.99087477 1.7061711e-05
-4.3687429 0.018299131 -1.1436836 9 0.12274583 0.055897418 0.99086273 1.598808e-05
-4.3725381 0.031289298 -1.1446965 9 0.12275336 0.056015488 0.99085516 1.6720907e-05
-4.3724337 0.043499898 -1.1446965 9 0.12277921 0.056104451 0.99084687 1.2869518e-05
-4.3761649 0.055759463 -1.1457095 9 0.12279596 0.056217093 0.99083847 1.2118802e-05
-4.3914571 0.068985879 -1.1497617 10 0.12278995 0.05627688 0.99083579 1.0384005e-05
-4.385458 0.080376424 -1.1482421 10 0.1228392 0.056376398 0.99082404 1.0197387e-05
-4.3813143 0.094070472 -1.1472291 9 0.12287092 0.056444742 0.99081624 1.1530694e-05
-4.3829689 0.10635227 -1.1477355 9 0.12289341 0.05648157 0.99081129 1.1731202e-05
-4.3826342 0.11935553 -1.1477355 9 0.12290777 0.056553386 0.99080545 1.2437773e-05
-4.3881087 0.13100238 -1.149255 10 0.12291145 0.056593157 0.99080271 1.3654784e-05
-4.3915176 0.14568162 -1.1502681 9 0.12293807 0.056667473 0.99079514 1.1504061e-05
-4.3853202 0.15697078 -1.1487485 8 0.12298124 0.056660943 0.99079019 1.0408841e-05
-4.3867984 0.16929016 -1.149255 9 0.12297463 0.056732301 0.99078691 1.3480394e-05
-4.390111 0.18323243 -1.1502681 9 0.1230439 0.056733783 0.99077821 9.3121971e-06
-4.3876495 0.19540544 -1.1497617 9 0.12308275 0.056764994 0.99077159 9.1397451e-06
-4.3928847 0.20793097 -1.151281 9 0.1231182 0.056750167 0.99076807 6.0556763e-06
-4.3961129 0.22115865 -1.152294 9 0.12314836 0.056747064 0.99076444 3.5242374e-06
-4.4032063 0.23384479 -1.15432 9 0.12317373 0.056734592 0.99076205 4.9720365e-06
-4.3947663 0.24647416 -1.152294 9 0.12320297 0.056761213 0.99075687 6.1416958e-06
-4.4094667 0.26042542 -1.1563461 9 0.12322029 0.056728691 0.99075657 6.0926341e-06
-4.4009504 0.27302951 -1.15432 9 0.12324709 0.056728084 0.99075335 5.1117522e-06
-4.4021516 0.28467441 -1.1548266 9 0.12325357 0.056738827 0.99075186 3.9132651e-06
-4.4108872 0.29915655 -1.1573591 10 0.1232691 0.056711614 0.99075145 4.8822739e-07
-4.4042449 0.31106424 -1.1558396 9 0.12328178 0.056676142 0.99075198 1.071973e-06
-4.4052882 0.32350397 -1.1563461 9 0.12332496 0.056627195 0.99074942 1.0717681e-06
-4.4139552 0.3373107 -1.1588786 11 0.12331909 0.056574602 0.99075317 2.9364953e-06
-4.4149246 0.34978855 -1.1593851 11 0.12333924 0.056551963 0.99075186 4.5466968e-06
-4.4177241 0.3632026 -1.1603981 10 0.12337887 0.056484401 0.99075073 3.6402073e-06
-4.4108438 0.37581617 -1.1588786 9 0.1234412 0.056430615 0.99074608 1.6455034e-06
-4.4155588 0.38864127 -1.1603981 9 0.12347682 0.056359299 0.99074572 2.5980887e-06
-4.4182405 0.40209073 -1.1614112 9 0.12349536 0.056330461 0.99074507 2.5327799e-06
-4.4208798 0.41556048 -1.1624241 9 0.12350325 0.056270603 0.99074751 7.6084066e-06
-4.4254045 0.42923629 -1.1639436 10 0.12352969 0.056231581 0.99074644 7.6642818e-06
-4.4204154 0.4404372 -1.1629306 9 0.12358288 0.056191724 0.99074203 7.0084543e-06
-4.4151607 0.45392555 -1.1619177 9 0.12358521 0.056138437 0.99074477 1.041276e-05
-4.4215722 0.46706653 -1.1639436 8 0.12361372 0.056060664 0.99074566 9.5568839e-06
-4.420167 0.48018378 -1.1639436 9 0.12365735 0.056007769 0.99074316 7.942499e-06
-4.4283376 0.49436915 -1.1664762 10 0.12369199 0.05593729 0.9907428 8.309351e-06
-4.4230947 0.50629365 -1.1654632 10 0.12370811 0.055862069 0.99074501 1.0095442e-05
-4.4274287 0.51931977 -1.1669827 10 0.12375173 0.055802982 0.99074298 9.59106e-06
-4.4276958 0.53345799 -1.1674892 10 0.12374971 0.055740204 0.99074668 9.5827672e-06
-4.4282994 0.54451078 -1.1679956 10 0.12375557 0.055680808 0.99074936 1.0792952e-05
-4.4227281 0.55793697 -1.1669827 9 0.12378153 0.055586357 0.99075133 1.2632952e-05
-4.4287286 0.57204759 -1.1690086 9 0.12381527 0.055450842 0.99075478 1.3265926e-05
-4.4348888 0.58465075 -1.1710347 10 0.12380824 0.055418868 0.99075747 1.3346008e-05
-4.4272776 0.59780502 -1.1695151 9 0.12387993 0.055340733 0.99075282 1.5081724e-05
-4.425591 0.6101653 -1.1695151 9 0.12392667 0.05529334 0.9907496 1.5110996e-05
-4.4277024 0.623061 -1.1705282 9 0.12406384 0.054914981 0.99075353 1.7774106e-05
-4.4373245 0.63784641 -1.1735672 10 0.12427969 0.054288618 0.99076098 2.8167729e-05
-4.4354124 0.65100968 -1.1735672 10 0.12446783 0.053769358 0.99076569 4.0636751e-05
-4.4336929 0.66261965 -1.1735672 11 0.12451102 0.05365197 0.99076658 3.9018258e-05
-4.4373274 0.67742038 -1.1750867 11 0.12467331 0.053073827 0.99077731 4.5950772e-05
-4.4296827 0.6889174 -1.1735672 9 0.12481064 0.052704152 0.99077976 5.5510955e-05
-4.4411187 0.70340365 -1.1771127 10 0.12481146 0.052437708 0.99079382 5.9738126e-05
-4.4428325 0.71719462 -1.1781257 11 0.12500343 0.052003179 0.99079257 6.7936024e-05
-4.4387755 0.7300598 -1.1776192 10 0.12543756 0.05132528 0.99077302 7.9122903e-05
-4.4443521 0.74373001 -1.1796452 10 0.12562619 0.050820962 0.99077505 8.527968e-05
-4.4421263 0.75691253 -1.1796452 10 0.12582187 0.050437275 0.99076986 9.2241971e-05
-4.4379544 0.76975882 -1.1791387 10 0.12589368 0.050219513 0.99077183 9.4125062e-05
-4.4413671 0.78393131 -1.1806582 9 0.12597428 0.050050527 0.9907701 9.7887256e-05
-4.4353518 0.79564792 -1.1796452 10 0.1260315 0.050038233 0.99076343 9.5548239e-05
-4.4405856 0.81019378 -1.1816713 10 0.12608434 0.049893606 0.99076402 9.8488803e-05
-4.440064 0.82371879 -1.1821778 10 0.12611008 0.049838532 0.99076349 9.9547506e-05
-4.4416952 0.8360551 -1.1831908 10 0.12616803 0.049739189 0.9907611 0.00010221219
-4.4448962 0.85032219 -1.1847103 10 0.12623945 0.049546786 0.9907617 0.00010507804
-4.444253 0.86387509 -1.1852168 11 0.12627238 0.049382951 0.99076563 0.00010585386
-4.4435682 0.87743264 -1.1857233 11 0.12631628 0.049174909 0.99077046 0.0001073355
-4.4467921 0.89097869 -1.1872427 10 0.12632819 0.048872627 0.99078393 0.00011186056
-4.4404941 0.90262133 -1.1862297 10 0.12630367 0.048640028 0.99079847 0.00011752583
-4.4379563 0.91501826 -1.1862297 9 0.12605876 0.049188167 0.99080259 0.00015073727
-4.4426351 0.93054295 -1.1882558 10 0.125789 0.049190592 0.99083674 0.00017190733
-4.4456973 0.94415057 -1.1897753 10 0.12521657 0.049975734 0.99086988 0.00021180935
-4.442709 0.95811266 -1.1897753 10 0.12515949 0.050398689 0.99085575 0.00022623337
-4.4498057 0.97102815 -1.1923078 11 0.12619224 0.050260752 0.99073166 0.00030556295
-4.4429555 0.98416513 -1.1912948 10 0.12589243 0.050964706 0.99073392 0.00032750913
-4.4417295 0.99854285 -1.1918013 10 0.12571986 0.051689863 0.99071831 0.00035075253
-4.4373894 1.0089644 -1.1912948 12 0.12551728 0.052038282 0.9907257 0.00036171739
-4.4455094 1.0255084 -1.1943338 11 0.12542807 0.053177342 0.99067652 0.00042799939
-4.4405632 1.0382538 -1.1938273 12 0.12528978 0.054221708 0.99063736 0.00045364059
-4.4414124 1.051542 -1.1948403 13 0.12490839 0.05548824 0.99061549 0.00049412291
-4.44034 1.064392 -1.1953468 12 0.1244658 0.056331072 0.99062359 0.00051529112
-4.4388542 1.0787925 -1.1958534 13 0.12445278 0.056935944 0.99059063 0.00053358043
-4.4435296 1.0922573 -1.1978793 12 0.12388892 0.058319408 0.9905808 0.00057213317
-4.4402695 1.105437 -1.1978793 12 0.12353572 0.058917921 0.9905895 0.00058742613
-4.4407225 1.119553 -1.1988924 12 0.12423994 0.059135079 0.99048853 0.00073944434
-4.4415259 1.1321311 -1.1999054 11 0.12363983 0.060763158 0.99046504 0.00077961152
-4.4398212 1.1465619 -1.2004119 12 0.12483723 0.060885571 0.99030733 0.00092843443
-4.4420147 1.1611983 -1.2019314 13 0.12569642 0.060957208 0.99019426 0.0010845572
-4.4445715 1.1743065 -1.2034509 12 0.12547483 0.061222762 0.990206 0.0011225871
-4.4373293 1.1864893 -1.2024379 14 0.12523188 0.061796706 0.99020106 0.0011302386
-4.4354477 1.2009284 -1.2029443 14 0.12501745 0.062910296 0.99015802 0.0011523766
-4.4341545 1.2130473 -1.2034509 13 0.12474759 0.063691951 0.99014205 0.0011768473
-4.4363446 1.2269715 -1.2049704 12 0.12435676 0.064819448 0.99011809 0.0012287954
-4.4343305 1.2414255 -1.2054769 12 0.12394866 0.065944433 0.99009496 0.0012477491
-4.4347897 1.2540827 -1.2064899 14 0.12355939 0.066858321 0.99008232 0.0012857006
-4.4345474 1.2690735 -1.2075028 13 0.12293679 0.068055838 0.99007827 0.0013271106
-4.4344802 1.2833015 -1.2085159 13 0.12267484 0.069315866 0.99002331 0.0013618578
-4.4311056 1.2949059 -1.2085159 15 0.12267657 0.070356414 0.9899497 0.0013715726
-4.4307261 1.3099173 -1.2095288 21 0.1223335 0.071359247 0.98992044 0.0013774181
-4.4233437 1.321177 -1.2085159 26 0.12221161 0.0721751 0.98987633 0.0013497843
-4.4196367 1.3335245 -1.2085159 31 0.12183739 0.073335409 0.98983717 0.0013365498
-4.4191256 1.3485332 -1.2095288 33 0.12223276 0.074172311 0.98972607 0.0013616162
-4.4208903 1.3625764 -1.2110484 33 0.12223298 0.074974723 0.98966551 0.0013946858
-4.420763 1.3760669 -1.2120614 33 0.12230034 0.076077163 0.98957312 0.0014308891
-4.4185061 1.3897581 -1.2125679 34 0.12225886 0.077022023 0.98950511 0.0014264018
-4.4198952 1.4046203 -1.2140874 33 0.12240742 0.07820636 0.98939389 0.0014480719
-4.4177976 1.4175489 -1.2145939 27 0.12271397 0.079371177 0.98926306 0.0014642372
-4.4190936 1.4324394 -1.2161134 15 0.12293544 0.080277331 0.9891625 0.0014700822
-4.4282012 1.4482152 -1.219659 17 0.12279361 0.081317447 0.98909515 0.0014780887
-4.4273038 1.463333 -1.220672 17 0.12291861 0.082438864 0.98898673 0.0014831645
-4.4213648 1.4750787 -1.2201655 15 0.12312007 0.083184339 0.98889929 0.001485515
-4.4263959 1.4905071 -1.222698 19 0.1231032 0.08406464 0.98882693 0.0014914396
-4.4235239 1.5050284 -1.2232045 19 0.12317951 0.084980421 0.98873919 0.0014928753
-4.4266233 1.5198888 -1.2252305 17 0.12310122 0.085815944 0.98867679 0.0014958461
-4.4187055 1.5309777 -1.2242174 25 0.12329469 0.086273275 0.98861283 0.0014990702
-4.4120479 1.5442119 -1.223711 34 0.12338162 0.087071136 0.98853207 0.0014967497
-4.4043403 1.5544707 -1.222698 34 0.12310144 0.087551273 0.98852456 0.001484854
-4.4069996 1.5701284 -1.2247241 34 0.12344291 0.088239335 0.98842078 0.001492175
-4.4059629 1.5845071 -1.225737 36 0.12343466 0.089186445 0.9883368 0.0014898223
-4.3997021 1.5961453 -1.2252305 43 0.12361075 0.089930765 0.98824739 0.001470026
-4.3952279 1.6084245 -1.2252305 48 0.12381869 0.090521343 0.98816741 0.0014767235
-4.386806 1.6201168 -1.2242174 52 0.1240111 0.090731077 0.98812401 0.0014638026
-4.3819795 1.6331269 -1.2242174 48 0.12412896 0.091303863 0.98805648 0.0014766534
-4.3737807 1.6439953 -1.2232045 40 0.12394956 0.091903716 0.9880234 0.0014309182
-4.3580289 1.6528487 -1.2201655 25 0.1232774 0.092159823 0.98808366 0.001392748
-4.3335176 1.6574087 -1.2145939 56 0.12156876 0.091912359 0.98831832 0.001225819
-4.3249712 1.6688666 -1.213581 40 0.11865287 0.091711089 0.98869139 0.0009713149
-4.3091822 1.6774805 -1.210542 24 0.11861026 0.091834158 0.98868501 0.00096664153
-4.295476 1.6859734 -1.2080095 25 0.11821562 0.091351829 0.98877698 0.0009447817
-4.2799563 1.6936905 -1.2049704 25 0.11728624 0.091080844 0.98891264 0.00090526324
-4.2620373 1.7021042 -1.201425 21 0.11689526 0.09116108 0.9889515 0.0008755608
-4.262351 1.7169124 -1.2029443 18 0.11684775 0.091640651 0.98891282 0.00087940221
-4.2650137 1.7309752 -1.2049704 18 0.11679567 0.091843091 0.98890024 0.00088764291
-4.2846212 1.75463 -1.2120614 26 0.11675274 0.092414863 0.98885196 0.00090341154
