# .PCD v0.7 - Point Cloud Data file format
VERSION 0.7
FIELDS x y z intensity normal_x normal_y normal_z curvature
SIZE 4 4 4 4 4 4 4 4
TYPE F F F F F F F F
COUNT 1 1 1 1 1 1 1 1
WIDTH 578
HEIGHT 1
VIEWPOINT 0 0 0 1 0 0 0
POINTS 578
DATA ascii
-1.399737 -2.6946092 -1.5251964 9 0.13670057 -0.0076759043 0.9905827 0.00038076859
-1.405709 -2.6854482 -1.5225033 9 0.1364225 -0.0074550873 0.99062264 0.00037913537
-1.4123695 -2.6799309 -1.5216055 9 0.13629077 -0.0073701786 0.99064142 0.00038072182
-1.4190098 -2.6743982 -1.5207078 10 0.13603714 -0.0073835519 0.99067622 0.00038120075
-1.4257195 -2.6667745 -1.5189124 9 0.13585675 -0.0073623364 0.99070114 0.00037790646
-1.432314 -2.6612089 -1.5180148 9 0.13564023 -0.0073073944 0.99073118 0.0003680232
-1.437186 -2.6524847 -1.5153216 8 0.13557743 -0.0072101164 0.99074054 0.00036722329
-1.4424809 -2.6435022 -1.5126284 9 0.1352419 -0.007259313 0.99078608 0.00036002579
-1.451179 -2.6407771 -1.5135262 8 0.13508092 -0.0073124385 0.99080759 0.00035792144
-1.4586025 -2.6346412 -1.5126284 8 0.13489763 -0.0072292793 0.99083322 0.00035613525
-1.4637557 -2.627691 -1.5108331 8 0.13470653 -0.0072960649 0.99085861 0.00035322914
-1.4706715 -2.6217775 -1.5099354 8 0.13457672 -0.0073137372 0.99087614 0.00034851261
-1.4766858 -2.6142905 -1.50814 9 0.13431984 -0.007296077 0.99091119 0.00034301789
-1.484408 -2.6119692 -1.5090377 9 0.13408634 -0.0072709625 0.99094301 0.00033600381
-1.4917186 -2.605742 -1.50814 9 0.13371125 -0.00716038 0.99099445 0.00032671538
-1.4958736 -2.5951109 -1.5045493 8 0.13365754 -0.0075104204 0.9909991 0.00030318994
-1.5044551 -2.5942781 -1.5063446 8 0.13342993 -0.0074955854 0.99102992 0.00029990633
-1.5103438 -2.5867159 -1.5045493 8 0.13331863 -0.0076296278 0.99104393 0.00029054109
-1.5148445 -2.5778658 -1.5018561 8 0.13308018 -0.0076715345 0.99107558 0.00028320085
-1.5238569 -2.5767021 -1.5036515 8 0.13296585 -0.0076711494 0.99109095 0.00027800223
-1.5273716 -2.5642247 -1.4991629 8 0.13280778 -0.0076772072 0.99111211 0.00027315124
-1.5345265 -2.5599494 -1.4991629 8 0.13258922 -0.0078408075 0.99114007 0.00026975106
-1.5416688 -2.5556545 -1.4991629 10 0.13240789 -0.0077835177 0.9911648 0.00026636731
-1.5464618 -2.5464859 -1.4964699 9 0.1323275 -0.0078549646 0.99117494 0.00026157801
-1.5530787 -2.5403616 -1.4955722 8 0.13225774 -0.0078777028 0.99118406 0.00025518978
-1.5592301 -2.5344923 -1.4946744 7 0.13203248 -0.0078902571 0.99121398 0.0002495017
-1.5667428 -2.529855 -1.4946744 8 0.13187701 -0.007832434 0.99123508 0.00024373666
-1.5732969 -2.5236785 -1.4937767 8 0.13180369 -0.0078619225 0.99124467 0.0002415919
-1.5798986 -2.5195508 -1.4937767 8 0.13181305 -0.0080968197 0.99124151 0.00023298486
-1.5868521 -2.5130639 -1.492879 8 0.13162671 -0.0081316596 0.99126601 0.0002328321
-1.5904663 -2.5023115 -1.4892882 8 0.13151792 -0.0082808034 0.99127924 0.00023043256
-1.597448 -2.49786 -1.4892882 7 0.13138504 -0.0082887784 0.99129677 0.00023277664
-1.6067871 -2.496115 -1.4910837 8 0.1312827 -0.0083419364 0.99130988 0.00023159722
-1.6118084 -2.4886179 -1.4892882 8 0.13114668 -0.008422628 0.99132717 0.00023675509
-1.6172327 -2.4808307 -1.4874928 8 0.13103227 -0.0086432323 0.99134046 0.00023728891
-1.6227424 -2.4750936 -1.4865952 7 0.13098089 -0.0087898467 0.991346 0.00023266385
-1.6314948 -2.4714746 -1.4874928 8 0.13091111 -0.0089869108 0.99135345 0.00023088446
-1.6354233 -2.4624431 -1.4847997 8 0.13087898 -0.009326946 0.99135441 0.00022476719
-1.6421579 -2.4558074 -1.4839021 7 0.13080901 -0.0093722725 0.99136329 0.0002197703
-1.6450192 -2.4452803 -1.4803112 8 0.13074237 -0.0095426692 0.9913705 0.00021552027
-1.6528431 -2.4421568 -1.4812089 8 0.13069984 -0.0097170593 0.99137431 0.00020775051
-1.6586508 -2.4360545 -1.4803112 8 0.13059776 -0.0097634653 0.99138737 0.00020850783
-1.6664567 -2.4328878 -1.4812089 8 0.13053803 -0.0098787332 0.99139404 0.0002081956
-1.6720625 -2.4246979 -1.4794135 7 0.13051203 -0.0099000996 0.99139732 0.00020493979
-1.6796718 -2.4194329 -1.4794135 7 0.13037759 -0.01021489 0.99141181 0.00020041241
-1.6859998 -2.4150276 -1.4794135 8 0.1303324 -0.010302285 0.99141681 0.00019829901
-1.6921306 -2.4085519 -1.4785159 7 0.13031541 -0.010418078 0.99141783 0.00019863795
-1.6992695 -2.4035206 -1.4785159 7 0.13029 -0.010491341 0.99142039 0.00019639973
-1.7045201 -2.3976071 -1.4776181 8 0.13017149 -0.010798882 0.99143261 0.00019185228
-1.7089238 -2.3878803 -1.474925 8 0.13004269 -0.011263683 0.99144441 0.00018838013
-1.7170458 -2.3842494 -1.4758227 8 0.12988767 -0.011705289 0.99145961 0.00017384613
-1.7190892 -2.373956 -1.472232 8 0.12964605 -0.012447124 0.9914822 0.00015719976
-1.7282298 -2.3717339 -1.4740273 8 0.12964731 -0.012470669 0.99148184 0.00015381894
-1.7348464 -2.3668983 -1.4740273 8 0.12958202 -0.01283035 0.99148566 0.00014391163
-1.7414495 -2.3620446 -1.4740273 8 0.12950033 -0.013281415 0.99149042 0.00012630135
-1.7446007 -2.3508217 -1.4704366 8 0.1293005 -0.013808059 0.99150938 0.00011357619
-1.7490205 -2.343076 -1.468641 7 0.12935303 -0.014100851 0.99149829 0.00011059194
-1.7577032 -2.3410411 -1.4704366 8 0.12936282 -0.014170381 0.99149603 0.00011035348
-1.7635642 -2.3343894 -1.4695388 8 0.12939656 -0.014540642 0.99148637 0.00010139912
-1.7694013 -2.3277235 -1.468641 8 0.12940966 -0.01466584 0.99148268 0.00010015115
-1.7769798 -2.3241937 -1.4695388 7 0.12946942 -0.014796204 0.99147302 9.6635689e-05
-1.7805989 -2.314661 -1.4668456 8 0.12945999 -0.014967989 0.99147171 9.1780814e-05
-1.7874589 -2.3093677 -1.4668456 8 0.12944776 -0.015088612 0.99147141 9.2185015e-05
-1.7913036 -2.3018591 -1.4650503 7 0.12943825 -0.015320678 0.99146909 9.2307157e-05
-1.7941177 -2.2905924 -1.4614594 8 0.12943874 -0.016576719 0.99144888 5.3501717e-05
-1.8031182 -2.2880671 -1.4632549 8 0.12940371 -0.016680598 0.99145168 5.3458207e-05
-1.810611 -2.2844234 -1.4641526 8 0.12933551 -0.017149488 0.99145257 4.7393285e-05
-1.8151525 -2.2762465 -1.4623572 8 0.12932119 -0.017158765 0.9914543 4.5232289e-05
-1.8215021 -2.2711687 -1.4623572 8 0.12930876 -0.017322596 0.99145299 4.5571749e-05
-1.821893 -2.2570908 -1.4569709 6 0.12935168 -0.017761309 0.99143976 3.3688051e-05
-1.8307806 -2.2567959 -1.459664 7 0.1293546 -0.017798314 0.99143863 3.5787431e-05
-1.8367311 -2.2496493 -1.4587665 7 0.12932241 -0.018021431 0.99143881 3.5598605e-05
-1.8384694 -2.2389863 -1.4551755 8 0.12928972 -0.018196261 0.99143988 3.2035867e-05
-1.8435769 -2.2324653 -1.4542779 7 0.12927735 -0.018293716 0.99143976 3.2736236e-05
-1.8517232 -2.2280374 -1.4551755 7 0.12928045 -0.018361293 0.99143809 2.7482536e-05
-1.8556457 -2.2201152 -1.4533801 7 0.12928514 -0.018491048 0.99143505 2.8794153e-05
-1.8595384 -2.2121882 -1.4515848 7 0.12926643 -0.018577294 0.99143583 3.3355445e-05
-1.8587854 -2.1987979 -1.4461985 6 0.1292472 -0.018750403 0.99143511 2.8804816e-05
-1.8737912 -2.2024753 -1.4524825 7 0.12926957 -0.018713199 0.99143291 2.6778684e-05
-1.8772138 -2.1925058 -1.4497894 7 0.12926322 -0.01891334 0.99142992 3.0330059e-05
-1.8837306 -2.1892672 -1.4506871 7 0.12926583 -0.018911319 0.99142963 2.7315729e-05
-1.8812404 -2.1725292 -1.4435054 6 0.12924956 -0.019038148 0.99142927 2.7099215e-05
-1.8880949 -2.1689453 -1.4444032 7 0.12927766 -0.019060155 0.99142522 2.4364614e-05
-1.8968771 -2.1660223 -1.4461985 7 0.1292856 -0.019139308 0.99142271 2.7762841e-05
-1.9021134 -2.159044 -1.4453009 7 0.12929063 -0.019144399 0.99142194 2.5335021e-05
-1.9065162 -2.1503825 -1.4435054 7 0.12926631 -0.019184494 0.99142432 2.6677058e-05
-1.9113247 -2.1437161 -1.4426078 7 0.1292696 -0.019188154 0.99142379 2.8146191e-05
-1.9149164 -2.1357098 -1.4408122 7 0.12923726 -0.019230165 0.99142718 2.8458666e-05
-1.9224424 -2.1313453 -1.44171 7 0.1292365 -0.019257465 0.99142683 2.7087786e-05
-1.9244139 -2.1223333 -1.4390169 7 0.12922767 -0.019272218 0.9914276 2.5571821e-05
-1.9358907 -2.121558 -1.4426078 7 0.12924823 -0.019266352 0.99142504 2.5114688e-05
-1.9385512 -2.1118548 -1.4399146 7 0.12923324 -0.019280458 0.99142671 2.3032371e-05
-1.9404377 -2.1028318 -1.4372215 6 0.12923114 -0.019274518 0.99142718 2.6971178e-05
-1.9426553 -2.0934744 -1.4345284 6 0.12923726 -0.019288214 0.99142605 2.6581411e-05
-1.955687 -2.0935512 -1.4390169 7 0.1292575 -0.019285612 0.99142355 2.3810429e-05
-1.9587141 -2.0858185 -1.4372215 7 0.12925905 -0.019251702 0.99142402 2.3973562e-05
-1.9612118 -2.0761003 -1.4345284 7 0.12925722 -0.019246943 0.99142432 2.5049671e-05
-1.9673631 -2.0702722 -1.4345284 7 0.12927225 -0.019226907 0.99142271 2.3567687e-05
-1.9727767 -2.0651143 -1.4345284 7 0.12928794 -0.01925529 0.99142009 1.910414e-05
-1.9776572 -2.0579634 -1.4336307 7 0.1292733 -0.019237634 0.99142241 1.8945861e-05
-1.980028 -2.0482314 -1.4309376 7 0.12929308 -0.019250542 0.99141955 1.7650707e-05
-1.9894776 -2.0465386 -1.4336307 7 0.12928765 -0.019237421 0.99142051 1.6540562e-05
-1.9908977 -2.0351684 -1.4300399 7 0.12928848 -0.019237136 0.99142045 1.7571718e-05
-1.9978265 -2.0308747 -1.4309376 7 0.1292966 -0.01918955 0.99142027 1.5760104e-05
-1.9997194 -2.021476 -1.4282445 6 0.12930171 -0.019191502 0.99141961 1.4432741e-05
-1.9997555 -2.0088511 -1.423756 6 0.12929547 -0.019159883 0.99142098 1.3270283e-05
-2.0104151 -2.008311 -1.4273467 6 0.12927945 -0.019167343 0.99142289 1.5913927e-05
-2.0185518 -2.005208 -1.4291422 7 0.12928969 -0.019132867 0.9914223 1.4899891e-05
-2.0206776 -1.9954427 -1.4264491 7 0.12928939 -0.019127859 0.99142241 1.31838e-05
-2.0265887 -1.9894389 -1.4264491 7 0.12926517 -0.019122029 0.99142563 1.2373985e-05
-2.0305111 -1.982878 -1.4255514 7 0.12929094 -0.019102972 0.99142265 1.0419312e-05
-2.0354486 -1.9752439 -1.4246538 7 0.12927385 -0.019067291 0.99142563 1.1461772e-05
-2.0431843 -1.9723914 -1.4264491 7 0.12926175 -0.019055882 0.99142736 1.4190021e-05
-2.0442116 -1.9610136 -1.4228582 7 0.12924138 -0.01900029 0.99143112 1.4801413e-05
-2.0474346 -1.9524728 -1.4210628 7 0.12925528 -0.018947933 0.99143034 1.4494337e-05
-2.0538352 -1.9483364 -1.4219606 7 0.12926026 -0.018899906 0.99143052 1.5491338e-05
-2.0573454 -1.9394219 -1.4201651 8 0.12928337 -0.018842407 0.99142861 1.4685462e-05
-2.0611119 -1.9328068 -1.4192674 7 0.12927552 -0.018800907 0.99143046 1.7722139e-05
-2.0668373 -1.9266834 -1.4192674 7 0.12927765 -0.018723834 0.99143171 1.9442743e-05
-2.0751667 -1.9229721 -1.4210628 7 0.12931198 -0.018680412 0.99142796 2.0263971e-05
-2.0769196 -1.9131734 -1.4183698 7 0.12932391 -0.018594766 0.99142802 1.8152992e-05
-2.0769827 -1.9025373 -1.4147789 6 0.12933108 -0.018491428 0.99142903 2.0763149e-05
-2.0799754 -1.8939604 -1.4129835 6 0.12935492 -0.018418524 0.99142724 2.3215329e-05
-2.0905554 -1.8929427 -1.4165744 7 0.12934475 -0.018411588 0.99142879 2.4673804e-05
-2.0931773 -1.8847054 -1.4147789 7 0.12935665 -0.018279828 0.99142963 2.5982352e-05
-2.1027553 -1.8820622 -1.4174721 7 0.12936592 -0.018252213 0.99142891 2.617174e-05
-2.0966382 -1.8647577 -1.4093927 6 0.12939903 -0.018076748 0.99142784 2.5528487e-05
-2.1095445 -1.8663677 -1.4147789 7 0.12939753 -0.018015871 0.99142915 2.9258788e-05
-2.1083627 -1.8541988 -1.4102905 7 0.12940176 -0.017924432 0.99143016 2.8496772e-05
-2.1135323 -1.8483038 -1.4102905 7 0.12942798 -0.017845614 0.9914282 3.2083262e-05
-2.1179793 -1.840483 -1.4093927 7 0.12943897 -0.017759321 0.99142826 3.3333821e-05
-2.1217585 -1.8333926 -1.4084951 6 0.1294405 -0.017674139 0.99142969 3.304215e-05
-2.1299005 -1.8294181 -1.4102905 7 0.12946485 -0.01760691 0.99142766 3.3855642e-05
-2.132283 -1.8211416 -1.4084951 6 0.12945713 -0.017516015 0.99143028 3.5361052e-05
-2.1387227 -1.8163368 -1.4093927 7 0.1294722 -0.017442456 0.99142969 3.5657526e-05
-2.1416862 -1.8073039 -1.4075973 7 0.12945095 -0.017353179 0.99143392 3.816434e-05
-2.1477787 -1.8028402 -1.4084951 7 0.12944092 -0.017293997 0.9914363 3.8004342e-05
-2.15206 -1.7949386 -1.4075973 7 0.12946638 -0.017203063 0.99143457 3.8745573e-05
-2.1529369 -1.785499 -1.4049042 8 0.12949055 -0.017037848 0.99143428 3.9583505e-05
-2.1596043 -1.7802404 -1.405802 7 0.12950625 -0.016964559 0.99143356 4.1262047e-05
-2.1587291 -1.770048 -1.4022111 7 0.12952584 -0.016829301 0.9914332 4.4537672e-05
-2.1656651 -1.7643857 -1.4031088 8 0.12951241 -0.016759006 0.99143618 4.7172292e-05
-2.1691949 -1.7572066 -1.4022111 8 0.12954225 -0.016653815 0.9914341 4.4730128e-05
-2.1799674 -1.7552462 -1.405802 7 0.12954397 -0.016603827 0.99143463 4.9135262e-05
-2.1789753 -1.7450639 -1.4022111 7 0.12952815 -0.016499426 0.99143851 5.1652729e-05
-2.1813464 -1.7363654 -1.4004157 7 0.12955089 -0.016402807 0.99143714 4.9837578e-05
-2.1864889 -1.7298855 -1.4004157 7 0.12954156 -0.016288543 0.99144018 4.8219466e-05
-2.191612 -1.7233903 -1.4004157 7 0.12955973 -0.016227348 0.99143881 5.1961884e-05
-2.1851521 -1.7084572 -1.393234 6 0.1295794 -0.016065424 0.99143893 4.5313394e-05
-2.1947432 -1.7048725 -1.3959272 6 0.12956724 -0.015993658 0.99144167 4.9938804e-05
-2.2023242 -1.7009221 -1.3977226 6 0.1295518 -0.015927665 0.99144471 5.3865522e-05
-2.2042305 -1.6925884 -1.3959272 7 0.12956323 -0.015810026 0.99144506 5.1981649e-05
-2.2035596 -1.6817042 -1.3923365 6 0.12954862 -0.015660688 0.99144948 5.1632283e-05
-2.21679 -1.6820258 -1.3977226 7 0.1295338 -0.015624432 0.99145192 5.1926203e-05
-2.2203441 -1.674365 -1.396825 7 0.12951349 -0.015520673 0.99145615 5.2608979e-05
-2.2138612 -1.6591949 -1.3896433 6 0.12950481 -0.015354541 0.99145991 5.1589726e-05
-2.222785 -1.6562099 -1.3923365 6 0.12950239 -0.015253392 0.99146175 4.8860384e-05
-2.2256775 -1.6493208 -1.3914387 6 0.12950362 -0.015169168 0.99146295 4.9255887e-05
-2.2351658 -1.645499 -1.3941318 7 0.12951623 -0.0150768 0.99146265 4.2221021e-05
-2.2325413 -1.6339731 -1.3896433 6 0.12951691 -0.014942049 0.99146461 4.4914093e-05
-2.2344892 -1.6252393 -1.3878479 6 0.12949322 -0.014825108 0.9914695 4.6349909e-05
-2.2465434 -1.6238375 -1.3923365 7 0.12947938 -0.014770586 0.99147218 4.4678323e-05
-2.2438126 -1.6123428 -1.3878479 7 0.12950821 -0.014592973 0.99147105 4.8821577e-05
-2.2526686 -1.6091874 -1.390541 7 0.12947989 -0.01451658 0.99147576 4.7118021e-05
-2.2574334 -1.6024964 -1.390541 7 0.1295028 -0.014414967 0.99147427 4.3951983e-05
-2.2592573 -1.5937309 -1.3887455 7 0.129508 -0.014267476 0.99147576 4.4239147e-05
-2.2610493 -1.5849687 -1.3869501 6 0.12950216 -0.014141661 0.99147826 4.073709e-05
-2.266933 -1.5796708 -1.3878479 7 0.129482 -0.014026331 0.99148262 3.7634429e-05
-2.2669277 -1.5702809 -1.3851548 6 0.12946761 -0.013896856 0.99148625 3.5536035e-05
-2.2674327 -1.5601122 -1.3824617 6 0.12946276 -0.013738038 0.99148911 3.5577767e-05
-2.2762058 -1.5568014 -1.3851548 7 0.12944926 -0.013680947 0.99149173 3.5054818e-05
-2.2790666 -1.5494341 -1.3842571 7 0.12944376 -0.01354655 0.99149418 3.5339373e-05
-2.2794793 -1.5392658 -1.3815639 6 0.12942213 -0.01337722 0.99149936 3.4286877e-05
-2.2849855 -1.534289 -1.3824617 7 0.12941392 -0.013272451 0.99150187 3.2861812e-05
-2.2850671 -1.5245272 -1.3797685 6 0.12941842 -0.0130923 0.99150366 3.2230422e-05
-2.2883561 -1.5163532 -1.3788708 6 0.12939939 -0.012918119 0.99150848 3.3434841e-05
-2.2935462 -1.5117409 -1.3797685 7 0.12938327 -0.01285626 0.99151134 3.0102603e-05
-2.2967889 -1.5035493 -1.3788708 6 0.12934721 -0.012705823 0.9915179 3.025755e-05
-2.3012397 -1.4967283 -1.3788708 6 0.12932411 -0.012547137 0.99152297 3.0502863e-05
-2.3096526 -1.4936099 -1.3815639 7 0.12930605 -0.012483248 0.99152619 2.5517593e-05
-2.3125708 -1.4857844 -1.3806663 7 0.1293028 -0.012341153 0.99152833 2.5951076e-05
-2.3157201 -1.4775509 -1.3797685 7 0.12929761 -0.012167186 0.99153119 2.2542714e-05
-2.3195808 -1.4714825 -1.3797685 7 0.12930816 -0.012030404 0.99153143 1.9957301e-05
-2.3209121 -1.4626884 -1.3779732 8 0.12928741 -0.011869247 0.99153608 1.8110472e-05
-2.325496 -1.4553897 -1.3779732 7 0.12929207 -0.011722375 0.99153727 1.4002981e-05
-2.3305624 -1.450648 -1.3788708 7 0.12929894 -0.011610479 0.99153763 1.6852904e-05
-2.332068 -1.4414392 -1.3770754 7 0.12926763 -0.011454518 0.99154365 1.2801936e-05
-2.3317652 -1.4317083 -1.3743823 7 0.12922363 -0.011298897 0.99155116 9.7293705e-06
-2.3385563 -1.4274617 -1.3761778 7 0.1292419 -0.011129931 0.99155062 9.1969405e-06
-2.3338592 -1.4145489 -1.3707916 6 0.12914939 -0.010979511 0.99156433 8.4373723e-06
-2.3472326 -1.4131494 -1.3761778 7 0.1291981 -0.010854498 0.99155939 6.6234729e-06
-2.3371224 -1.398739 -1.3680984 6 0.12914522 -0.010628148 0.9915688 1.0154497e-05
-2.3502359 -1.3976882 -1.3734846 7 0.12916435 -0.010499247 0.99156761 7.8338062e-06
-2.3546154 -1.3902977 -1.3734846 7 0.12918243 -0.010325373 0.99156708 7.9510755e-06
-2.3584886 -1.3837173 -1.3734846 7 0.12916061 -0.010180498 0.99157149 7.322873e-06
-2.3625839 -1.3767133 -1.3734846 7 0.12915938 -0.0099951485 0.99157345 6.412758e-06
-2.3527365 -1.36164 -1.3654053 6 0.12904915 -0.0097642327 0.99159008 8.5018692e-06
-2.3655882 -1.3608234 -1.3707916 7 0.12912951 -0.0096518919 0.99158084 6.3583898e-06
-2.3742709 -1.3564583 -1.3734846 7 0.12908341 -0.0095008733 0.99158823 4.8994671e-06
-2.3736219 -1.3467616 -1.3707916 7 0.1290988 -0.0093270969 0.99158782 8.1715471e-06
-2.3773737 -1.3401277 -1.3707916 7 0.12907808 -0.0091446061 0.99159229 8.7661319e-06
-2.3768928 -1.3300347 -1.3680984 7 0.12905267 -0.0089158155 0.99159759 9.0533049e-06
-2.3821599 -1.3242602 -1.3689961 7 0.12903656 -0.0087219002 0.99160147 1.1895107e-05
-2.3858488 -1.3176026 -1.3689961 7 0.12903023 -0.0085636703 0.99160373 1.0209888e-05
-2.3899763 -1.3101013 -1.3689961 7 0.12903579 -0.0083653796 0.99160475 1.122473e-05
-2.3792729 -1.2961448 -1.3609167 6 0.12896422 -0.008130285 0.99161595 2.0911528e-05
-2.3893962 -1.2924808 -1.3645077 7 0.12899134 -0.0079566687 0.99161375 1.5242209e-05
-2.3932207 -1.2853855 -1.3645077 7 0.1289957 -0.0077558756 0.99161488 1.7268629e-05
-2.4015312 -1.281221 -1.3672007 7 0.12903853 -0.0075955018 0.99161047 1.7029908e-05
-2.4050999 -1.2745094 -1.3672007 7 0.12902021 -0.0073570944 0.99161464 1.2595428e-05
-2.4043465 -1.2644522 -1.3645077 7 0.12902142 -0.0070894426 0.99161649 1.643967e-05
-2.4092324 -1.2589808 -1.3654053 7 0.12903731 -0.006920103 0.99161559 1.5143152e-05
-2.4145439 -1.2526498 -1.366303 7 0.12903047 -0.0067540533 0.99161762 1.707845e-05
-2.4118943 -1.2422075 -1.3627123 7 0.12898186 -0.0064535583 0.99162591 2.6575051e-05
-2.4169447 -1.2362809 -1.3636099 7 0.12897247 -0.0062305592 0.99162865 2.4073426e-05
-2.4174154 -1.2274859 -1.3618145 8 0.1289362 -0.0060007409 0.99163467 3.1485706e-05
-2.4178548 -1.2186989 -1.3600191 7 0.12894729 -0.0057163672 0.99163502 3.4027264e-05
-2.4260435 -1.214342 -1.3627123 7 0.12892455 -0.0054851202 0.99163926 3.6745616e-05
-2.428035 -1.2063435 -1.3618145 7 0.12888993 -0.0052669635 0.99164492 4.0131577e-05
-2.4316037 -1.199134 -1.3618145 7 0.12890083 -0.0049595628 0.99164516 3.9735205e-05
-2.4315245 -1.1911919 -1.3600191 7 0.12888259 -0.004683252 0.99164885 4.072813e-05
-2.4251986 -1.1797062 -1.3546329 6 0.12889573 -0.0043569612 0.99164855 4.5562931e-05
-2.4369407 -1.1759655 -1.3591214 7 0.12883818 -0.0041482346 0.9916569 4.3394048e-05
-2.4369917 -1.1676111 -1.357326 6 0.12885118 -0.0038878077 0.9916563 4.7277343e-05
-2.4388311 -1.1596076 -1.3564283 7 0.12881209 -0.0035916662 0.99166256 4.9212387e-05
-2.4422607 -1.1523669 -1.3564283 7 0.12879954 -0.0033029995 0.99166512 5.0559884e-05
-2.4503248 -1.1478167 -1.3591214 7 0.12880245 -0.0031005391 0.99166548 4.9826813e-05
-2.4519 -1.1402158 -1.3582238 7 0.12879686 -0.002842953 0.99166697 5.3058015e-05
-2.4536498 -1.1321869 -1.357326 7 0.12874453 -0.0025464853 0.99167454 5.4899425e-05
-2.4537482 -1.1234136 -1.3555306 6 0.12876017 -0.0022551366 0.99167323 5.8816193e-05
-2.4586976 -1.1168678 -1.3564283 7 0.12876526 -0.0019882794 0.99167311 5.880653e-05
-2.4618068 -1.1099974 -1.3564283 7 0.12874931 -0.0017378913 0.99167573 5.8266978e-05
-2.4616344 -1.1016581 -1.3546329 7 0.12876245 -0.0014379388 0.99167442 6.069056e-05
-2.463068 -1.094054 -1.3537351 7 0.12874343 -0.0011358194 0.99167728 6.0032839e-05
-2.4681284 -1.0870314 -1.3546329 7 0.12873562 -0.00086541672 0.9916786 6.2661558e-05
-2.4760673 -1.0822822 -1.357326 7 0.12870222 -0.00062795711 0.99168307 6.4351174e-05
-2.4745355 -1.072366 -1.3546329 7 0.12869985 -0.00027344882 0.9916836 6.3336513e-05
-2.4740512 -1.064471 -1.3528374 7 0.12875174 2.095534e-05 0.99167687 6.3271378e-05
-2.4788425 -1.0578271 -1.3537351 7 0.12872778 0.00027934645 0.99167991 6.6422748e-05
-2.4854453 -1.0514274 -1.3555306 7 0.12872148 0.00057344406 0.99168062 6.4494037e-05
-2.4896545 -1.0460438 -1.3564283 7 0.12871289 0.00079916837 0.99168164 6.4523156e-05
-2.4879792 -1.0361551 -1.3537351 7 0.12869777 0.0011510116 0.99168319 6.7029141e-05
-2.4860868 -1.0267226 -1.3510422 7 0.12870565 0.0015143576 0.99168169 6.8473077e-05
-2.4871125 -1.0195323 -1.3501444 6 0.12870215 0.0017799218 0.99168169 7.2247407e-05
-2.4884708 -1.0114758 -1.3492466 6 0.12869634 0.0020582592 0.99168187 7.6026874e-05
-2.4916363 -1.0036523 -1.3492466 6 0.1286585 0.002394953 0.99168611 7.6695265e-05
-2.5008934 -0.99978 -1.3528374 7 0.12863462 0.0026598163 0.99168843 7.7953191e-05
-2.4955411 -0.98906332 -1.348349 6 0.12867917 0.0029709577 0.99168181 8.0622107e-05
-2.501792 -0.98296088 -1.3501444 7 0.12861714 0.0032725302 0.99168885 8.4029889e-05
-2.509352 -0.97835588 -1.3528374 7 0.12862504 0.0035114025 0.99168706 8.6020111e-05
-2.512244 -0.97090608 -1.3528374 7 0.12857823 0.0038712805 0.99169177 8.909098e-05
-2.5119436 -0.96173072 -1.3510422 7 0.12857985 0.0041623348 0.9916904 9.1732763e-05
-2.5144529 -0.95515096 -1.3510422 7 0.12856145 0.0044424525 0.99169159 9.2514296e-05
-2.5204554 -0.94938534 -1.3528374 7 0.12851755 0.0047252299 0.991696 9.6040349e-05
-2.5168915 -0.93852407 -1.3492466 7 0.12847802 0.0050694388 0.9916994 9.5044445e-05
-2.5226922 -0.93317223 -1.3510422 7 0.12846954 0.005294451 0.99169922 9.609283e-05
-2.5202544 -0.9242776 -1.348349 7 0.12846802 0.0056522624 0.99169755 9.880092e-05
-2.5265052 -0.91757607 -1.3501444 7 0.12839481 0.0060151373 0.99170494 9.9179888e-05
-2.5272176 -0.91035271 -1.3492466 7 0.12838438 0.0062533356 0.99170476 0.00010346918
-2.5266984 -0.90120775 -1.3474512 6 0.12837757 0.0067165368 0.99170268 0.00010775552
-2.5259907 -0.89251667 -1.3456559 6 0.12836288 0.0069326931 0.99170297 0.00010960522
-2.5266321 -0.88530868 -1.3447582 6 0.12828438 0.0073135537 0.99171042 0.00011041221
-2.5292475 -0.87780857 -1.3447582 6 0.12827967 0.007667521 0.9917084 0.00010967928
-2.5352216 -0.87146211 -1.3465536 6 0.12817237 0.0079910392 0.99171972 0.00011144939
-2.5410287 -0.86553138 -1.348349 7 0.1281523 0.0082659302 0.99172014 0.00010775273
-2.5437353 -0.85754472 -1.348349 7 0.12809892 0.0086033745 0.99172407 0.00010922459
-2.5410347 -0.84873921 -1.3456559 7 0.12807672 0.0090074409 0.99172336 0.00011120574
-2.5400016 -0.84051687 -1.3438605 6 0.12810235 0.0093003828 0.99171722 0.00011258973
-2.5525281 -0.83676136 -1.3492466 7 0.12803923 0.0095915888 0.9917227 0.00011157963
-2.5532997 -0.82863295 -1.348349 7 0.12796174 0.0099288486 0.99172944 0.0001094005
-2.5556037 -0.82149941 -1.348349 7 0.12789503 0.010290731 0.99173439 0.00010947573
-2.5462501 -0.80967492 -1.3420651 6 0.12795667 0.010725769 0.99172175 0.00011046347
-2.5551794 -0.80515492 -1.3456559 7 0.12784727 0.010998379 0.9917329 0.00010774569
-2.5541446 -0.79650581 -1.3438605 6 0.12778364 0.011349221 0.99173707 0.00010730262
-2.5564966 -0.78892446 -1.3438605 6 0.12774029 0.011763563 0.9917379 0.00010630207
-2.5554075 -0.78029168 -1.3420651 6 0.12774774 0.01207258 0.99173319 0.00010865778
-2.5575767 -0.77315241 -1.3420651 6 0.1276907 0.012414808 0.99173635 0.0001063733
-2.5615714 -0.76607299 -1.3429627 6 0.12760291 0.012769886 0.99174309 0.00010719066
-2.5652821 -0.75987107 -1.3438605 7 0.12755957 0.01306168 0.991745 0.00010844647
-2.5659411 -0.75130647 -1.3429627 7 0.12754285 0.013456081 0.99174184 0.00010803172
-2.563009 -0.74219835 -1.3402696 6 0.12752211 0.013895884 0.99173844 0.00010873689
-2.5669179 -0.73508304 -1.3411673 6 0.1273936 0.014227743 0.99175018 0.00010835651
-2.5705533 -0.72884709 -1.3420651 6 0.12736581 0.014558477 0.99174887 0.00011132807
-2.5744252 -0.72169966 -1.3429627 7 0.12726668 0.014874353 0.99175698 0.00011656335
-2.5781529 -0.71498525 -1.3438605 7 0.12720421 0.015226021 0.99175966 0.00011570089
-2.5785391 -0.70685983 -1.3429627 7 0.1271621 0.015610653 0.99175906 0.00011546147
-2.5789001 -0.69873917 -1.3420651 7 0.12706544 0.015937528 0.99176627 0.00011789953
-2.5861409 -0.69247097 -1.3447582 7 0.12697318 0.016304066 0.99177223 0.00011710084
-2.5759711 -0.68204421 -1.3384743 6 0.1270141 0.016646128 0.99176121 0.00011727004
-2.5866284 -0.67665946 -1.3429627 7 0.12689969 0.016971065 0.99177039 0.00011953038
-2.5849307 -0.66899025 -1.3411673 7 0.12681893 0.017349292 0.99177414 0.000121812
-2.581825 -0.65953904 -1.3384743 5 0.1268125 0.017795671 0.99176705 0.00012290879
-2.5853896 -0.65276396 -1.3393719 6 0.1267028 0.018050278 0.99177647 0.00012701983
-2.5854683 -0.64510942 -1.3384743 6 0.12660719 0.018422203 0.99178177 0.00012937546
-2.5857468 -0.63655645 -1.3375766 6 0.12651579 0.018814081 0.99178612 0.00013011806
-2.5875142 -0.62933302 -1.3375766 6 0.12647364 0.019165764 0.99178475 0.00013314662
-2.5980594 -0.62373894 -1.3420651 7 0.1263372 0.019523086 0.99179524 0.00013578877
-2.5910962 -0.61441934 -1.3375766 6 0.12633942 0.019889006 0.99178767 0.00013410907
-2.5926957 -0.60763413 -1.3375766 6 0.1262631 0.02020767 0.99179095 0.00013432483
-2.5998156 -0.60069346 -1.3402696 6 0.12616405 0.020529095 0.99179697 0.00013122933
-2.5928738 -0.59099036 -1.3357811 6 0.1262157 0.021009397 0.99178034 0.00013669887
-2.6083608 -0.58734149 -1.3429627 7 0.12605627 0.021286661 0.99179465 0.00013629746
-2.6084485 -0.57875705 -1.3420651 8 0.12598699 0.021655925 0.99179554 0.00014128591
-2.606463 -0.57116079 -1.3402696 7 0.12594602 0.021955272 0.99179411 0.00014233004
-2.6098931 -0.56380194 -1.3411673 7 0.12582459 0.022319602 0.99180144 0.00014561012
-2.6080582 -0.55531186 -1.3393719 7 0.1258136 0.022653094 0.99179524 0.0001501646
-2.6166909 -0.54903901 -1.3429627 7 0.12565915 0.023035666 0.99180603 0.00015277613
-2.6042128 -0.5388326 -1.3357811 6 0.12567951 0.023428999 0.99179417 0.00015481233
-2.6075513 -0.53146076 -1.3366789 7 0.12559944 0.023733417 0.99179709 0.00015824687
-2.6177864 -0.52593702 -1.3411673 7 0.12552753 0.024014199 0.99179947 0.00015642791
-2.6104791 -0.51688892 -1.3366789 6 0.12547427 0.024404544 0.99179661 0.00016137317
-2.6120901 -0.50868517 -1.3366789 6 0.12539181 0.024809493 0.99179709 0.00016214118
-2.6117449 -0.5010519 -1.3357811 6 0.12535888 0.025125874 0.99179327 0.00016091707
-2.6166465 -0.49442008 -1.3375766 6 0.1252953 0.025470488 0.99179244 0.00015892858
-2.6145024 -0.48645833 -1.3357811 6 0.1252327 0.025885267 0.9917897 0.00015934093
-2.6229665 -0.47998551 -1.3393719 6 0.12511624 0.026227044 0.99179536 0.00015866174
-2.6278973 -0.4728331 -1.3411673 7 0.12503877 0.026563514 0.9917962 0.00015524151
-2.6222489 -0.46378928 -1.3375766 7 0.12498834 0.02696622 0.99179173 0.00015425798
-2.6305766 -0.45769063 -1.3411673 7 0.12493908 0.027262803 0.99178976 0.00015429062
-2.6284001 -0.44928053 -1.3393719 7 0.12488072 0.027651183 0.99178642 0.00015176894
-2.6348548 -0.44328785 -1.3420651 7 0.12477339 0.027973849 0.99179083 0.00015242964
-2.630944 -0.43413493 -1.3393719 7 0.12477022 0.028371319 0.99177992 0.00015097743
-2.6321459 -0.42678672 -1.3393719 7 0.12467413 0.028718071 0.99178201 0.00015205036
-2.6405342 -0.41963676 -1.3429627 7 0.12457826 0.029084856 0.99178338 0.00015142569
-2.63993 -0.41198626 -1.3420651 7 0.12450954 0.029387267 0.99178314 0.00014661241
-2.6322372 -0.40325916 -1.3375766 6 0.12449662 0.029787492 0.99177277 0.00015204135
-2.6315856 -0.39564112 -1.3366789 6 0.1244633 0.030058773 0.99176884 0.00015002236
-2.6309795 -0.38757128 -1.3357811 6 0.12428563 0.030425582 0.99177986 0.00014874552
-2.6427314 -0.38129452 -1.3411673 7 0.12412087 0.030816555 0.99178851 0.00014737595
-2.6368375 -0.37199149 -1.3375766 6 0.12411524 0.031281345 0.99177462 0.000147475
-2.6430495 -0.36628315 -1.3402696 7 0.12404806 0.031521369 0.99177539 0.00014800196
-2.6459582 -0.35821822 -1.3411673 7 0.12393026 0.03191217 0.99177772 0.00014549779
-2.6468868 -0.35128969 -1.3411673 7 0.12389603 0.032214634 0.99177212 0.0001465433
-2.6461451 -0.34320465 -1.3402696 7 0.12383489 0.032639705 0.99176592 0.0001433687
-2.6400599 -0.33445325 -1.3366789 6 0.12385221 0.03292872 0.99175423 0.00014402751
-2.6428711 -0.32637718 -1.3375766 6 0.12368587 0.03333931 0.99176121 0.00014401632
-2.6525884 -0.32052884 -1.3420651 7 0.12355608 0.033629488 0.99176759 0.00014507159
-2.6482027 -0.31202948 -1.3393719 6 0.12345622 0.033993512 0.99176764 0.00014503542
-2.6614923 -0.30606216 -1.3456559 7 0.12338783 0.034380883 0.99176276 0.0001413119
-2.6535599 -0.29670686 -1.3411673 6 0.12339363 0.034695562 0.99175107 0.00014479065
-2.6507742 -0.28937134 -1.3393719 6 0.12331696 0.035034411 0.99174869 0.00014356112
-2.6481159 -0.2806648 -1.3375766 6 0.1232087 0.035409339 0.99174881 0.00014203801
-2.6559525 -0.27446634 -1.3411673 7 0.12313884 0.035738751 0.99174571 0.00013908457
-2.6549768 -0.26640621 -1.3402696 6 0.12306242 0.036086872 0.99174261 0.00014159105
-2.6628256 -0.25968477 -1.3438605 7 0.12290247 0.036413468 0.99175048 0.00013939844
-2.6618488 -0.25114995 -1.3429627 6 0.12283699 0.036824986 0.99174339 0.00013970108
-2.6643198 -0.24387909 -1.3438605 7 0.12275879 0.037151471 0.99174094 0.00013863872
-2.6650317 -0.23597267 -1.3438605 7 0.12265846 0.037498977 0.99174023 0.00013794715
-2.6692016 -0.22930057 -1.3456559 7 0.122546 0.037843566 0.99174106 0.00013664149
-2.6734707 -0.22120915 -1.3474512 7 0.1224655 0.038213208 0.99173683 0.00013345537
-2.6705525 -0.21299087 -1.3456559 7 0.12232138 0.038497422 0.99174362 0.00013143665
-2.6622269 -0.20484732 -1.3411673 6 0.1223349 0.038763452 0.99173164 0.0001326373
-2.6681702 -0.19734342 -1.3438605 7 0.12220003 0.039144076 0.99173331 0.00013261261
-2.6651454 -0.18963784 -1.3420651 6 0.1221537 0.039486069 0.99172544 0.00012870354
-2.6728287 -0.18221544 -1.3456559 7 0.12202191 0.039777342 0.99173003 0.00012865193
-2.6750801 -0.17533405 -1.3465536 7 0.1219473 0.040063161 0.99172771 0.00013004987
-2.6738338 -0.16681841 -1.3456559 7 0.12182826 0.040422298 0.99172777 0.00012996771
-2.6725049 -0.15924452 -1.3447582 7 0.12177891 0.04065153 0.99172437 0.00012895261
-2.6783187 -0.15161723 -1.3474512 7 0.12165193 0.04102378 0.99172467 0.00012420547
-2.6715684 -0.14421932 -1.3438605 7 0.12162706 0.041315418 0.99171561 0.0001219848
-2.6737928 -0.13591623 -1.3447582 7 0.12148435 0.041616853 0.99172056 0.0001225984
-2.6777325 -0.12862103 -1.3465536 7 0.12142584 0.041894127 0.99171603 0.00012173419
-2.6834373 -0.12138499 -1.3492466 7 0.1213114 0.042226698 0.99171591 0.00011834449
-2.6802144 -0.11327147 -1.3474512 7 0.12126292 0.042506848 0.99170983 0.00011762015
-2.6787529 -0.10524829 -1.3465536 6 0.12118386 0.042834546 0.99170548 0.00011709912
-2.6861632 -0.098497368 -1.3501444 7 0.1210744 0.043157175 0.99170482 0.00011455295
-2.6882458 -0.09011782 -1.3510422 7 0.12101176 0.043467354 0.99169892 0.0001117834
-2.674196 -0.082171805 -1.3438605 6 0.12095187 0.043702163 0.99169594 0.00010864748
-2.6833475 -0.074953049 -1.348349 7 0.12083798 0.044073787 0.99169332 0.00010664444
-2.68893 -0.06665545 -1.3510422 7 0.1207083 0.044384867 0.99169528 0.00010612087
-2.6819685 -0.058520835 -1.3474512 7 0.1206554 0.04468286 0.99168831 0.00010032822
-2.6874731 -0.051602621 -1.3501444 7 0.12056828 0.044960156 0.9916864 9.7356919e-05
-2.6894016 -0.043657359 -1.3510422 7 0.12048246 0.045336973 0.99167967 9.4428506e-05
-2.6841578 -0.035606284 -1.348349 7 0.12039635 0.045532905 0.99168116 8.770157e-05
-2.6896181 -0.027227737 -1.3510422 7 0.12030725 0.04588858 0.99167556 8.6707463e-05
-2.6914673 -0.020200087 -1.3519398 7 0.12021646 0.046126641 0.9916755 8.4424748e-05
-2.6897283 -0.012205995 -1.3510422 7 0.12014776 0.046439175 0.99166924 8.0088539e-05
-2.6826019 -0.005150327 -1.3474512 6 0.12010756 0.046669446 0.99166334 7.7192031e-05
-2.691541 0.0032877347 -1.3519398 7 0.11998741 0.047031641 0.99166071 7.7507786e-05
-2.6897323 0.011266345 -1.3510422 7 0.11988311 0.047309197 0.99166018 7.6329263e-05
-2.6914742 0.019259831 -1.3519398 7 0.1197452 0.047584679 0.99166363 7.5996904e-05
-2.6967711 0.026829286 -1.3546329 7 0.11969358 0.047889289 0.99165523 7.3103423e-05
-2.6931117 0.034314625 -1.3528374 7 0.11960248 0.048159596 0.99165314 6.958079e-05
-2.6858499 0.042192314 -1.3492466 6 0.11952111 0.048412908 0.99165058 6.9318041e-05
-2.692878 0.049354918 -1.3528374 7 0.11945275 0.048671521 0.99164611 6.8646157e-05
-2.690923 0.057776358 -1.3519398 7 0.11932483 0.048954569 0.9916476 6.6943081e-05
-2.6889644 0.065247431 -1.3510422 6 0.11925393 0.049187161 0.99164468 6.7340021e-05
-2.692332 0.073322274 -1.3528374 7 0.11917184 0.049444653 0.9916417 6.1767132e-05
-2.6939173 0.08042407 -1.3537351 8 0.11908253 0.049730558 0.99163818 6.1387633e-05
-2.6900632 0.089238577 -1.3519398 6 0.11898336 0.049970645 0.99163795 6.2124847e-05
-2.700537 0.096664637 -1.357326 7 0.11891343 0.050238017 0.99163288 5.3420747e-05
-2.7020423 0.10427404 -1.3582238 7 0.11879753 0.050435286 0.99163675 5.0934617e-05
-2.6945586 0.11246424 -1.3546329 6 0.11869693 0.050630163 0.99163884 5.2240899e-05
-2.6906633 0.11982958 -1.3528374 6 0.118605 0.050831191 0.99163955 5.0746505e-05
-2.6867478 0.12717339 -1.3510422 6 0.11852653 0.05105627 0.99163741 5.0574505e-05
-2.6970682 0.13568351 -1.3564283 7 0.11843309 0.051365647 0.99163258 4.6955949e-05
-2.7002482 0.14340436 -1.3582238 7 0.11834719 0.051559638 0.99163276 4.498897e-05
-2.6980267 0.15131496 -1.357326 7 0.11828794 0.051781043 0.99162829 4.8067606e-05
-2.6975658 0.15931964 -1.357326 7 0.1181631 0.052050646 0.99162906 4.7046524e-05
-2.6952972 0.1672129 -1.3564283 7 0.11808571 0.052233465 0.99162865 4.7479061e-05
-2.6948502 0.17426817 -1.3564283 6 0.11799553 0.052463382 0.99162728 4.5330591e-05
-2.6925063 0.18261197 -1.3555306 6 0.11794569 0.052666582 0.99162245 4.1526731e-05
-2.6955516 0.19038218 -1.357326 6 0.11791009 0.052886765 0.99161494 3.771147e-05
-2.7021389 0.19843258 -1.3609167 7 0.11782101 0.053122658 0.99161291 3.1514897e-05
-2.7051024 0.20672163 -1.3627123 8 0.11775726 0.053330954 0.99160933 2.768454e-05
-2.693825 0.21342812 -1.357326 6 0.1176626 0.053488307 0.99161208 3.4996883e-05
-2.7020857 0.22215162 -1.3618145 7 0.11761137 0.053733718 0.99160492 2.8853907e-05
-2.6942916 0.22956115 -1.3582238 6 0.1175213 0.053909879 0.991606 3.0612955e-05
-2.6954205 0.23724101 -1.3591214 6 0.11745185 0.054100428 0.99160385 2.6900712e-05
-2.703604 0.24604684 -1.3636099 7 0.11741557 0.054303069 0.99159712 2.3594246e-05
-2.7064207 0.25440216 -1.3654053 7 0.11740787 0.05449301 0.99158752 1.7759392e-05
-2.6985383 0.26174116 -1.3618145 6 0.11731623 0.054619975 0.99159145 1.7801362e-05
-2.7085145 0.2698684 -1.3672007 7 0.11727753 0.05484011 0.99158388 1.1432145e-05
-2.7040975 0.27801001 -1.3654053 7 0.11722544 0.055008527 0.99158067 1.1070099e-05
-2.7050881 0.28574815 -1.366303 7 0.11716215 0.055156242 0.99158001 1.2247491e-05
-2.7060051 0.29396623 -1.3672007 7 0.11711489 0.055339914 0.99157536 1.0796031e-05
-2.6997926 0.30139846 -1.3645077 6 0.11704579 0.055502012 0.99157441 9.9466179e-06
-2.7060428 0.30974969 -1.3680984 7 0.11703175 0.055662211 0.99156713 6.1164237e-06
-2.7069421 0.31751356 -1.3689961 8 0.11696714 0.055823617 0.99156564 7.5147041e-06
-2.70948 0.32644376 -1.3707916 8 0.11692947 0.056006264 0.9915598 1.8517111e-06
-2.7051265 0.33262667 -1.3689961 7 0.11687716 0.056112953 0.99155992 6.2109257e-07
-2.7022951 0.34090051 -1.3680984 7 0.11683015 0.056247376 0.99155784 0
-2.6959543 0.3482295 -1.3654053 6 0.11672103 0.056343373 0.99156523 0
-2.7056649 0.3566874 -1.3707916 7 0.11677609 0.056521043 0.9915486 0
-2.7027595 0.36494738 -1.3698938 8 0.11674494 0.056623992 0.99154645 0
-2.7035003 0.37273714 -1.3707916 7 0.1167096 0.056748528 0.99154347 0
-2.7077587 0.38103256 -1.3734846 7 0.1166906 0.056868184 0.99153882 0
-2.7066159 0.38906446 -1.3734846 8 0.11663523 0.056991737 0.99153829 0
-2.7001448 0.39631498 -1.3707916 8 0.11657364 0.057087697 0.99154001 0
-2.6955628 0.40285444 -1.3689961 6 0.11650106 0.057148043 0.99154502 0
-2.6995845 0.41212949 -1.3716893 7 0.11651313 0.057302032 0.99153477 0
-2.7001886 0.41994134 -1.372587 6 0.11650268 0.057423051 0.99152899 0
-2.6990054 0.42748022 -1.372587 6 0.1164465 0.057529222 0.99152946 0
-2.704783 0.43662587 -1.3761778 7 0.11654721 0.057611033 0.99151289 0
-2.708766 0.44551951 -1.3788708 7 0.11651446 0.057728589 0.99150991 0
-2.7022231 0.45219734 -1.3761778 7 0.11646594 0.057800937 0.99151129 0
-2.6973457 0.45961207 -1.3743823 6 0.11634317 0.057876177 0.99152136 0
-2.7030141 0.46883512 -1.3779732 7 0.11648281 0.057943434 0.99150103 0
-2.699851 0.47654194 -1.3770754 8 0.1164031 0.058043323 0.99150461 0
-2.7055464 0.48534194 -1.3806663 7 0.11649735 0.058124281 0.9914887 0
-2.7023361 0.49304667 -1.3797685 7 0.11643413 0.058178712 0.99149299 0
-2.7078903 0.50236666 -1.3833594 7 0.11646132 0.05825042 0.9914856 0
-2.6977839 0.5078007 -1.3788708 7 0.11631259 0.058318663 0.99149895 0
-2.7015314 0.51681119 -1.3815639 6 0.11638911 0.058392007 0.99148571 0
-2.7017407 0.52516508 -1.3824617 7 0.11639184 0.058452159 0.99148184 0
-2.7036772 0.53387159 -1.3842571 7 0.11639305 0.058555305 0.99147564 4.7474614e-06
-2.6969185 0.54036641 -1.3815639 6 0.11624106 0.058647119 0.99148804 7.5736916e-06
-2.7024047 0.54931909 -1.3851548 7 0.11639101 0.058713872 0.99146652 6.5199579e-06
-2.7026105 0.55722451 -1.3860525 7 0.11639232 0.058746047 0.99146438 9.6868107e-06
-2.6973484 0.56497967 -1.3842571 7 0.11623322 0.058842301 0.99147743 1.4292409e-05
-2.7010047 0.57362324 -1.3869501 7 0.11632651 0.058893524 0.99146342 1.3958768e-05
-2.6887069 0.57984531 -1.3815639 6 0.11618885 0.05896572 0.99147522 1.6980659e-05
-2.6960127 0.58831877 -1.3860525 7 0.11618429 0.059026375 0.99147218 1.9426989e-05
-2.6976411 0.5975582 -1.3878479 7 0.11623356 0.05908737 0.99146277 1.9114395e-05
-2.6992381 0.60681427 -1.3896433 8 0.11623386 0.059141427 0.99145949 1.906927e-05
-2.6925189 0.61221939 -1.3869501 7 0.11617699 0.059179362 0.99146396 2.0312582e-05
-2.6992898 0.62268329 -1.3914387 8 0.116248 0.059252515 0.99145126 1.8945932e-05
-2.6956899 0.6302827 -1.390541 8 0.11618761 0.059308544 0.99145496 2.1727928e-05
-2.6921804 0.63739651 -1.3896433 7 0.11618054 0.059381716 0.99145138 2.228582e-05
-2.6990795 0.64699519 -1.3941318 7 0.11621574 0.059430983 0.99144435 2.2098464e-05
-2.691824 0.65420473 -1.3914387 7 0.11620221 0.059487112 0.9914425 2.0445865e-05
-2.693573 0.66210306 -1.393234 7 0.11618578 0.059543956 0.99144113 2.4997074e-05
-2.6915965 0.67009234 -1.393234 8 0.11619893 0.059595875 0.99143642 2.6938998e-05
-2.6895964 0.67807561 -1.393234 7 0.11620443 0.059667017 0.99143153 3.0513807e-05
-2.6912756 0.68599772 -1.3950294 7 0.11620277 0.05971637 0.99142867 3.4538753e-05
-2.6925685 0.69534248 -1.396825 7 0.11622445 0.059803642 0.99142087 3.314003e-05
-2.6887641 0.70287657 -1.3959272 7 0.11623419 0.059847828 0.99141705 3.5780351e-05
-2.6851869 0.70945704 -1.3950294 7 0.11623079 0.059893627 0.99141473 3.6336663e-05
-2.6847963 0.71788281 -1.3959272 7 0.11622204 0.05993133 0.99141347 3.9239254e-05
-2.682528 0.72631323 -1.3959272 7 0.11623786 0.059993062 0.99140787 3.7625381e-05
-2.6806173 0.73333383 -1.3959272 7 0.11621509 0.060032003 0.99140817 3.7158265e-05
-2.6820042 0.74176896 -1.3977226 7 0.11625907 0.060080387 0.99140012 3.507005e-05
-2.6796603 0.75019187 -1.3977226 7 0.11627941 0.060147479 0.99139363 3.580848e-05
-2.6811271 0.7581768 -1.399518 7 0.11630645 0.060164236 0.99138951 3.6373549e-05
-2.6770136 0.76610452 -1.3986204 8 0.11632282 0.060210321 0.99138474 3.4247365e-05
-2.6764452 0.7745409 -1.399518 8 0.11632173 0.06027329 0.99138105 3.3521166e-05
-2.6795552 0.78304875 -1.4022111 8 0.11637858 0.060294982 0.99137306 3.6245812e-05
-2.6719401 0.78994292 -1.399518 7 0.11639059 0.060320485 0.99137008 3.7644142e-05
-2.6748614 0.79893529 -1.4022111 7 0.11640481 0.060342044 0.9913671 4.0317413e-05
-2.6743307 0.80691826 -1.4031088 7 0.11641811 0.060354408 0.99136484 4.1441926e-05
-2.670073 0.81479508 -1.4022111 8 0.11643933 0.060365215 0.99136162 4.1419476e-05
-2.6643717 0.82119429 -1.4004157 8 0.11646015 0.060406771 0.99135667 3.9559091e-05
-2.6688941 0.83075631 -1.4040066 7 0.11646026 0.060435977 0.99135494 3.9750328e-05
-2.6595976 0.83652657 -1.4004157 6 0.11647657 0.060487512 0.99134988 3.6736019e-05
-2.6639173 0.84657943 -1.4040066 6 0.11651248 0.060505394 0.99134451 3.7961228e-05
-2.6666477 0.85565341 -1.4066995 7 0.11657549 0.060561962 0.99133366 3.4615954e-05
-2.6640973 0.86356121 -1.4066995 7 0.11659817 0.060601797 0.99132854 3.2166176e-05
-2.6652246 0.87164491 -1.4084951 7 0.11665402 0.060626697 0.99132043 3.0324094e-05
-2.6624732 0.88001305 -1.4084951 7 0.11667071 0.060668126 0.99131596 3.0606228e-05
-2.6617007 0.88801044 -1.4093927 7 0.11672936 0.060686197 0.99130791 2.7869526e-05
-2.655823 0.89429933 -1.4075973 7 0.11673261 0.060723282 0.99130529 2.2874716e-05
-2.664844 0.90666753 -1.4138812 8 0.11678565 0.060781498 0.99129552 2.8208875e-05
-2.6555405 0.91178435 -1.4102905 8 0.11680274 0.060835496 0.99129015 2.7275828e-05
-2.6563613 0.92036682 -1.4120859 7 0.11685795 0.060877014 0.99128109 2.8329374e-05
-2.6602044 0.9310686 -1.4156766 7 0.11691007 0.06093058 0.99127167 2.6455615e-05
-2.6527016 0.93624622 -1.4129835 8 0.11694331 0.060960371 0.99126589 2.9131463e-05
-2.6549628 0.94591177 -1.4156766 7 0.11693922 0.061014608 0.99126309 2.9998037e-05
-2.6504629 0.95318037 -1.4147789 8 0.1169662 0.061023396 0.99125934 2.6418134e-05
-2.6494708 0.96118784 -1.4156766 8 0.1169968 0.061093926 0.99125141 2.555179e-05
-2.6467764 0.96858233 -1.4156766 7 0.11701011 0.06111173 0.99124873 2.3883231e-05
-2.647244 0.97766906 -1.4174721 7 0.11704196 0.061170481 0.99124134 2.2394315e-05
-2.6460061 0.98614419 -1.4183698 7 0.11706579 0.061201315 0.99123663 2.3831653e-05
-2.6432421 0.9935289 -1.4183698 8 0.11707349 0.061247606 0.99123281 2.1782875e-05
-2.6386113 1.0007336 -1.4174721 8 0.1170814 0.061268684 0.99123061 1.9673003e-05
-2.6408145 1.010013 -1.4201651 7 0.11706679 0.061301377 0.99123031 2.1328882e-05
-2.6378059 1.0178441 -1.4201651 7 0.11707752 0.061313804 0.99122822 2.3165292e-05
-2.6381056 1.026963 -1.4219606 8 0.11712655 0.06130835 0.99122274 2.2045562e-05
-2.6352272 1.0343262 -1.4219606 7 0.11716639 0.061320595 0.99121737 2.2660362e-05
-2.6373141 1.0436541 -1.4246538 8 0.11718234 0.061320614 0.99121535 2.3028495e-05
-2.6290433 1.0499454 -1.4219606 8 0.11718915 0.061323572 0.99121445 2.5584382e-05
-2.627574 1.0584097 -1.4228582 8 0.11734476 0.061027873 0.99121433 2.9589717e-05
-2.6281061 1.0666288 -1.4246538 8 0.11736898 0.061058789 0.99120957 3.1346055e-05
-2.6247425 1.0748795 -1.4246538 7 0.11749174 0.060873467 0.99120641 3.5427445e-05
-2.6254127 1.0826527 -1.4264491 8 0.11782248 0.060374636 0.99119759 5.2092451e-05
-2.6203482 1.0902089 -1.4255514 8 0.11798137 0.06012053 0.99119419 5.6101031e-05
-2.6185586 1.0991268 -1.4264491 8 0.11817169 0.05972223 0.99119562 7.0376722e-05
-2.6171248 1.1071314 -1.4273467 8 0.11833674 0.059408415 0.99119473 8.2503888e-05
-2.617311 1.1158375 -1.4291422 8 0.11848558 0.059169821 0.99119127 8.704936e-05
-2.6172726 1.1250099 -1.4309376 8 0.11854891 0.059048008 0.99119097 8.7478249e-05
-2.6110384 1.1304375 -1.4291422 8 0.11865193 0.058802869 0.99119318 9.3371462e-05
-2.6158626 1.1417551 -1.4336307 8 0.1187409 0.058659539 0.99119109 9.6081858e-05
-2.6106269 1.1492468 -1.4327329 8 0.1187323 0.05852285 0.99120015 9.7542186e-05
-2.6043417 1.1546284 -1.4309376 8 0.11880199 0.058464535 0.99119526 0.00010082708
-2.6074307 1.1652682 -1.4345284 7 0.11961307 0.057710815 0.9911418 0.0001235387
-2.5988693 1.1712503 -1.4318353 8 0.11965659 0.057653744 0.99113989 0.000128821
-2.60251 1.1805506 -1.4354261 8 0.11988679 0.057369109 0.99112862 0.00013522535
-2.6004133 1.1894642 -1.4363238 7 0.12009589 0.057226483 0.99111152 0.00013626835
-2.5952497 1.1964265 -1.4354261 8 0.12025179 0.057067562 0.9911018 0.00014293721
-2.595351 1.2047215 -1.4372215 8 0.12029174 0.05705734 0.99109745 0.00014596977
-2.588316 1.211354 -1.4354261 7 0.12032852 0.057019148 0.99109524 0.0001511786
-2.5897729 1.220863 -1.4381193 7 0.12030052 0.056945201 0.99110293 0.00015323871
-2.5863535 1.2280904 -1.4381193 7 0.12032085 0.056919422 0.99110198 0.00015228818
-2.5859227 1.2373017 -1.4399146 8 0.12036264 0.056828603 0.9911021 0.00015465864
-2.5774105 1.2426406 -1.4372215 8 0.12043552 0.056813534 0.99109405 0.00015408115
-2.5819685 1.2537366 -1.44171 8 0.12053008 0.056602307 0.99109465 0.00015893544
-2.5782375 1.2613914 -1.44171 8 0.120568 0.056542836 0.99109346 0.00016441885
-2.5744834 1.2690358 -1.44171 8 0.12061297 0.056542352 0.99108797 0.00016691127
-2.5759554 1.2781549 -1.4444032 8 0.12066987 0.05639175 0.9910897 0.00017207555
-2.5687306 1.2846419 -1.4426078 8 0.12076283 0.056354064 0.99108052 0.00017201323
-2.5667291 1.2926141 -1.4435054 8 0.1208263 0.05627336 0.99107736 0.00017276064
-2.5647035 1.3005852 -1.4444032 7 0.1209295 0.05620487 0.99106866 0.00017272844
-2.5590131 1.3078227 -1.4435054 7 0.12099186 0.056205247 0.99106097 0.00017243793
-2.5601184 1.3174174 -1.4461985 8 0.12110897 0.056046262 0.99105573 0.00016933812
-2.5564296 1.3245616 -1.4461985 8 0.12114257 0.056100264 0.99104857 0.00017481348
-2.5506716 1.3317586 -1.4453009 7 0.12115118 0.056172729 0.99104345 0.00018076938
-2.5485246 1.339708 -1.4461985 8 0.12112714 0.05632798 0.99103755 0.0001834577
-2.5495121 1.3493278 -1.4488916 8 0.12107867 0.056452706 0.99103636 0.00018931383
-2.547075 1.3577267 -1.4497894 7 0.1210948 0.056758333 0.99101698 0.00019766664
-2.5482361 1.3669248 -1.4524825 8 0.12096452 0.057135206 0.99101114 0.00020488174
-2.5421174 1.3745177 -1.4515848 8 0.12085762 0.057284601 0.99101561 0.00020823361
-2.5351295 1.3799026 -1.4497894 8 0.12089642 0.057266977 0.99101192 0.00020835271
-2.5377784 1.3899685 -1.4533801 8 0.12083155 0.057248887 0.9910208 0.00021083697
-2.5336432 1.3974917 -1.4533801 7 0.12084628 0.057156831 0.99102432 0.00021547575
-2.5326104 1.4067388 -1.4551755 7 0.12076412 0.057419654 0.99101913 0.00022796555
-2.5286722 1.4138058 -1.4551755 8 0.12079269 0.057517737 0.99101001 0.00022954133
-2.5260234 1.4221792 -1.4560733 8 0.12075144 0.057837218 0.99099642 0.00024172914
-2.5233476 1.4305489 -1.4569709 8 0.12076189 0.057922959 0.99099016 0.00025012475
-2.5239995 1.4402472 -1.459664 7 0.1207414 0.058086429 0.99098307 0.00025287658
-2.5166159 1.4459491 -1.4578687 8 0.12073344 0.058104832 0.99098301 0.00025765892
-2.5156622 1.4547608 -1.459664 8 0.1206895 0.058341984 0.99097437 0.00026267915
-2.5146792 1.4635781 -1.4614594 8 0.12047395 0.058660604 0.99098182 0.00027253124
-2.5100689 1.4714706 -1.4614594 8 0.12036384 0.059083607 0.99097008 0.00028130546
-2.5074894 1.4793828 -1.4623572 8 0.12011706 0.059374351 0.99098259 0.00028874885
-2.5048852 1.4872918 -1.4632549 9 0.1196548 0.060065866 0.9909969 0.00031095321
-2.5004611 1.4947176 -1.4632549 8 0.11960742 0.060272969 0.99099004 0.00031702087
-2.4993401 1.5035371 -1.4650503 8 0.1195504 0.060475335 0.99098462 0.0003224962
-2.5009832 1.5146489 -1.468641 7 0.1195446 0.060778666 0.99096674 0.00033005094
-2.4888482 1.5174111 -1.4641526 8 0.11957614 0.061021611 0.99094802 0.00034176919
-2.4922178 1.5290287 -1.468641 8 0.11942158 0.061548896 0.99093401 0.00035650592
-2.4876702 1.5364159 -1.468641 8 0.11927511 0.061865833 0.99093193 0.00036432222
-2.4861362 1.5456778 -1.4704366 8 0.11913926 0.062358044 0.99091744 0.00037335791
-2.4772649 1.549771 -1.4677434 8 0.11912715 0.062526263 0.99090821 0.00038232579
-2.4804897 1.5614433 -1.472232 8 0.11887591 0.063042328 0.9909057 0.00039257479
-2.4710438 1.5663574 -1.4695388 8 0.1187734 0.062999755 0.99092072 0.00039583264
-2.4696736 1.5751739 -1.4713342 8 0.1187248 0.063624308 0.99088663 0.00041234973
-2.4727857 1.5868908 -1.4758227 8 0.11844261 0.064268634 0.99087888 0.00043171077
-2.4707906 1.596591 -1.4776181 8 0.11814849 0.064736389 0.99088353 0.00044912539
-2.4593885 1.5977556 -1.4731295 8 0.11825942 0.064691864 0.99087322 0.00045226322
