# .PCD v0.7 - Point Cloud Data file format
VERSION 0.7
FIELDS x y z intensity normal_x normal_y normal_z curvature
SIZE 4 4 4 4 4 4 4 4
TYPE F F F F F F F F
COUNT 1 1 1 1 1 1 1 1
WIDTH 572
HEIGHT 1
VIEWPOINT 0 0 0 1 0 0 0
POINTS 572
DATA ascii
-1.8225585 -3.4582527 -1.4228039 46 0.22035699 0.073609784 0.97263777 0.03842134
-1.8315285 -3.4258306 -1.4139113 57 0.22430964 0.079053536 0.97130615 0.041070022
-1.8562579 -3.4017932 -1.410491 30 0.22127526 0.080536835 0.97188026 0.042213783
-1.8518615 -3.3699174 -1.3995464 27 0.21747454 0.076816536 0.97303861 0.039893653
-1.8542471 -3.3492851 -1.3933901 30 0.21594879 0.078301266 0.97325993 0.039170068
-1.8666676 -3.3509862 -1.3961263 27 0.21376064 0.078144014 0.97375566 0.039336473
-1.8821188 -3.3552678 -1.4002305 33 0.21148582 0.078798302 0.97419947 0.040110439
-1.8994597 -3.3627598 -1.4057027 42 0.21240529 0.082251854 0.97371382 0.042529445
-1.9101143 -3.3610435 -1.4070709 35 0.212521 0.084073842 0.97353297 0.043022398
-1.9243989 -3.3615499 -1.409807 38 0.21260075 0.086087212 0.97333956 0.044274472
-1.9409344 -3.3672228 -1.4145952 38 0.21034251 0.08538305 0.97389209 0.044762671
-1.9487998 -3.3605046 -1.4139113 38 0.20827602 0.086022541 0.97427982 0.044727836
-1.9644482 -3.3644457 -1.4180156 38 0.20499304 0.083866715 0.9751637 0.044952318
-1.9719309 -3.3557062 -1.4166474 38 0.20405519 0.0862941 0.97514862 0.044770069
-1.9927745 -3.3695986 -1.4248559 49 0.20066155 0.084078439 0.97604597 0.045556985
-1.9937332 -3.3471749 -1.4180156 65 0.19828621 0.088344738 0.97615457 0.045231443
-1.9934101 -3.3254745 -1.4111751 61 0.19869475 0.090128191 0.97590846 0.044649757
-2.0085125 -3.3295503 -1.4152793 65 0.19673885 0.089924388 0.97632343 0.045244534
-2.0174074 -3.32197 -1.4145952 65 0.19400501 0.092517078 0.97662812 0.045442391
-2.0292158 -3.3191764 -1.4159634 53 0.1922221 0.092543982 0.97697818 0.04536834
-2.0434008 -3.3215003 -1.4193835 38 0.19078867 0.093097791 0.97720647 0.045875441
-2.0720472 -3.3457813 -1.4323803 38 0.18750106 0.090999283 0.9780401 0.046947267
-2.0859423 -3.3459978 -1.4351165 42 0.18490706 0.090900667 0.97854298 0.0474337
-2.0926986 -3.3373411 -1.4337485 53 0.18339105 0.093628719 0.97857106 0.047400564
-2.1021693 -3.3291607 -1.4330643 53 0.18109398 0.09711206 0.97865939 0.047417153
-2.1170778 -3.3308399 -1.4364846 49 0.17956525 0.09860903 0.97879136 0.047818307
-2.120296 -3.3154149 -1.4323803 53 0.17798977 0.099975772 0.97894049 0.047083683
-2.1331756 -3.3138499 -1.4344325 42 0.17510636 0.10128752 0.97932559 0.047253896
-2.1342483 -3.2952604 -1.4289601 57 0.17368431 0.10430423 0.97926223 0.046442863
-2.1388838 -3.2810421 -1.42554 61 0.17196329 0.10646334 0.97933358 0.046157829
-2.1484971 -3.2770028 -1.426224 57 0.1699667 0.10726222 0.97959489 0.046015676
-2.1587815 -3.2702367 -1.426224 53 0.16811647 0.10855579 0.97977167 0.045965139
-2.1637456 -3.2579336 -1.4234878 61 0.16702725 0.10808047 0.98001051 0.045642514
-2.1729257 -3.2495577 -1.4228039 61 0.16519336 0.1082686 0.98030055 0.045322653
-2.1819921 -3.2434769 -1.4228039 57 0.16278966 0.11024445 0.98048234 0.045335554
-2.1899874 -3.2358141 -1.4221196 57 0.16201805 0.11039638 0.98059309 0.045106646
-2.1979575 -3.2281325 -1.4214357 57 0.15975688 0.10932992 0.98108339 0.04370793
-2.2048395 -3.2188816 -1.4200677 61 0.15794131 0.11064583 0.98122984 0.043575868
-2.2138739 -3.2103915 -1.4193835 61 0.15426253 0.10703805 0.98221481 0.040484134
-2.2260926 -3.2065082 -1.4207517 57 0.15257972 0.10877743 0.98228651 0.04057914
-2.2334032 -3.1991289 -1.4200677 33 0.15108742 0.10699911 0.98271251 0.039341025
-2.2439659 -3.1940258 -1.4207517 28 0.14802547 0.10255461 0.98365188 0.036266144
-2.2512631 -3.1842842 -1.4193835 24 0.14705247 0.10318456 0.98373199 0.036179792
-2.2563243 -3.1737845 -1.4173315 19 0.14555536 0.10418239 0.98384941 0.035978649
-2.2597213 -3.1575103 -1.4132272 19 0.14442076 0.10384774 0.98405194 0.035253108
-2.271277 -3.1538417 -1.4145952 20 0.14346062 0.10484929 0.98408622 0.03533534
-2.2751172 -3.1417961 -1.4118592 18 0.14281367 0.10496525 0.98416799 0.034766644
-2.2844284 -3.1350322 -1.4118592 21 0.14092849 0.10623893 0.98430306 0.034700427
-2.2865081 -3.1195455 -1.4077549 28 0.14016208 0.10675821 0.98435634 0.034190487
-2.2963259 -3.1146607 -1.4084389 35 0.13899674 0.10757122 0.984433 0.034150366
-2.3027389 -3.1029041 -1.4063867 33 0.13723741 0.10868382 0.98455763 0.033788189
-2.3091469 -3.0934494 -1.4050188 28 0.13603348 0.10897363 0.98469269 0.033558562
-2.3155196 -3.0839829 -1.4036506 31 0.1348848 0.1092331 0.98482198 0.03332682
-2.3201284 -3.0711007 -1.4009145 33 0.13356978 0.11046813 0.98486346 0.033007085
-2.3326426 -3.0686917 -1.4029666 31 0.13223517 0.11120506 0.98496056 0.033103518
-2.3354948 -3.0547011 -1.3995464 31 0.13122736 0.11148473 0.98506373 0.03261739
-2.3479857 -3.0522268 -1.4015985 29 0.13021123 0.11205984 0.98513335 0.032648817
-2.3581822 -3.0467329 -1.4022826 24 0.12881191 0.11235379 0.98528373 0.032622635
-2.3638422 -3.0375822 -1.4009145 15 0.12809683 0.11095497 0.9855355 0.031609051
-2.3641021 -3.0183051 -1.3954422 14 0.12781069 0.10849863 0.98584604 0.030367278
-2.3776996 -3.0171821 -1.3981783 14 0.12608069 0.10915403 0.98599648 0.030534402
-2.3837812 -3.0075843 -1.3968102 13 0.12523159 0.10476818 0.98658031 0.028332302
-2.3891792 -2.9960902 -1.3947581 14 0.1247973 0.10301694 0.98681968 0.027322082
-2.3975368 -2.9894066 -1.3947581 14 0.12361058 0.10094686 0.98718292 0.025799457
-2.402195 -2.9760101 -1.392022 12 0.12338063 0.1013182 0.98717362 0.025485024
-2.4106438 -2.9715905 -1.3927059 13 0.12241095 0.10248343 0.98717409 0.025413636
-2.4152124 -2.95818 -1.3899698 14 0.12237562 0.10164328 0.98726535 0.024798764
-2.4234638 -2.9514236 -1.3899698 11 0.12165665 0.10197379 0.98732007 0.024397194
-2.4281065 -2.9402971 -1.3879176 12 0.12175126 0.10046407 0.98746318 0.023889596
-2.4373312 -2.9326549 -1.3879176 11 0.12135606 0.097713068 0.9877879 0.022901196
-2.4431012 -2.9229534 -1.3865497 11 0.12132686 0.096411392 0.98791939 0.02270814
-2.4488356 -2.9132421 -1.3851815 12 0.12178671 0.092608832 0.98822647 0.021568066
-2.4569609 -2.9063926 -1.3851815 12 0.12146822 0.089813977 0.9885236 0.020618748
-2.459991 -2.8915012 -1.3817613 11 0.12167891 0.083946928 0.98901325 0.018829685
-2.472729 -2.888042 -1.3838134 12 0.12164123 0.076249532 0.98964107 0.01647084
-2.4761004 -2.877718 -1.3817613 14 0.1219377 0.073075227 0.98984396 0.015323312
-2.4802089 -2.8642411 -1.3790252 12 0.1218823 0.072246537 0.98991168 0.015047353
-2.4876986 -2.8577387 -1.3790252 11 0.12169311 0.070761368 0.99004227 0.014588824
-2.4949288 -2.8489311 -1.3783412 10 0.1220925 0.068962134 0.99011999 0.014147312
-2.5008852 -2.8386958 -1.376973 11 0.12198181 0.067959525 0.99020296 0.014019586
-2.5097919 -2.8308244 -1.376973 11 0.12199261 0.064370267 0.99044138 0.013205335
-2.5151861 -2.8209991 -1.375605 11 0.1222778 0.060780998 0.99063301 0.012301642
-2.5243075 -2.8153646 -1.376289 11 0.12233241 0.058828514 0.99074417 0.011633839
-2.5313919 -2.8064663 -1.375605 11 0.12281764 0.05145194 0.99109465 0.0095075956
-2.5336804 -2.794261 -1.3728689 9 0.12311386 0.050001189 0.99113208 0.0091795297
-2.5411794 -2.7848988 -1.3721848 11 0.12335688 0.04665741 0.99126494 0.0085174656
-2.5468895 -2.7745776 -1.3708168 9 0.12349933 0.04408123 0.99136508 0.008137499
-2.5541451 -2.7679 -1.3708168 11 0.1235767 0.041787621 0.99145472 0.0076719308
-2.5605862 -2.7593787 -1.3701327 10 0.12393007 0.039596323 0.99150056 0.0072653894
-2.5671568 -2.7481258 -1.3687646 10 0.12444225 0.033110537 0.99167424 0.0058875917
-2.5704827 -2.7372859 -1.3667126 11 0.12469008 0.028577358 0.9917841 0.0049307421
-2.5760112 -2.7269151 -1.3653444 12 0.12479641 0.026763553 0.99182135 0.0046720416
-2.5815015 -2.7165351 -1.3639764 11 0.12478197 0.025365265 0.99185991 0.0044410466
-2.5899031 -2.7111261 -1.3646604 11 0.12486046 0.023601659 0.99189353 0.0042417822
-2.5927269 -2.6980093 -1.3619242 12 0.12549797 0.018798083 0.99191576 0.0034784439
-2.6007209 -2.6903043 -1.3619242 12 0.12572481 0.015541987 0.99194336 0.0028982311
-2.6056037 -2.6803362 -1.3605561 12 0.12610584 0.014024325 0.99191767 0.0027258259
-2.6192679 -2.6775117 -1.3632923 11 0.12648085 0.012369765 0.99189192 0.0025510655
-2.6188269 -2.662148 -1.3591881 11 0.12739109 0.0074313967 0.99182475 0.0019456963
-2.626251 -2.6548243 -1.3591881 11 0.12790775 0.005081655 0.99177307 0.0016453182
-2.6292741 -2.6412332 -1.3564519 10 0.12820895 0.0044372249 0.99173725 0.0015641969
-2.6366398 -2.6338801 -1.3564519 11 0.12847947 0.0033390883 0.99170655 0.0014733447
-2.6426518 -2.6251824 -1.3557678 11 0.12871607 0.0022127519 0.99167901 0.0013839687
-2.6464174 -2.6133683 -1.3537157 11 0.12900557 0.00066089298 0.99164367 0.0012704151
-2.6501358 -2.6015553 -1.3516636 11 0.12929468 -0.00059295841 0.99160606 0.0011709542
-2.6569371 -2.5946088 -1.3516636 11 0.12960741 -0.0016846316 0.99156398 0.0010769764
-2.6610298 -2.5823216 -1.3496114 11 0.1300714 -0.0030061095 0.99150008 0.00096928951
-2.6637244 -2.5714309 -1.3475593 10 0.13045312 -0.0045882077 0.99144381 0.00084828422
-2.6704338 -2.5617487 -1.3468753 11 0.1306276 -0.0061023394 0.9914127 0.00075048296
-2.6780229 -2.5538142 -1.3468753 10 0.13079882 -0.0076245004 0.99137962 0.00065638515
-2.681972 -2.5442078 -1.3455073 11 0.13117851 -0.0096151568 0.99131209 0.00048824376
-2.6885848 -2.5344796 -1.3448232 11 0.13157336 -0.012027887 0.99123341 0.00027466644
-2.6993234 -2.5312896 -1.3468753 11 0.13197631 -0.014051328 0.99115324 0.00010909706
-2.6999478 -2.5168624 -1.3434551 11 0.13218282 -0.01583207 0.99109894 3.8611674e-05
-2.7074037 -2.5088401 -1.3434551 11 0.13228758 -0.016282436 0.9910776 2.4989571e-05
-2.7134535 -2.4995224 -1.3427711 10 0.13226102 -0.01647909 0.9910779 2.6385344e-05
-2.7218089 -2.4932046 -1.3434551 11 0.13227059 -0.016588684 0.9910748 2.6673146e-05
-2.7250252 -2.4813225 -1.341403 10 0.13231929 -0.016703408 0.9910664 2.6856764e-05
-2.7319438 -2.4737029 -1.341403 11 0.13230804 -0.016814986 0.99106604 2.7524706e-05
-2.7304614 -2.4585185 -1.3372988 10 0.13231714 -0.016951734 0.99106246 2.8786395e-05
-2.7391443 -2.4516594 -1.3379828 10 0.13233231 -0.017031385 0.99105906 2.8572556e-05
-2.7454281 -2.4417937 -1.3372988 10 0.13235056 -0.01712794 0.99105501 2.9416798e-05
-2.7489965 -2.432107 -1.3359307 9 0.13235846 -0.017203648 0.99105257 2.9897612e-05
-2.751967 -2.4202163 -1.3338785 11 0.132355 -0.017251424 0.99105227 3.0439789e-05
-2.7587147 -2.4125218 -1.3338785 11 0.13234951 -0.017285191 0.99105245 3.0033192e-05
-2.7676985 -2.4050765 -1.3345625 10 0.13232121 -0.017327897 0.99105543 2.8382068e-05
-2.7744043 -2.3973379 -1.3345625 9 0.13234101 -0.017368121 0.99105203 2.6215097e-05
-2.7743766 -2.3829727 -1.3311424 10 0.13236077 -0.017434755 0.99104828 2.7858017e-05
-2.7795916 -2.3739951 -1.3304583 10 0.13234447 -0.01747361 0.99104977 2.8690485e-05
-2.7862101 -2.3662236 -1.3304583 10 0.1323424 -0.017487371 0.99104977 2.9504425e-05
-2.7921934 -2.3562472 -1.3297744 11 0.13235161 -0.017517557 0.99104798 2.8615943e-05
-2.7969127 -2.3477216 -1.3290902 10 0.13235529 -0.017505554 0.99104774 2.831876e-05
-2.8028319 -2.3377187 -1.3284062 10 0.13241999 -0.017545218 0.99103838 2.5310626e-05
-2.8050094 -2.3262832 -1.3263541 11 0.13241209 -0.017569315 0.99103904 2.4733041e-05
-2.8089983 -2.3155596 -1.324986 10 0.13245401 -0.017598664 0.9910329 2.2621629e-05
-2.8150504 -2.3081982 -1.324986 10 0.13245878 -0.017606126 0.99103218 1.8288874e-05
-2.8193746 -2.2969682 -1.3236179 10 0.13245928 -0.017644005 0.99103135 1.5133751e-05
-2.8257775 -2.2890866 -1.3236179 11 0.13250254 -0.017593773 0.99102652 1.502916e-05
-2.8310933 -2.2795136 -1.3229339 10 0.13253005 -0.017597668 0.99102277 1.403965e-05
-2.8326509 -2.2685692 -1.3208818 11 0.13248867 -0.017617006 0.99102795 1.1773649e-05
-2.8378983 -2.2589848 -1.3201977 10 0.13253093 -0.01758972 0.99102283 1.2147747e-05
-2.8460624 -2.2517207 -1.3208818 10 0.13261546 -0.017557153 0.99101204 1.1856668e-05
-2.852731 -2.2432661 -1.3208818 10 0.13268153 -0.017524635 0.99100381 9.4305942e-06
-2.8560226 -2.2329762 -1.3195137 10 0.13266657 -0.017545391 0.99100542 9.9232238e-06
-2.8630242 -2.2239919 -1.3195137 11 0.13271995 -0.017537266 0.99099845 1.2168121e-05
-2.8677359 -2.2148399 -1.3188297 10 0.13271721 -0.01750852 0.99099928 1.4200311e-05
-2.8709285 -2.2045338 -1.3174616 11 0.13272004 -0.01749187 0.99099928 1.1403529e-05
-2.8714805 -2.1914454 -1.3147254 10 0.13266532 -0.017507529 0.99100614 1.0171382e-05
-2.8835781 -2.1879623 -1.3174616 10 0.13277082 -0.017476385 0.99099261 1.5300975e-05
-2.8825545 -2.173739 -1.3140414 10 0.13269988 -0.017475858 0.99100226 1.2614813e-05
-2.8844798 -2.1617951 -1.3119893 10 0.13268122 -0.01746165 0.991005 9.6927633e-06
-2.8920121 -2.154855 -1.3126733 10 0.1327408 -0.017432889 0.99099749 1.1892456e-05
-2.8961337 -2.146157 -1.3119893 10 0.13275625 -0.017423103 0.99099559 6.67315e-06
-2.8998349 -2.1348195 -1.3106213 11 0.13278729 -0.017347055 0.99099278 7.1879017e-06
-2.9042687 -2.1256032 -1.3099371 11 0.13276997 -0.017290166 0.99099606 7.2634398e-06
-2.910563 -2.1169765 -1.3099371 10 0.13278665 -0.017218072 0.99099511 8.6611599e-06
-2.9153078 -2.1072311 -1.3092531 10 0.13277365 -0.017194416 0.99099725 7.7213599e-06
-2.921181 -2.0990815 -1.3092531 10 0.13284019 -0.017143629 0.99098921 4.238078e-06
-2.9224432 -2.0876391 -1.307201 11 0.13281554 -0.017141089 0.99099255 5.0667177e-06
-2.9316897 -2.0811343 -1.3085691 11 0.13284032 -0.017093925 0.99099004 7.9135716e-06
-2.936316 -2.0713432 -1.3078851 10 0.13284437 -0.017026283 0.9909907 7.0580563e-06
-2.9393711 -2.0604641 -1.3065169 10 0.13278808 -0.017010963 0.99099845 1.3750906e-05
-2.9435711 -2.0511737 -1.3058329 9 0.13278122 -0.016958492 0.99100029 1.6285096e-05
-2.944653 -2.0397353 -1.3037808 10 0.13272901 -0.016873391 0.9910087 1.584946e-05
-2.9525948 -2.0315394 -1.3044648 10 0.13275549 -0.016810393 0.99100626 1.7258613e-05
-2.9567049 -2.0222259 -1.3037808 10 0.13274351 -0.016766774 0.99100858 1.489279e-05
-2.9623406 -2.0139611 -1.3037808 10 0.13275619 -0.016646827 0.99100894 1.5685568e-05
-2.9670954 -2.0035927 -1.3030968 10 0.13273668 -0.016588263 0.99101251 1.6059936e-05
-2.9738913 -1.9968656 -1.3037808 9 0.13278654 -0.016520672 0.99100691 1.7254093e-05
-2.9735489 -1.9838613 -1.3010446 10 0.13274162 -0.016394107 0.99101508 1.5957632e-05
-2.9813342 -1.9755473 -1.3017287 10 0.13276066 -0.01632355 0.99101371 1.5810863e-05
-2.9845829 -1.9672227 -1.3010446 10 0.13275866 -0.016265279 0.9910149 1.7519751e-05
-2.9844587 -1.9537191 -1.2983085 10 0.1327336 -0.01615415 0.99102002 1.2883682e-05
-2.9918175 -1.9458805 -1.2989925 10 0.13275625 -0.016073454 0.99101835 1.22202e-05
-2.9921672 -1.9349797 -1.2969404 9 0.13271077 -0.015930468 0.99102676 1.3218223e-05
-2.9963143 -1.9250771 -1.2962563 10 0.13272265 -0.015854519 0.9910264 1.3612858e-05
-3.002347 -1.9156549 -1.2962563 10 0.13271816 -0.01572646 0.99102902 1.4988209e-05
-3.0089395 -1.908794 -1.2969404 10 0.13274398 -0.015678328 0.99102634 1.8358833e-05
-3.0129993 -1.8988565 -1.2962563 10 0.1327623 -0.015570344 0.99102557 1.8292121e-05
-3.0125773 -1.8853931 -1.2935201 11 0.13275924 -0.015463158 0.99102771 1.6799708e-05
-3.0203664 -1.8800133 -1.2948883 10 0.13278992 -0.015354471 0.99102527 1.8822759e-05
-3.0246594 -1.8695261 -1.2942042 9 0.13275808 -0.015285417 0.99103057 2.0481948e-05
-3.0285912 -1.8595608 -1.2935201 10 0.13275863 -0.015170129 0.9910323 2.3082146e-05
-3.0286365 -1.8486886 -1.291468 10 0.13275535 -0.015107693 0.99103373 2.4342738e-05
-3.0296082 -1.8362414 -1.289416 9 0.1327301 -0.014967786 0.99103922 2.5844734e-05
-3.0366528 -1.828214 -1.2901 10 0.13273558 -0.014884065 0.99103975 2.7814214e-05
-3.0398161 -1.8192925 -1.289416 9 0.13276112 -0.014761962 0.99103814 2.738994e-05
-3.0432694 -1.809836 -1.2887318 9 0.13273345 -0.014663341 0.99104327 2.7751379e-05
-3.0424669 -1.7964439 -1.2859957 10 0.13274735 -0.014440699 0.9910447 2.7550564e-05
-3.0474713 -1.7879412 -1.2859957 9 0.13276441 -0.014356322 0.99104369 2.4904877e-05
-3.0511391 -1.7779449 -1.2853117 10 0.13274504 -0.014217238 0.99104828 2.2626125e-05
-3.0547745 -1.7679427 -1.2846277 9 0.13274391 -0.014069353 0.99105048 2.5231111e-05
-3.056134 -1.7580655 -1.2832595 10 0.13272895 -0.013966431 0.991054 2.8272065e-05
-3.0597053 -1.7480576 -1.2825755 10 0.13274725 -0.013821078 0.99105358 2.6729274e-05
-3.0681477 -1.7408262 -1.2839437 9 0.1327567 -0.013740539 0.9910534 2.8906998e-05
-3.0697229 -1.7304057 -1.2825755 10 0.13277318 -0.0136055 0.99105304 2.8345579e-05
-3.0718634 -1.7189184 -1.2812074 10 0.13276634 -0.013422592 0.99105644 3.1680454e-05
-3.0717237 -1.7075938 -1.2791554 9 0.13274869 -0.013226027 0.99106145 3.4304114e-05
-3.0764804 -1.6990091 -1.2791554 9 0.13275217 -0.013104604 0.99106264 3.683403e-05
-3.0818024 -1.6893362 -1.2791554 10 0.13275248 -0.012957127 0.99106455 3.5690049e-05
-3.0862148 -1.681262 -1.2791554 9 0.13276273 -0.012824415 0.99106485 3.8326361e-05
-3.0878835 -1.6703091 -1.2777872 10 0.13274349 -0.012604353 0.99107027 4.2452342e-05
-3.0961373 -1.6629182 -1.2791554 10 0.13277227 -0.012519198 0.99106753 4.3922493e-05
-3.0957944 -1.6516116 -1.2771032 9 0.13276874 -0.012283506 0.99107093 4.0533025e-05
-3.1003947 -1.6429598 -1.2771032 10 0.13276447 -0.012191247 0.99107265 3.9788178e-05
-3.1005507 -1.6305878 -1.2750511 9 0.13276665 -0.011941808 0.99107534 3.9684506e-05
-3.1064746 -1.6233352 -1.2757351 9 0.1327651 -0.011811906 0.99107713 3.9601135e-05
-3.1096091 -1.6132452 -1.2750511 10 0.13274719 -0.011663621 0.9910813 3.8192899e-05
-3.1160526 -1.6048729 -1.2757351 10 0.13274226 -0.011523478 0.99108362 4.1324824e-05
-3.1138294 -1.5927413 -1.2729989 10 0.13272196 -0.011284586 0.99108905 4.0689043e-05
-3.1168659 -1.5826445 -1.2723149 9 0.13271432 -0.011103155 0.99109215 3.9384911e-05
-3.1232259 -1.5742351 -1.2729989 9 0.13269566 -0.010914734 0.99109674 4.1625608e-05
-3.1276102 -1.5655072 -1.2729989 9 0.132669 -0.010763781 0.99110198 4.1502855e-05
-3.128875 -1.5545485 -1.2716309 9 0.13265368 -0.010525451 0.99110657 3.8973449e-05
-3.1301026 -1.5435956 -1.2702628 9 0.13265008 -0.010316404 0.99110919 4.2186748e-05
-3.1341329 -1.5353962 -1.2702628 9 0.13263698 -0.01011129 0.99111313 3.969001e-05
-3.1333382 -1.5241716 -1.2682106 8 0.13263248 -0.0098991748 0.99111587 3.7906648e-05
-3.144881 -1.517588 -1.2709469 9 0.13260269 -0.0097249243 0.99112153 3.9564628e-05
-3.1440225 -1.5063636 -1.2688948 9 0.13257101 -0.0094739674 0.99112821 3.6610967e-05
-3.1450834 -1.4954143 -1.2675266 10 0.13257167 -0.0092468373 0.99113029 3.7000253e-05
-3.1495063 -1.4860766 -1.2675266 10 0.1325541 -0.0090161525 0.99113476 3.3365057e-05
-3.1536441 -1.4772756 -1.2675266 9 0.13257791 -0.0088073835 0.99113345 3.0089563e-05
-3.1543486 -1.4668779 -1.2661586 10 0.13255915 -0.0085359812 0.99113834 3.240546e-05
-3.156981 -1.4567249 -1.2654746 10 0.1325438 -0.0083043585 0.99114239 3.4578738e-05
-3.1578717 -1.4457865 -1.2641064 9 0.1324797 -0.0080213863 0.99115324 3.8303733e-05
-3.1655695 -1.4379658 -1.2654746 10 0.13248277 -0.0078297239 0.99115437 3.8550203e-05
-3.1678596 -1.4283475 -1.2647905 10 0.1324261 -0.0075873975 0.99116385 4.0498402e-05
-3.1666896 -1.4171922 -1.2627383 9 0.13242497 -0.0073176497 0.991166 3.6846272e-05
-3.1740701 -1.4098692 -1.2641064 9 0.13237049 -0.0070427391 0.99117529 3.4495686e-05
-3.1767635 -1.3991338 -1.2634224 10 0.13238309 -0.006785491 0.99117535 3.5667334e-05
-3.1806583 -1.390257 -1.2634224 9 0.13238417 -0.0065197046 0.99117702 3.5638361e-05
-3.1781123 -1.3772683 -1.2606862 10 0.1323285 -0.0061735064 0.99118668 3.9258564e-05
-3.1851602 -1.3704287 -1.2620543 10 0.13234578 -0.0059983525 0.99118549 3.9847804e-05
-3.1822979 -1.3580213 -1.2593181 9 0.13228793 -0.0056194374 0.99119538 4.3222601e-05
-3.1900101 -1.3494822 -1.2606862 10 0.1322947 -0.0053362092 0.99119604 4.6106183e-05
-3.1898324 -1.340228 -1.2593181 10 0.13225134 -0.0050517744 0.99120337 4.8845755e-05
-3.2009673 -1.3330895 -1.2620543 10 0.13228907 -0.004843636 0.99119937 4.5823705e-05
-3.1979599 -1.3207171 -1.2593181 9 0.13221958 -0.0044601951 0.9912104 5.1377847e-05
-3.203146 -1.313053 -1.2600023 10 0.13216637 -0.0041740583 0.99121869 4.9522067e-05
-3.2035451 -1.3021284 -1.2586341 10 0.13219291 -0.0037955486 0.99121678 4.6127025e-05
-3.2093637 -1.2927591 -1.2593181 10 0.13216813 -0.0034906208 0.99122119 4.647041e-05
-3.2092469 -1.2829579 -1.2579501 10 0.13213436 -0.0032000919 0.99122661 4.847263e-05
-3.2130392 -1.2734308 -1.2579501 10 0.13211185 -0.0028731741 0.99123067 5.6074728e-05
-3.2133055 -1.2625165 -1.256582 10 0.13211907 -0.0025597345 0.99123055 5.5047996e-05
-3.2183502 -1.2547829 -1.257266 10 0.13205217 -0.0022150443 0.99124032 5.8991744e-05
-3.2238123 -1.2459058 -1.2579501 10 0.13203262 -0.0018723009 0.9912436 5.7902151e-05
-3.2242005 -1.2344276 -1.256582 10 0.13200559 -0.0014924682 0.99124783 6.225305e-05
-3.2274213 -1.2259821 -1.256582 11 0.13197376 -0.0012530371 0.99125242 6.1554631e-05
-3.2255561 -1.2149771 -1.2545298 10 0.13191918 -0.00079687103 0.99126017 6.1181156e-05
-3.2313282 -1.2049305 -1.2552139 9 0.13185152 -0.00041705286 0.99126935 6.4373999e-05
-3.2362339 -1.1971194 -1.255898 11 0.13179918 -0.00012385217 0.99127644 6.810436e-05
-3.2377999 -1.1874301 -1.2552139 11 0.13173537 0.00021474538 0.99128485 6.8591136e-05
-3.239748 -1.1766115 -1.2545298 10 0.13167638 0.00060338597 0.9912926 7.0357681e-05
-3.2410488 -1.1674886 -1.2538458 10 0.13159695 0.00099024142 0.99130279 7.302739e-05
-3.2411604 -1.1560378 -1.2524778 10 0.13158031 0.0014799624 0.9913044 7.1190501e-05
-3.2498922 -1.1482952 -1.2545298 10 0.13150537 0.001821961 0.99131376 6.9084133e-05
-3.2475665 -1.1379174 -1.2524778 10 0.13143633 0.0021359576 0.99132228 7.0875161e-05
-3.2509282 -1.1282773 -1.2524778 10 0.13140319 0.0025227377 0.99132574 7.4676369e-05
-3.2560389 -1.1192374 -1.2531618 10 0.13128176 0.0030053749 0.99134052 7.6492688e-05
-3.2555938 -1.1089283 -1.2517937 10 0.13119681 0.0033798579 0.99135053 7.5565644e-05
-3.2572806 -1.0980953 -1.2511097 10 0.13115562 0.0038911682 0.99135423 7.9690028e-05
-3.2603345 -1.0889949 -1.2511097 10 0.13106677 0.0042613903 0.99136436 8.5679014e-05
-3.2633629 -1.0798857 -1.2511097 9 0.13105191 0.0046728314 0.99136448 8.6513828e-05
-3.2663653 -1.0707691 -1.2511097 10 0.13098288 0.0051215352 0.99137139 8.578143e-05
-3.2677402 -1.0604934 -1.2504256 9 0.13090324 0.0055566421 0.99137956 9.110989e-05
-3.2688999 -1.0507886 -1.2497417 11 0.13086891 0.0059930673 0.99138159 8.9737834e-05
-3.2686033 -1.039374 -1.2483735 10 0.13066766 0.0065092146 0.99140489 8.9105575e-05
-3.2695203 -1.0302488 -1.2476895 10 0.13056445 0.0068433136 0.99141622 8.987898e-05
-3.2743568 -1.0211028 -1.2483735 10 0.13059315 0.0072412658 0.99140954 9.2274553e-05
-3.2809639 -1.0124921 -1.2497417 10 0.13054277 0.0078587439 0.99141157 9.5555079e-05
-3.2767634 -1.0005571 -1.2470055 10 0.1303279 0.0081758164 0.99143726 9.7309552e-05
-3.2813439 -0.9919464 -1.2476895 10 0.13034941 0.0086092707 0.99143076 9.6717456e-05
-3.2788708 -0.98059124 -1.2456374 10 0.12998618 0.0090542836 0.99147451 9.6395946e-05
-3.2868328 -0.97360408 -1.2476895 9 0.13019313 0.0095433351 0.99144274 0.00010523874
-3.286268 -0.96221787 -1.2463214 9 0.12994553 0.010016631 0.99147052 0.00010802935
-3.2854979 -0.95141733 -1.2449533 10 0.1296135 0.010506391 0.99150896 0.00010576373
-3.2919199 -0.94270033 -1.2463214 10 0.12980583 0.011065744 0.99147767 0.00011156958
-3.2907605 -0.93305242 -1.2449533 10 0.12945172 0.01145453 0.99151957 0.00011246928
-3.298943 -0.92480689 -1.2470055 9 0.12974596 0.011989323 0.99147475 0.00011803678
-3.2924578 -0.91307962 -1.2435852 9 0.12918375 0.012400107 0.99154317 0.00011290451
-3.2969651 -0.90380329 -1.2442693 10 0.12918562 0.012941213 0.99153596 0.00011058908
-3.2978179 -0.89352608 -1.2435852 9 0.12905854 0.013376396 0.99154675 0.00010682604
-3.3022702 -0.88422334 -1.2442693 9 0.12905863 0.013888685 0.99153966 0.00011235249
-3.3047266 -0.87499803 -1.2442693 9 0.12904911 0.014339184 0.99153453 0.00011162507
-3.30549 -0.86471295 -1.2435852 9 0.12884927 0.014832496 0.99155325 0.00011174516
-3.3077424 -0.85605681 -1.2435852 9 0.12882327 0.015315472 0.99154925 0.00010990437
-3.3104155 -0.84566081 -1.2435852 10 0.12867951 0.015761461 0.99156094 0.0001113603
-3.3127642 -0.83641285 -1.2435852 10 0.12856832 0.016236844 0.99156773 0.00010931705
-3.31144 -0.82624924 -1.2422172 10 0.12846279 0.016656727 0.99157441 0.00010733878
-3.3158441 -0.81629109 -1.2429012 10 0.12844141 0.017139249 0.99156898 0.00010976043
-3.3181107 -0.80702811 -1.2429012 9 0.12837248 0.017620046 0.99156946 0.00010972797
-3.3204906 -0.79717934 -1.2429012 10 0.12829724 0.018137863 0.99156988 0.0001114909
-3.3227041 -0.78790343 -1.2429012 10 0.12815937 0.018620059 0.99157876 0.00011338515
-3.3229256 -0.77877361 -1.2422172 10 0.12802246 0.019064119 0.99158806 0.00011395301
-3.3216932 -0.76748496 -1.2408491 10 0.12781112 0.01952769 0.9916063 0.00011300542
-3.3312855 -0.75929558 -1.2435852 9 0.12794349 0.020086121 0.99157804 0.00011193689
-3.3314283 -0.75015932 -1.2429012 10 0.12779485 0.020517653 0.99158835 0.0001120724
-3.3337686 -0.73968953 -1.2429012 9 0.12770943 0.021059953 0.991588 0.00011186973
-3.3320222 -0.7301544 -1.241533 9 0.12745094 0.021434503 0.99161327 0.00011142361
-3.3286626 -0.71907413 -1.239481 8 0.12725948 0.021955868 0.99162644 0.00010480393
-3.3362961 -0.71036941 -1.241533 10 0.12724373 0.022410005 0.99161828 0.00011039437
-3.3383892 -0.70046711 -1.241533 9 0.12717262 0.022921897 0.99161571 0.00010823593
-3.3403323 -0.69114161 -1.241533 9 0.12710711 0.02339186 0.99161315 0.00010676072
-3.3423681 -0.68122822 -1.241533 10 0.12709761 0.023946501 0.99160111 0.0001073565
-3.3461001 -0.67226189 -1.2422172 9 0.12700903 0.024386045 0.99160177 0.00010751079
-3.3461208 -0.66254991 -1.241533 9 0.12685673 0.024748676 0.99161226 0.00011171981
-3.3463411 -0.65167511 -1.2408491 9 0.12673359 0.025293287 0.99161428 0.00010786996
-3.3407648 -0.64091122 -1.2381129 8 0.12640901 0.025806472 0.99164248 0.00010589928
-3.3443885 -0.63192827 -1.2387969 8 0.12638001 0.026230916 0.99163502 0.00010901877
-3.3516829 -0.6236192 -1.2408491 10 0.12644018 0.026704036 0.99161476 0.00011361815
-3.3572159 -0.61434829 -1.2422172 9 0.12644698 0.02721424 0.99160004 0.00011688947
-3.3590243 -0.60438353 -1.2422172 9 0.12636589 0.027592042 0.99159986 0.00011554787
-3.3589516 -0.59408766 -1.241533 10 0.12616673 0.028096482 0.99161106 0.00011562665
-3.3605974 -0.58470601 -1.241533 9 0.12607314 0.028555414 0.99160987 0.00011525914
-3.3623178 -0.57473135 -1.241533 9 0.12596627 0.029063921 0.99160868 0.00011363577
-3.3675175 -0.56655097 -1.2429012 10 0.126064 0.029468095 0.9915843 0.00011591826
-3.3655722 -0.55535674 -1.241533 9 0.12575261 0.02999394 0.99160808 0.00012045024
-3.3689649 -0.5462575 -1.2422172 9 0.12577792 0.030371685 0.99159342 0.00011990531
-3.3706646 -0.53566998 -1.2422172 9 0.12563621 0.030913299 0.99159461 0.00012392538
-3.3702903 -0.52596593 -1.241533 9 0.12550028 0.031328972 0.99159878 0.00012071888
-3.3773191 -0.51740581 -1.2435852 9 0.12566195 0.03188362 0.99156064 0.00012118375
-3.3787508 -0.50797236 -1.2435852 9 0.12561293 0.032339789 0.99155211 0.00012299577
-3.3765244 -0.49739799 -1.2422172 9 0.1252431 0.032709975 0.99158674 0.00011831754
-3.374265 -0.48684052 -1.2408491 8 0.12500757 0.033186015 0.99160063 0.00011657093
-3.3869436 -0.47781256 -1.2449533 9 0.12551974 0.033701241 0.99151856 0.00011790921
-3.3899627 -0.46979302 -1.2456374 9 0.12545034 0.034114838 0.99151319 0.00012053323
-3.387697 -0.45863718 -1.2442693 9 0.12526943 0.034553006 0.99152094 0.00011814611
-3.3888862 -0.4497664 -1.2442693 10 0.1251491 0.034991011 0.99152076 0.00011849237
-3.395797 -0.4404344 -1.2463214 10 0.12516026 0.035505716 0.99150109 0.00011503966
-3.3859022 -0.42893952 -1.2422172 8 0.12451091 0.035892416 0.99156886 0.00010905191
-3.3946934 -0.4192223 -1.2449533 9 0.12494732 0.036466297 0.99149305 0.00011201937
-3.3920479 -0.4098824 -1.2435852 9 0.12462921 0.036783583 0.9915213 0.00010539577
-3.3988485 -0.40047577 -1.2456374 9 0.12474959 0.037350655 0.991485 0.00010879623
-3.3999538 -0.3909826 -1.2456374 10 0.12467168 0.037723385 0.99148071 0.00011159435
-3.3992975 -0.38009122 -1.2449533 9 0.12452667 0.038193256 0.99148089 0.00011262492
-3.4058855 -0.37180296 -1.2470055 9 0.12457824 0.03862736 0.99145764 0.0001125835
-3.4051681 -0.36090222 -1.2463214 9 0.12448551 0.039029457 0.99145347 0.00011038312
-3.4117095 -0.35256636 -1.2483735 10 0.12440018 0.039484948 0.99144614 0.00010767714
-3.4090004 -0.34206659 -1.2470055 9 0.1242923 0.03989768 0.99144316 0.00010153612
-3.408072 -0.33236289 -1.2463214 8 0.12412847 0.040217552 0.99145079 9.8651704e-05
-3.4165835 -0.32236049 -1.2490575 9 0.12410991 0.040772349 0.99143046 9.6694326e-05
-3.4099844 -0.31213367 -1.2463214 10 0.12388239 0.041126288 0.99144429 9.046698e-05
-3.4146395 -0.30234599 -1.2476895 9 0.1239191 0.041579202 0.99142081 9.0602909e-05
-3.4116745 -0.29308349 -1.2463214 10 0.12375178 0.04190439 0.99142808 8.7022752e-05
-3.4219432 -0.2831395 -1.2497417 9 0.12375765 0.042399894 0.9914062 8.5017629e-05
-3.4190214 -0.27268529 -1.2483735 9 0.12367066 0.042736765 0.99140263 8.3044142e-05
-3.4197695 -0.26313707 -1.2483735 9 0.12362107 0.043167066 0.99139023 8.1310282e-05
-3.4242837 -0.25326717 -1.2497417 10 0.12351263 0.043545078 0.99138719 7.9655227e-05
-3.4268522 -0.24383692 -1.2504256 10 0.12340429 0.043978937 0.99138141 7.5148375e-05
-3.4238107 -0.23341234 -1.2490575 9 0.12334257 0.044335008 0.99137336 7.4860734e-05
-3.4244101 -0.22444776 -1.2490575 9 0.12335467 0.044594791 0.99136007 7.4633652e-05
-3.4288495 -0.21392326 -1.2504256 9 0.12322274 0.04512113 0.9913528 7.0692826e-05
-3.4313097 -0.20445883 -1.2511097 9 0.12317986 0.045482431 0.99134153 6.7760746e-05
-3.4375303 -0.1945955 -1.2531618 9 0.12304512 0.045959976 0.99133629 6.7071167e-05
-3.4342747 -0.18539251 -1.2517937 10 0.12299858 0.046179246 0.99133188 6.5442102e-05
-3.4329634 -0.17450695 -1.2511097 10 0.12294179 0.04652961 0.99132252 6.8395457e-05
-3.4371915 -0.16510054 -1.2524778 9 0.12284642 0.046946604 0.99131459 6.6235407e-05
-3.4395168 -0.15558615 -1.2531618 10 0.12279316 0.04731581 0.99130374 6.3634936e-05
-3.4399631 -0.14538004 -1.2531618 10 0.12269894 0.047667399 0.99129856 6.2301311e-05
-3.4385014 -0.13509884 -1.2524778 10 0.12264717 0.048027135 0.99128759 5.9855211e-05
-3.4407215 -0.12616584 -1.2531618 10 0.12261586 0.048344318 0.99127603 5.5815701e-05
-3.4448578 -0.11548165 -1.2545298 10 0.12257655 0.048687927 0.9912641 5.8311947e-05
-3.4414096 -0.10574649 -1.2531618 10 0.12253275 0.048928894 0.99125767 5.4905162e-05
-3.4454491 -0.096240573 -1.2545298 10 0.12247529 0.049261715 0.99124819 5.3584034e-05
-3.447613 -0.085462317 -1.2552139 9 0.12241881 0.049631048 0.99123681 5.7603596e-05
-3.4478512 -0.075232476 -1.2552139 10 0.12236249 0.049912915 0.99122959 5.6064822e-05
-3.4480364 -0.066206321 -1.2552139 10 0.12230564 0.050193019 0.99122244 5.352647e-05
-3.4463389 -0.055944808 -1.2545298 9 0.12225559 0.050418857 0.9912172 5.6476365e-05
-3.450248 -0.045768734 -1.255898 10 0.12220764 0.050792057 0.99120408 5.4784854e-05
-3.4597709 -0.035024203 -1.2593181 10 0.12213037 0.051112134 0.99119711 4.7157569e-05
-3.4579716 -0.025952877 -1.2586341 11 0.12213199 0.051406935 0.99118167 4.9175444e-05
-3.4561541 -0.015684038 -1.2579501 9 0.12206887 0.051684447 0.99117506 4.6673984e-05
-3.4599419 -0.0066427416 -1.2593181 9 0.12201679 0.051877718 0.99117136 4.3316846e-05
-3.4637043 0.004230937 -1.2606862 10 0.12200362 0.052140824 0.9911592 4.1215513e-05
-3.459918 0.014492383 -1.2593181 9 0.12196331 0.052374985 0.99115175 3.902633e-05
-3.4636183 0.024785191 -1.2606862 9 0.12191339 0.052644216 0.9911437 3.6309026e-05
-3.4635355 0.034457572 -1.2606862 10 0.12187124 0.052816514 0.99113965 3.5258778e-05
-3.4671843 0.044177573 -1.2620543 10 0.12185697 0.053064033 0.99112815 3.1507501e-05
-3.4651592 0.054434568 -1.2613703 9 0.12182196 0.053311411 0.99111921 2.9987388e-05
-3.4668837 0.063540854 -1.2620543 10 0.12179828 0.053488888 0.99111259 3.3942528e-05
-3.4647882 0.074391887 -1.2613703 10 0.12172753 0.053655062 0.99111229 3.4312921e-05
-3.4702034 0.084204108 -1.2634224 9 0.12169968 0.053881872 0.99110341 3.2521468e-05
-3.4643023 0.094345912 -1.2613703 10 0.12166858 0.054027241 0.99109936 3.144834e-05
-3.4734361 0.10369579 -1.2647905 10 0.12163413 0.054246772 0.99109155 2.9342948e-05
-3.473073 0.11521368 -1.2647905 10 0.12161985 0.054429173 0.99108332 2.4255171e-05
-3.469003 0.12417158 -1.2634224 9 0.1216088 0.054591246 0.99107569 2.1405254e-05
-3.4780326 0.13422014 -1.2668426 10 0.12159195 0.054738302 0.99106967 1.7551796e-05
-3.4719608 0.1449111 -1.2647905 10 0.12157124 0.054855857 0.99106568 1.5793767e-05
-3.477175 0.15485714 -1.2668426 10 0.12158998 0.05498777 0.99105608 1.5911963e-05
-3.4748516 0.16447718 -1.2661586 10 0.12158803 0.055101238 0.99105 1.4891008e-05
-3.4818568 0.17516446 -1.2688948 10 0.12157339 0.055255447 0.99104327 1.0421475e-05
-3.4757235 0.18458818 -1.2668426 10 0.12158088 0.0553925 0.99103469 8.7614062e-06
-3.4826663 0.19532035 -1.2695787 10 0.12155775 0.055517457 0.99103057 5.4096658e-06
-3.4858236 0.20587456 -1.2709469 10 0.12154713 0.055654194 0.99102414 9.2830032e-06
-3.4833217 0.21610098 -1.2702628 9 0.12155657 0.05576396 0.99101686 1.0177455e-05
-3.4827442 0.22521898 -1.2702628 9 0.12156104 0.055837408 0.99101216 1.2027739e-05
-3.4820194 0.23615856 -1.2702628 10 0.12155883 0.055966035 0.99100518 1.3936142e-05
-3.4813464 0.24588151 -1.2702628 10 0.1215378 0.056033753 0.99100393 1.3150024e-05
-3.4825201 0.25574017 -1.2709469 10 0.12151967 0.056204781 0.99099648 1.6222224e-05
-3.4836202 0.26621529 -1.2716309 10 0.12150504 0.056295015 0.99099308 1.8738989e-05
-3.4847367 0.27609101 -1.2723149 10 0.12150726 0.056385983 0.99098766 1.8592596e-05
-3.4895215 0.28689057 -1.274367 10 0.12152527 0.056467067 0.99098092 1.8740635e-05
-3.4886546 0.29724312 -1.274367 10 0.12152376 0.056532416 0.99097729 2.2347147e-05
-3.4840667 0.30665478 -1.2729989 9 0.12150566 0.056603685 0.99097544 1.7163055e-05
-3.4906285 0.31767157 -1.2757351 10 0.12151822 0.056686811 0.99096924 1.9248138e-05
-3.4915416 0.32820314 -1.2764192 9 0.12151157 0.056749038 0.99096644 1.9343237e-05
-3.4924228 0.33874294 -1.2771032 10 0.12151134 0.056801789 0.99096346 1.8309283e-05
-3.4840436 0.34713987 -1.274367 11 0.12148716 0.056853596 0.99096346 2.0294092e-05
-3.486675 0.35846734 -1.2757351 10 0.1215042 0.056929868 0.99095696 2.2475528e-05
-3.4856603 0.36820281 -1.2757351 10 0.12149756 0.056980401 0.99095488 2.6247186e-05
-3.4901574 0.37915242 -1.2777872 9 0.12153261 0.057025716 0.99094796 2.2824721e-05
-3.490885 0.38971415 -1.2784712 10 0.12154908 0.057088904 0.99094236 2.1024196e-05
-3.4879158 0.39924753 -1.2777872 10 0.12156269 0.05712888 0.99093837 1.9567111e-05
-3.4961207 0.41008103 -1.2812074 10 0.12156948 0.057142686 0.9909367 1.8676148e-05
-3.489217 0.4203881 -1.2791554 10 0.12158632 0.057215884 0.99093044 1.5433176e-05
-3.4937758 0.42960024 -1.2812074 11 0.12160531 0.05725022 0.99092609 1.7189261e-05
-3.4868147 0.4398694 -1.2791554 10 0.12163068 0.057301737 0.99092001 1.3748362e-05
-3.4892223 0.45069394 -1.2805234 10 0.12165619 0.057336867 0.99091488 8.3414134e-06
-3.4898939 0.46007225 -1.2812074 10 0.12168408 0.05736484 0.99090981 4.1482645e-06
-3.4902935 0.47128627 -1.2818915 10 0.12169868 0.057408351 0.99090552 3.6548058e-06
-3.4908257 0.48128727 -1.2825755 10 0.12172156 0.057412285 0.99090248 2.774176e-06
-3.487607 0.49077192 -1.2818915 10 0.12171102 0.057437461 0.9909023 7.0613255e-06
-3.4935765 0.50218666 -1.2846277 10 0.12174812 0.057469539 0.99089587 7.4542968e-06
-3.4883521 0.51200444 -1.2832595 10 0.12175719 0.057498954 0.99089301 4.708289e-06
-3.4888587 0.52141327 -1.2839437 9 0.12178995 0.057517096 0.99088794 4.5053757e-06
-3.4909191 0.53293782 -1.2853117 10 0.12181405 0.05751875 0.99088496 0
-3.48756 0.54239565 -1.2846277 11 0.12182871 0.057555724 0.99088097 9.9714998e-07
-3.4953134 0.55360287 -1.2880479 10 0.12189528 0.057511192 0.99087536 0
-3.4917998 0.56367195 -1.2873638 10 0.12190145 0.057517778 0.99087423 0
-3.4919667 0.57433504 -1.2880479 11 0.1219332 0.057519522 0.99087024 0
-3.494056 0.58470482 -1.289416 10 0.12199778 0.057510737 0.99086279 0
-3.4886007 0.5944373 -1.2880479 10 0.12198877 0.057502996 0.99086434 0
-3.4923766 0.60574931 -1.2901 10 0.12203802 0.057479039 0.99085969 0
-3.4905639 0.61610812 -1.2901 11 0.1220566 0.057466373 0.99085814 0
-3.4888299 0.62585342 -1.2901 10 0.12206519 0.057452511 0.9908579 0
-3.4851089 0.63586509 -1.289416 10 0.12210981 0.057436649 0.99085331 0
-3.4942939 0.64825988 -1.2935201 10 0.12221332 0.057393171 0.99084306 0
-3.4870441 0.65636218 -1.291468 10 0.12220009 0.057408668 0.99084377 0
-3.4924648 0.66811913 -1.2942042 11 0.12224765 0.057370268 0.99084014 0
-3.4867771 0.67776066 -1.2928362 11 0.12226947 0.057365134 0.99083775 0
-3.4884386 0.68883157 -1.2942042 10 0.12230995 0.057345647 0.99083388 0
-3.4901867 0.69930911 -1.2955723 10 0.1223579 0.057322435 0.99082929 1.5999443e-06
-3.4900622 0.70942658 -1.2962563 10 0.12237209 0.057289414 0.99082941 5.0430831e-06
-3.4917488 0.7199291 -1.2976243 11 0.12243963 0.057271063 0.9908222 4.8118277e-06
-3.4913094 0.73128068 -1.2983085 10 0.12248281 0.057273235 0.99081677 1.573054e-06
-3.4874153 0.74063641 -1.2976243 10 0.1224991 0.057283446 0.99081409 5.1280989e-07
-3.4887455 0.75238127 -1.2989925 10 0.12255447 0.057304345 0.9908061 5.1368397e-07
-3.4887328 0.76130462 -1.2996765 10 0.12255336 0.057318822 0.99080539 2.5362976e-06
-3.4881592 0.77266687 -1.3003606 10 0.1225749 0.057324193 0.99080235 2.4503322e-06
-3.4820468 0.78279716 -1.2989925 10 0.1225808 0.057341997 0.99080068 3.13999e-06
-3.4837894 0.79213685 -1.3003606 11 0.12264445 0.057335261 0.99079311 1.9896795e-06
-3.4867773 0.80434418 -1.3024126 11 0.12270328 0.057331841 0.99078602 5.3517506e-06
-3.4862056 0.81511414 -1.3030968 10 0.12271634 0.057368487 0.99078226 7.1267032e-06
-3.480258 0.82398063 -1.3017287 11 0.12271877 0.057376571 0.99078155 6.7450246e-06
-3.4834261 0.83501059 -1.3037808 11 0.12279204 0.057370815 0.99077278 8.9632958e-06
-3.4771333 0.84506166 -1.3024126 10 0.12279357 0.057396233 0.99077106 1.2199162e-05
-3.4803841 0.85550791 -1.3044648 11 0.12299715 0.057083413 0.9907639 1.6822774e-05
-3.4814777 0.86673892 -1.3058329 10 0.12311161 0.056859918 0.99076259 1.6801308e-05
-3.4788907 0.877065 -1.3058329 10 0.12330952 0.056453321 0.99076116 2.2339766e-05
-3.4765825 0.88617003 -1.3058329 11 0.12336055 0.056350045 0.99076074 2.9323424e-05
-3.4756017 0.89755696 -1.3065169 10 0.12344652 0.056200713 0.99075848 3.6287005e-05
-3.4747415 0.90834087 -1.307201 11 0.12364625 0.056024343 0.99074358 4.459975e-05
-3.4796195 0.91935521 -1.3099371 11 0.12415346 0.055329733 0.9907192 5.9644328e-05
-3.4786918 0.93016106 -1.3106213 11 0.12427848 0.055231426 0.99070901 6.078048e-05
-3.4775667 0.94157547 -1.3113052 11 0.12431996 0.055288024 0.99070066 6.4793945e-05
-3.4769025 0.95117277 -1.3119893 11 0.12436842 0.055316564 0.99069297 6.3874817e-05
-3.4760444 0.96137875 -1.3126733 11 0.12439668 0.055356368 0.99068725 6.5492204e-05
-3.4748166 0.97280204 -1.3133574 11 0.12441623 0.055313002 0.99068713 7.5708333e-05
-3.468641 0.98087233 -1.3119893 11 0.12448192 0.055035923 0.99069434 7.7115023e-05
-3.469156 0.99279886 -1.3133574 11 0.12453184 0.054937311 0.99069357 8.1568251e-05
-3.4734163 1.0051777 -1.3160936 11 0.12458991 0.054760166 0.99069601 7.8651959e-05
-3.4653614 1.0126857 -1.3140414 12 0.12461468 0.054722473 0.99069506 8.5312393e-05
-3.4657671 1.0246332 -1.3154094 11 0.12468413 0.054493282 0.99069893 8.6175365e-05
-3.4682949 1.0359203 -1.3174616 10 0.12470226 0.05434899 0.99070454 9.249305e-05
-3.4635892 1.0450588 -1.3167775 10 0.1246975 0.054399911 0.99070239 9.9595163e-05
-3.4620862 1.0564845 -1.3174616 11 0.12466166 0.0544727 0.99070293 0.00011182966
-3.4609187 1.0667005 -1.3181456 11 0.12473543 0.054317631 0.99070209 0.00011641307
-3.4561322 1.0758027 -1.3174616 10 0.12460487 0.054580644 0.99070412 0.00013484669
-3.458303 1.0877444 -1.3195137 11 0.12456206 0.054590102 0.99070895 0.000145538
-3.4568517 1.09857 -1.3201977 11 0.12454557 0.054752443 0.99070209 0.00015054949
-3.4573493 1.1093677 -1.3215657 11 0.12451658 0.054703336 0.99070841 0.00015396085
-3.4558306 1.1201998 -1.3222499 11 0.12453829 0.054636702 0.99070936 0.00015286042
-3.4493132 1.1280761 -1.3208818 11 0.12458961 0.054591179 0.99070543 0.00015633425
-3.4511058 1.1406755 -1.3229339 12 0.12477856 0.054356135 0.99069458 0.00016160806
-3.4461238 1.1497139 -1.3222499 11 0.12483804 0.054294981 0.99069035 0.00016523497
-3.4500241 1.161732 -1.324986 11 0.12496589 0.054226801 0.99067801 0.00017471041
-3.4481368 1.1731695 -1.32567 11 0.12524314 0.054004893 0.99065512 0.00018398139
-3.4448473 1.1827942 -1.32567 11 0.1250589 0.054395452 0.99065709 0.000205695
-3.4433069 1.1930251 -1.3263541 11 0.12499258 0.054601148 0.99065417 0.00022153762
-3.4501851 1.2075609 -1.3304583 10 0.12500283 0.054736 0.99064541 0.00023213172
-3.4363782 1.2128376 -1.3263541 11 0.12473587 0.05496522 0.99066633 0.0002471655
-3.4398463 1.2255504 -1.3290902 11 0.12490969 0.054791611 0.99065405 0.0002561732
-3.432658 1.2344795 -1.3277222 11 0.12464827 0.054995704 0.99067563 0.00026654304
-3.4433308 1.2491883 -1.3331945 11 0.12444428 0.055744201 0.99065948 0.00029798999
-3.4345343 1.2568607 -1.3311424 10 0.12430187 0.055941589 0.99066627 0.00031557193
-3.4325533 1.2676961 -1.3318264 11 0.12412547 0.056359414 0.99066472 0.00032830064
-3.4340596 1.2798451 -1.3338785 10 0.12407683 0.056483459 0.99066365 0.00033501277
-3.4304724 1.2894292 -1.3338785 11 0.1237791 0.057536773 0.99064022 0.00036321289
-3.4283888 1.3002687 -1.3345625 11 0.12377267 0.057572663 0.99063903 0.00036436462
-3.4265001 1.3105084 -1.3352467 11 0.12373136 0.057823867 0.99062955 0.00037509395
-3.4243498 1.3213459 -1.3359307 12 0.12357085 0.058043439 0.99063677 0.00038498038
-3.418663 1.3308188 -1.3352467 11 0.12357122 0.058155626 0.99063015 0.00039015294
-3.4219306 1.3431071 -1.3379828 11 0.12310125 0.058827214 0.99064904 0.00041271135
-3.4234095 1.3547325 -1.340035 11 0.12291136 0.059438605 0.99063605 0.00043200198
-3.4226274 1.3668742 -1.341403 11 0.12293097 0.059715185 0.99061704 0.00044726938
-3.4133265 1.3749177 -1.3393508 12 0.12263909 0.059623111 0.99065876 0.00045739865
-3.4131985 1.385262 -1.3407189 12 0.12247186 0.060425919 0.99063075 0.00047678221
-3.4140472 1.3981141 -1.3427711 12 0.12207399 0.061554182 0.99061048 0.00051347981
-3.4175706 1.4093183 -1.3455073 12 0.12183061 0.062145632 0.99060345 0.00053496263
-3.4148614 1.42077 -1.3461913 12 0.1212553 0.06311404 0.9906128 0.00056084222
-3.4051826 1.4293084 -1.3441392 12 0.12111315 0.063335426 0.99061608 0.0005659422
-3.4098322 1.4424732 -1.3475593 12 0.12037542 0.06436602 0.99063957 0.00060166023
-3.400604 1.4497787 -1.3455073 12 0.12024646 0.064424403 0.99065143 0.00059945695
-3.4014676 1.4620888 -1.3475593 12 0.12003412 0.065005504 0.99063921 0.00062074221
-3.3976285 1.4709883 -1.3475593 12 0.12005297 0.065423131 0.99060947 0.00062861328
-3.3949709 1.4818155 -1.3482434 12 0.11981914 0.06639532 0.99057311 0.00064800499
-3.3988996 1.4962592 -1.3516636 12 0.11955305 0.067049339 0.99056119 0.00072440179
-3.3966892 1.5059136 -1.3523476 12 0.11945749 0.067880005 0.99051619 0.00073829968
-3.3956373 1.5175198 -1.3537157 12 0.11940815 0.068228476 0.99049813 0.00075260957
-3.3925669 1.5289516 -1.3543998 13 0.11929337 0.068594679 0.99048668 0.00076423626
-3.387109 1.5364605 -1.3537157 12 0.11923666 0.069136351 0.99045587 0.00076349848
-3.3908107 1.5510027 -1.3571359 13 0.11865573 0.070159003 0.99045366 0.00078918919
-3.3861938 1.5610567 -1.3571359 13 0.11858804 0.070820324 0.99041474 0.00079507788
-3.3786862 1.5683335 -1.3557678 27 0.11864822 0.07105644 0.9903906 0.00079590076
-3.3754444 1.5797369 -1.3564519 26 0.11853528 0.071399279 0.99037945 0.00080692983
-3.3744202 1.5907589 -1.35782 28 0.11845311 0.071858346 0.99035615 0.0008195042
-3.3716624 1.6009822 -1.3585039 28 0.11828639 0.072399624 0.9903366 0.00082569476
-3.3668973 1.6109793 -1.3585039 26 0.11823464 0.072291769 0.99035066 0.00086145854
-3.3637955 1.6217785 -1.3591881 24 0.11783319 0.073085234 0.99034029 0.0008780511
-3.3626347 1.6328076 -1.3605561 26 0.11727788 0.07408838 0.99033165 0.00088908413
-3.3543992 1.6411252 -1.3591881 28 0.11749244 0.074301884 0.99029022 0.0008875425
-3.3562577 1.6543945 -1.3619242 28 0.11695874 0.075139411 0.99029016 0.00090600725
-3.3535986 1.6640111 -1.3626082 26 0.11671902 0.075662479 0.99027872 0.00091998401
-3.3533974 1.6770598 -1.3646604 23 0.11644603 0.076386727 0.99025518 0.00093581562
-3.3537366 1.688954 -1.3667126 18 0.1162834 0.077075809 0.99022096 0.00094830332
-3.3590641 1.703413 -1.3708168 13 0.11586285 0.078179538 0.99018377 0.00095151295
-3.3587165 1.7165234 -1.3728689 11 0.11547715 0.078768201 0.9901821 0.00096173363
-3.3488965 1.7233164 -1.3708168 11 0.11547497 0.078787223 0.99018079 0.00097534189
-3.3540828 1.7378492 -1.3749208 12 0.11501407 0.080073893 0.99013126 0.00097956986
-3.3469412 1.7475075 -1.3742369 12 0.11502597 0.08083643 0.9900679 0.00097792107
-3.3453753 1.7585963 -1.375605 12 0.11490134 0.081434876 0.99003339 0.00097423256
-3.3437729 1.7696898 -1.376973 14 0.11497048 0.082060866 0.98997366 0.00098150794
-3.3418252 1.7813709 -1.3783412 12 0.11478747 0.082661413 0.98994493 0.00098635536
-3.3454304 1.7945557 -1.3817613 15 0.1145998 0.083267011 0.98991591 0.00099013466
-3.3394608 1.8056397 -1.3817613 15 0.1145939 0.083877787 0.98986501 0.00098985352
-3.3393576 1.817654 -1.3838134 15 0.11441092 0.084636509 0.98982161 0.00098845072
-3.3411818 1.8300012 -1.3865497 24 0.11429001 0.085164614 0.98979026 0.00099208765
-3.3357375 1.839906 -1.3865497 28 0.11408627 0.085711814 0.9897666 0.00099028624
-3.3351924 1.8525331 -1.3886019 31 0.11399549 0.086308338 0.98972517 0.00099033653
-3.338208 1.8664255 -1.392022 35 0.11382242 0.086709343 0.98971003 0.00099512259
-3.3310177 1.8754001 -1.391338 33 0.1137326 0.087079898 0.9896878 0.00098424044
-3.330344 1.8880553 -1.3933901 41 0.11349449 0.087770626 0.98965412 0.00097917975
-3.3266904 1.8982794 -1.3940741 37 0.11333796 0.087502711 0.98969585 0.00098294544
-3.316155 1.9053329 -1.392022 41 0.11316763 0.087580375 0.98970842 0.00097419432
-3.3075669 1.9127045 -1.3906538 41 0.11286896 0.087864846 0.98971736 0.0009782674
-3.3038371 1.9228791 -1.391338 41 0.1125212 0.087580264 0.98978209 0.00097340089
-3.2994015 1.9341987 -1.392022 41 0.11188188 0.087707244 0.98984337 0.00096603058
-3.2778006 1.9338553 -1.3851815 31 0.11178204 0.087319538 0.98988891 0.0009639624
-3.2675395 1.9401226 -1.3831295 33 0.11164041 0.087531671 0.98988616 0.0009749686
-3.2504766 1.9430593 -1.3783412 29 0.11165845 0.08748135 0.98988861 0.00097207847
-3.2434273 1.9511602 -1.3776572 22 0.11176734 0.087856129 0.98984313 0.00098308432
-3.2311938 1.9568801 -1.3749208 21 0.11279508 0.087904699 0.98972219 0.00099067448
-3.2205596 1.9635239 -1.3728689 21 0.11307281 0.087738656 0.9897052 0.00098169339
-3.2006462 1.9636648 -1.3667126 28 0.1147464 0.087276861 0.98955345 0.00096785038
-3.1900091 1.9701891 -1.3646604 28 0.11498516 0.087366126 0.98951787 0.00097141776
-3.1793611 1.9766687 -1.3626082 30 0.11505394 0.08768326 0.98948175 0.00097199343
-3.1690488 1.9825493 -1.3605561 32 0.11535196 0.087971836 0.98942143 0.00096834695
-3.1587284 1.9883877 -1.3585039 32 0.1155148 0.088329695 0.98937064 0.00096940075
-3.1492918 1.9962885 -1.3571359 30 0.11560139 0.08868365 0.9893288 0.00097093591
-3.1405358 2.0030541 -1.3557678 28 0.11550555 0.088908002 0.98931986 0.00097199646
-3.1380932 2.0138466 -1.3571359 26 0.11552952 0.089198835 0.98929083 0.00097344676
-3.1396439 2.028795 -1.3605561 25 0.1156647 0.089701809 0.98922962 0.00098466373
