# .PCD v0.7 - Point Cloud Data file format
VERSION 0.7
FIELDS x y z intensity normal_x normal_y normal_z curvature
SIZE 4 4 4 4 4 4 4 4
TYPE F F F F F F F F
COUNT 1 1 1 1 1 1 1 1
WIDTH 215
HEIGHT 1
VIEWPOINT 0 0 0 1 0 0 0
POINTS 215
DATA ascii
3.7189963 -0.409924 -2.2189033 1 0.14173032 -0.003014419 0.98990077 0.00012511066
3.688632 -0.41831023 -2.20156 1 0.14182547 -0.0034598452 0.98988563 0.00012872227
3.67378 -0.42702025 -2.1933987 1 0.14185594 -0.0039957049 0.98987925 0.0001316784
3.6708651 -0.43707439 -2.1923785 1 0.14181156 -0.00436561 0.98988402 0.00012917012
3.6507685 -0.44567108 -2.1811564 1 0.14184067 -0.0046387627 0.98987865 0.00012856617
3.651217 -0.45607749 -2.1821766 1 0.1418266 -0.0050835544 0.98987848 0.00013099567
3.6482224 -0.46605375 -2.1811564 1 0.14178264 -0.0052664075 0.98988378 0.00012454859
3.6569746 -0.47885275 -2.1872776 1 0.14145364 -0.0052351826 0.98993099 0.00012521353
3.6454778 -0.48705813 -2.1811564 1 0.14163539 -0.0056384439 0.98990285 0.00012350314
3.6440165 -0.49787232 -2.1811564 1 0.14144209 -0.0056483899 0.98993039 0.00011606978
3.6424344 -0.50931787 -2.1811564 1 0.14133902 -0.0060295486 0.98994297 0.00011869868
3.6290772 -0.51778662 -2.174015 1 0.14113683 -0.0066443058 0.98996782 0.00011953287
3.6259146 -0.52767122 -2.1729949 1 0.14114408 -0.006917289 0.98996496 0.00011779086
3.6328411 -0.53969109 -2.1780958 1 0.14099497 -0.0069221142 0.98998612 0.00011479451
3.627918 -0.54931873 -2.1760554 1 0.14084506 -0.0072378623 0.9900052 0.00011457031
3.6245725 -0.55981797 -2.1750355 1 0.14082658 -0.0074436292 0.99000633 0.00011168392
3.6313918 -0.57190794 -2.1801362 2 0.14075303 -0.0076475083 0.99001521 0.00011284356
3.6211865 -0.58131665 -2.1750355 2 0.1407678 -0.007773852 0.99001217 0.00011176886
3.6231506 -0.59071672 -2.1770756 2 0.14069241 -0.0077933269 0.99002272 0.00011223733
3.626368 -0.60294265 -2.1801362 2 0.14070033 -0.007943159 0.99002033 0.00011415259
3.6161897 -0.61163265 -2.1750355 2 0.14061388 -0.008056608 0.99003178 0.00011038593
3.6178579 -0.62231183 -2.1770756 2 0.14060156 -0.0081832781 0.99003243 0.00010493954
3.6175792 -0.63397145 -2.1780958 2 0.14064501 -0.0083608171 0.99002475 0.00011213838
3.607327 -0.64256275 -2.1729949 2 0.14039685 -0.0085291676 0.9900586 0.00010758321
3.6139822 -0.65416586 -2.1780958 2 0.14050692 -0.0086100372 0.99004227 9.7713164e-05
3.6085258 -0.66489285 -2.1760554 2 0.1404175 -0.0088453274 0.99005288 9.8320386e-05
3.608346 -0.67528349 -2.1770756 2 0.14045364 -0.0089808293 0.99004644 9.6531054e-05
3.6047561 -0.68503618 -2.1760554 2 0.14046159 -0.0091182031 0.99004412 9.9732773e-05
3.6010189 -0.6954025 -2.1750355 2 0.14042929 -0.0092317956 0.99004775 9.599638e-05
3.5956862 -0.70479393 -2.1729949 2 0.14035 -0.0094101941 0.99005729 9.7292032e-05
3.593704 -0.71483219 -2.1729949 2 0.14034423 -0.0095473425 0.99005675 0.00010074164
3.5931268 -0.72645944 -2.174015 2 0.1402775 -0.00965109 0.99006516 9.6780495e-05
3.5944545 -0.73718184 -2.1760554 2 0.14027752 -0.0098109879 0.99006361 0.00010096555
3.5921209 -0.74847043 -2.1760554 2 0.1401522 -0.0098976567 0.99008048 9.7235396e-05
3.5801823 -0.75511533 -2.1699343 2 0.1401341 -0.010026451 0.99008179 0.00010219747
3.579474 -0.76671934 -2.1709545 2 0.14004241 -0.01007995 0.99009424 0.00010192255
3.5790005 -0.77707714 -2.1719749 2 0.14004827 -0.010259031 0.99009156 9.9589997e-05
3.5751362 -0.78669882 -2.1709545 2 0.1400006 -0.010319302 0.99009764 9.2948307e-05
3.576005 -0.79867649 -2.1729949 2 0.13999359 -0.010407315 0.9900977 9.5210729e-05
3.5601976 -0.80624366 -2.1648335 2 0.13995939 -0.010478427 0.99010181 9.0213616e-05
3.5681348 -0.81786746 -2.1709545 3 0.13997015 -0.0106337 0.9900986 8.3684339e-05
3.5573146 -0.82650417 -2.1658537 3 0.13998714 -0.010729458 0.9900952 8.0811915e-05
3.5566671 -0.83682883 -2.1668737 3 0.13996583 -0.010787027 0.99009764 7.7456374e-05
3.5556939 -0.84839749 -2.1678939 3 0.13994856 -0.010879798 0.99009907 7.2082184e-05
3.5516388 -0.85791963 -2.1668737 3 0.13999915 -0.010956196 0.99009103 7.434962e-05
3.550597 -0.86948228 -2.1678939 3 0.14007197 -0.011026764 0.99007994 6.9693306e-05
3.5384429 -0.87567598 -2.161773 3 0.14013445 -0.010984388 0.99007159 6.8538706e-05
3.539011 -0.88762498 -2.1638131 3 0.14023913 -0.011203991 0.99005425 6.9337941e-05
3.5346944 -0.8976981 -2.1627932 3 0.14028218 -0.011156841 0.99004871 6.4380591e-05
3.5271757 -0.90628099 -2.1597326 5 0.14038731 -0.011301777 0.9900322 6.4088352e-05
3.5329561 -0.91829097 -2.1648335 5 0.14039706 -0.011438816 0.99002916 6.5880282e-05
3.525063 -0.92807168 -2.161773 5 0.14055242 -0.011592304 0.99000537 7.1340713e-05
3.5207949 -0.93746907 -2.1607525 5 0.14058284 -0.01164671 0.99000043 6.3910076e-05
3.513345 -0.94534242 -2.157692 5 0.14070541 -0.01181833 0.98998094 6.7688772e-05
3.515337 -0.95773178 -2.1607525 5 0.14071463 -0.011846008 0.98997927 6.9685055e-05
3.5109906 -0.96708798 -2.1597326 5 0.14081228 -0.012130463 0.98996204 6.9970651e-05
3.5064487 -0.97703928 -2.1587124 5 0.14086312 -0.012165926 0.98995429 7.1568771e-05
3.4985671 -0.98603886 -2.1556518 5 0.14102705 -0.012509663 0.98992682 7.2061906e-05
3.4959736 -0.99519455 -2.1556518 5 0.14103499 -0.012586201 0.98992461 8.26752e-05
3.4930055 -1.005563 -2.1556518 5 0.14131328 -0.013156902 0.98987752 8.6815147e-05
3.4914806 -1.0170127 -2.156672 5 0.14137104 -0.013513816 0.98986441 9.1025504e-05
3.4888062 -1.0261497 -2.156672 5 0.14134936 -0.013766837 0.98986411 9.0759706e-05
3.4855652 -1.0371052 -2.156672 5 0.14137548 -0.013871302 0.98985887 9.3880473e-05
3.4793603 -1.0458443 -2.1546314 5 0.14117098 -0.014222354 0.98988312 9.6468437e-05
3.4780726 -1.0560561 -2.1556518 5 0.14118043 -0.014936139 0.98987114 9.6043826e-05
3.4718206 -1.0647559 -2.1536114 5 0.14145499 -0.015339132 0.98982579 0.00010940119
3.4655476 -1.0734289 -2.151571 5 0.14160569 -0.016005283 0.98979372 0.00012632791
3.4621584 -1.084311 -2.151571 5 0.14169483 -0.016707323 0.98976934 0.00013786562
3.4574764 -1.093456 -2.1505508 5 0.14169902 -0.016909985 0.98976529 0.000133497
3.4527707 -1.1025836 -2.1495306 5 0.14157645 -0.017297294 0.98977619 0.00013866213
3.4478471 -1.1122953 -2.1485105 5 0.14184324 -0.017792592 0.98972929 0.00015231108
3.446167 -1.1230533 -2.1495306 5 0.14194809 -0.018359518 0.98970389 0.00015926333
3.4446514 -1.1332099 -2.1505508 5 0.14235999 -0.019269761 0.98962742 0.00017960186
3.4494364 -1.1461376 -2.1556518 6 0.14261588 -0.020151557 0.98957294 0.00020280168
3.4460206 -1.1563673 -2.1556518 6 0.14303835 -0.021374291 0.98948634 0.00023969909
3.4429815 -1.1653849 -2.1556518 6 0.14292315 -0.021961441 0.98949009 0.00025189118
3.4393034 -1.1761955 -2.1556518 6 0.14322098 -0.022876652 0.98942631 0.000272804
3.4376314 -1.1863565 -2.156672 6 0.14349547 -0.023250306 0.98937792 0.00027726011
3.4292228 -1.1948529 -2.1536114 6 0.14368822 -0.023890371 0.98933458 0.00029337208
3.4258728 -1.2044243 -2.1536114 6 0.14383125 -0.024265597 0.98930466 0.00030806303
3.4107249 -1.2111516 -2.1464701 5 0.14416166 -0.024599234 0.98924834 0.00030499656
3.4156404 -1.2229762 -2.151571 6 0.1439455 -0.024994275 0.98926997 0.00031659994
3.4103785 -1.2325203 -2.1505508 6 0.14403513 -0.026618598 0.98921454 0.00035332734
3.4099391 -1.2438129 -2.1525912 6 0.14416911 -0.02664726 0.98919427 0.00035896909
3.403223 -1.2521423 -2.1505508 6 0.14415874 -0.026967207 0.989187 0.00036773251
3.4011059 -1.2628332 -2.151571 6 0.14447698 -0.027641272 0.98912197 0.0003817433
3.3909004 -1.2705045 -2.1474903 5 0.14466381 -0.028203554 0.98907876 0.00040000217
3.3903341 -1.2817767 -2.1495306 6 0.1449919 -0.02927395 0.98899966 0.00042916465
3.390182 -1.2918733 -2.151571 6 0.14501521 -0.029531829 0.98898852 0.00043526042
3.3766997 -1.2982225 -2.1454499 5 0.14530417 -0.030444849 0.98891848 0.00047546448
3.380852 -1.3113459 -2.1505508 6 0.14616166 -0.032618687 0.9887228 0.00054790283
3.3769462 -1.3213713 -2.1505508 6 0.14633042 -0.033968784 0.98865235 0.000588878
3.3620417 -1.3263773 -2.1434095 5 0.14671093 -0.034172792 0.98858893 0.00058803143
3.3676815 -1.3401632 -2.1495306 6 0.1469018 -0.035225578 0.9885236 0.00062037405
3.3641615 -1.3489753 -2.1495306 6 0.14733157 -0.037194211 0.98838758 0.00065011461
3.355123 -1.3576015 -2.1464701 6 0.14763106 -0.03784718 0.98831809 0.00067352818
3.3560975 -1.3689146 -2.1495306 6 0.14784394 -0.039968211 0.98820275 0.0007158434
3.3474884 -1.3763189 -2.1464701 6 0.14820138 -0.040875394 0.98811215 0.00072502397
3.3404536 -1.3843442 -2.1444297 6 0.14810079 -0.041716278 0.98809206 0.00073908933
3.3360879 -1.3948317 -2.1444297 6 0.14853469 -0.043407362 0.98795408 0.00077394122
3.3305948 -1.4034743 -2.1434095 6 0.14846529 -0.044424798 0.98791927 0.00078542891
3.3250792 -1.4120975 -2.1423893 6 0.14861652 -0.045610923 0.9878425 0.00080562371
3.3174639 -1.4211814 -2.1403489 5 0.14859363 -0.04648786 0.98780507 0.0008186624
3.3150618 -1.4311221 -2.1413693 6 0.14874019 -0.047449522 0.98773724 0.00082565844
3.3126299 -1.4410601 -2.1423893 6 0.14879987 -0.048801132 0.98766237 0.00085364899
3.3083396 -1.4508824 -2.1423893 6 0.14901611 -0.050051317 0.98756725 0.00088720926
3.3042753 -1.4601154 -2.1423893 6 0.14923231 -0.051182922 0.98747659 0.00090965664
3.2952142 -1.467813 -2.1393287 6 0.14919281 -0.053033184 0.98738497 0.00093837274
3.2955525 -1.4796975 -2.1423893 6 0.14929336 -0.054757711 0.9872756 0.00096958375
3.2882726 -1.4874766 -2.1403489 6 0.1494724 -0.0556073 0.98720104 0.00098150817
3.2825408 -1.4959401 -2.1393287 6 0.15001535 -0.056699753 0.98705649 0.00099176529
3.2749615 -1.5042369 -2.1372883 6 0.15025812 -0.058024298 0.98694259 0.001010232
3.2673616 -1.512502 -2.1352482 6 0.15092337 -0.059677403 0.9867425 0.0010355653
3.2584481 -1.5194393 -2.1321876 6 0.15122125 -0.061287712 0.98659819 0.001061139
3.2554822 -1.5298321 -2.1332076 6 0.15156622 -0.062824644 0.98644853 0.0010760232
3.2506599 -1.5400521 -2.1332076 6 0.15147312 -0.064329922 0.98636585 0.0010903878
3.2466171 -1.5485569 -2.1332076 6 0.15159573 -0.065685153 0.98625767 0.0011056005
3.2389071 -1.5566926 -2.1311672 6 0.15271349 -0.066720828 0.98601574 0.0011125427
3.2314508 -1.5642323 -2.129127 6 0.15259559 -0.068108201 0.98593915 0.0011452318
3.231709 -1.5755117 -2.1321876 6 0.15199886 -0.069363959 0.98594373 0.0011568525
3.2221117 -1.5833805 -2.129127 6 0.15181065 -0.070599318 0.98588502 0.0011813613
3.215858 -1.5921705 -2.1281068 6 0.15274256 -0.072098248 0.9856326 0.0011886896
3.2147577 -1.6021184 -2.130147 7 0.15266195 -0.073093146 0.98557174 0.0011984614
3.2081716 -1.611438 -2.129127 10 0.15274082 -0.073998332 0.98549193 0.0012009674
3.2051938 -1.6211669 -2.130147 8 0.15326655 -0.075112112 0.98532611 0.0011957324
3.1973045 -1.6291081 -2.1281068 10 0.15441126 -0.076718099 0.98502356 0.0012033732
3.1939871 -1.6393729 -2.129127 11 0.15486783 -0.077841491 0.98486382 0.0012011698
3.1817553 -1.6443367 -2.1240258 13 0.15695739 -0.079222552 0.98442274 0.0012125615
3.1832554 -1.6563919 -2.1281068 16 0.1564652 -0.079855561 0.98444998 0.0012068159
3.1679506 -1.6596863 -2.1209652 17 0.16090877 -0.081924438 0.98356324 0.0012056916
3.1648254 -1.6693292 -2.1219857 21 0.16097435 -0.083558567 0.98341507 0.0012038193
3.158339 -1.6779048 -2.1209652 22 0.16175354 -0.084373802 0.9832176 0.0012026279
3.1515357 -1.6870068 -2.1199453 22 0.16186273 -0.085569829 0.9830963 0.0012042125
3.1471081 -1.6952518 -2.1199453 21 0.16208155 -0.086365379 0.98299062 0.0012052467
3.1450889 -1.7062228 -2.1219857 21 0.16212744 -0.087218367 0.98290777 0.0012039141
3.1369932 -1.7138971 -2.1199453 21 0.16229928 -0.087712042 0.98283547 0.0011977071
3.1294808 -1.7204465 -2.1179049 21 0.1623148 -0.088470027 0.98276496 0.0012044401
3.1210506 -1.7286028 -2.1158645 21 0.16244708 -0.089143805 0.98268223 0.0012042611
3.1162114 -1.7373114 -2.1158645 21 0.16266219 -0.08972434 0.98259377 0.0011926184
3.1083472 -1.744323 -2.1138241 21 0.16267142 -0.090527073 0.98251861 0.0011931127
3.0983593 -1.7515398 -2.1107635 18 0.16357014 -0.091472492 0.9822818 0.0011876554
3.0919609 -1.7593346 -2.1097434 18 0.16365138 -0.092113078 0.98220843 0.0011876464
3.0849261 -1.7681842 -2.1087232 16 0.16371243 -0.092715912 0.98214149 0.0011822545
3.0802867 -1.7762544 -2.1087232 12 0.16377038 -0.093316332 0.98207498 0.0011729678
3.0839288 -1.7905685 -2.1148443 10 0.16379726 -0.093972296 0.98200798 0.0011525799
3.0729754 -1.7957017 -2.1107635 8 0.16370113 -0.094136529 0.98200828 0.0011575236
3.0676339 -1.8048116 -2.1107635 10 0.16385508 -0.095147036 0.98188514 0.0011567883
3.0652256 -1.8156588 -2.1128039 11 0.16390668 -0.095800377 0.98181307 0.0011469377
3.057188 -1.8224498 -2.1107635 10 0.16395542 -0.096391208 0.98174709 0.0011497547
3.0502925 -1.8306276 -2.1097434 8 0.16402243 -0.096946269 0.98168123 0.0011508951
3.043375 -1.8387803 -2.1087232 8 0.16407506 -0.097590618 0.98160869 0.0011471078
3.0352888 -1.8454843 -2.1066828 8 0.16416112 -0.098219603 0.9815315 0.0011411047
3.0301232 -1.8539532 -2.1066828 10 0.16401301 -0.098359145 0.98154229 0.0011427571
3.0216799 -1.8611313 -2.1046426 10 0.16404375 -0.098924577 0.98148024 0.0011433058
3.0193949 -1.8713746 -2.1066828 10 0.16411242 -0.099606581 0.98139983 0.0011466549
3.0097783 -1.877068 -2.1036222 10 0.16416526 -0.10016212 0.98133445 0.0011517904
3.0067801 -1.8883444 -2.1056626 10 0.16426061 -0.10100144 0.98123252 0.0011409473
3.000041 -1.8958143 -2.1046426 10 0.16420554 -0.10158159 0.9811818 0.001137361
2.9889286 -1.9004924 -2.1005616 10 0.16439325 -0.10215058 0.98109126 0.0011437481
2.9832764 -1.9093524 -2.1005616 10 0.16445735 -0.10272414 0.98102069 0.0011434405
2.9804904 -1.9200588 -2.102602 11 0.16453099 -0.10328267 0.98094964 0.001145383
2.9686711 -1.9256681 -2.0985215 10 0.16458686 -0.10385876 0.98087943 0.0011450886
2.9668384 -1.9347957 -2.1005616 10 0.16453017 -0.1044421 0.98082703 0.0011459131
2.9564316 -1.941274 -2.097501 10 0.16477506 -0.10495383 0.98073131 0.0011499472
2.9506588 -1.9500375 -2.097501 10 0.16483295 -0.10551709 0.98066115 0.0011513133
2.9426785 -1.9558514 -2.0954609 10 0.16494857 -0.10606771 0.98058236 0.0011561915
2.9340026 -1.9626607 -2.0934205 10 0.16522951 -0.10659813 0.98047745 0.0011634183
2.9292493 -1.9728295 -2.0944407 10 0.16530558 -0.10714118 0.98040545 0.0011661914
2.9212255 -1.9785622 -2.0924003 10 0.16517833 -0.10787595 0.98034626 0.0011680681
2.9181852 -1.9891585 -2.0944407 10 0.1652139 -0.10832967 0.98029035 0.0011643765
2.9076667 -1.9953965 -2.0913801 10 0.16513005 -0.10910691 0.98021823 0.0011662531
2.9041982 -2.0034721 -2.0924003 10 0.16537355 -0.10958408 0.98012388 0.0011656322
2.896477 -2.0116048 -2.0913801 10 0.16548663 -0.11019311 0.98003656 0.0011609285
2.8890853 -2.0192044 -2.0903599 10 0.16559616 -0.11082169 0.97994721 0.0011588109
2.8795669 -2.0237935 -2.0872993 10 0.1659842 -0.11142793 0.9798128 0.0011557807
2.8735495 -2.0323286 -2.0872993 10 0.16586253 -0.11207083 0.97976005 0.0011578723
2.8661056 -2.0398481 -2.0862792 10 0.16625239 -0.11265609 0.97962689 0.0011513671
2.8673918 -2.0528507 -2.0913801 11 0.16609703 -0.11328661 0.97958046 0.0011569009
2.8612883 -2.0613496 -2.0913801 18 0.16620484 -0.11391884 0.97948885 0.0011522679
2.8537667 -2.0688202 -2.0903599 20 0.16631231 -0.11455436 0.97939652 0.0011508573
2.8479781 -2.0767813 -2.0903599 23 0.16647378 -0.11519973 0.97929335 0.0011467062
2.846329 -2.0877788 -2.0934205 22 0.16626664 -0.11589339 0.97924674 0.0011423294
2.8342206 -2.0926235 -2.0893397 25 0.16648659 -0.11651146 0.97913599 0.0011409186
2.8287325 -2.1000359 -2.0893397 25 0.16666429 -0.11709587 0.97903603 0.0011394288
2.8234987 -2.109942 -2.0903599 27 0.16683969 -0.11771324 0.97893214 0.0011375508
2.8107202 -2.1126506 -2.085259 30 0.16704486 -0.11834568 0.97882092 0.0011286932
2.8048098 -2.1204915 -2.085259 27 0.16722558 -0.11894305 0.97871763 0.0011256912
2.8008718 -2.1313758 -2.0872993 27 0.16744924 -0.11959396 0.97860003 0.0011221413
2.7908108 -2.1360526 -2.0842388 26 0.1676738 -0.1202416 0.97848225 0.0011204759
2.8103564 -2.1642659 -2.1036222 30 0.1671889 -0.12083889 0.97849166 0.0011139738
2.7924173 -2.1761868 -2.0995414 22 0.16762994 -0.1221134 0.97825795 0.0011014716
2.8188808 -2.184185 -2.1148443 30 0.16200542 -0.11364619 0.98022389 0.0012550192
2.7998683 -2.1945884 -2.1097434 27 0.16380878 -0.11618651 0.97962618 0.0012374518
2.7811878 -2.1932988 -2.1005616 26 0.16796215 -0.1222807 0.97817999 0.001109958
2.7862203 -2.2091227 -2.1087232 22 0.16463783 -0.11710362 0.97937793 0.001236988
2.7869453 -2.2247891 -2.1148443 17 0.16020098 -0.11007135 0.98092812 0.0013181231
2.7927942 -2.2422557 -2.1240258 17 0.1571815 -0.10738626 0.98171389 0.0013231643
2.7758279 -2.2550497 -2.1209652 20 0.15843199 -0.10830529 0.98141193 0.0013679335
2.7989616 -2.259284 -2.1332076 21 0.15670566 -0.10751639 0.98177564 0.0013256938
2.7792416 -2.2699265 -2.1281068 18 0.15746546 -0.10786231 0.9816162 0.0013707187
2.7791393 -2.2836235 -2.1332076 16 0.15729812 -0.10820123 0.98160571 0.0013807792
2.7803068 -2.2984352 -2.1393287 15 0.15683439 -0.10840216 0.98165774 0.0013909794
2.7736201 -2.3199289 -2.1444297 15 0.15649906 -0.10910688 0.98163313 0.0014288839
2.7867007 -2.3176746 -2.1495306 17 0.15596032 -0.10883165 0.98174948 0.0014017669
2.7654083 -2.3270404 -2.1434095 8 0.15554014 -0.10962582 0.98172778 0.0014558132
2.7549598 -2.3314202 -2.1403489 6 0.15531333 -0.11025668 0.98169297 0.0014818354
2.7458186 -2.3368747 -2.1383088 6 0.1547823 -0.11069517 0.98172754 0.0014963477
2.7384634 -2.3454895 -2.1383088 5 0.15461728 -0.11102684 0.98171616 0.0015132956
2.7527571 -2.3710902 -2.1546314 5 0.15394123 -0.11150465 0.98176825 0.0015260468
2.7409239 -2.3742628 -2.1505508 5 0.15396535 -0.11150096 0.98176485 0.0015410297
2.7442429 -2.3914263 -2.1587124 5 0.15339832 -0.11191566 0.9818064 0.0015546435
2.7491972 -2.4092841 -2.1678939 3 0.15296577 -0.11207587 0.98185563 0.0015606099
2.7613926 -2.4344947 -2.1831968 2 0.15196985 -0.11239171 0.98197418 0.0015625332
2.758018 -2.4461017 -2.1862574 1 0.15191029 -0.11260826 0.98195851 0.0015893589
2.771286 -2.4725981 -2.2025805 1 0.15063056 -0.11262576 0.98215365 0.0015604869
