# .PCD v0.7 - Point Cloud Data file format
VERSION 0.7
FIELDS x y z intensity normal_x normal_y normal_z curvature
SIZE 4 4 4 4 4 4 4 4
TYPE F F F F F F F F
COUNT 1 1 1 1 1 1 1 1
WIDTH 577
HEIGHT 1
VIEWPOINT 0 0 0 1 0 0 0
POINTS 577
DATA ascii
-0.64997655 -3.4333348 -1.6539955 27 0.17770202 0.0073188222 0.98405713 0.0018805565
-0.62758309 -3.4227967 -1.6471502 30 0.17784235 0.0063520093 0.98403847 0.0018312673
-0.63839877 -3.4244738 -1.6488615 28 0.17720158 0.0064387158 0.98415357 0.0018391547
-0.65751421 -3.4208548 -1.6488615 26 0.17733474 0.006622429 0.98412836 0.001846812
-0.66756451 -3.4152241 -1.6471502 33 0.1769699 0.0061299116 0.9841972 0.0018219744
-0.67685449 -3.4152379 -1.6480058 36 0.17681526 0.0061347922 0.98422498 0.0018107733
-0.68686664 -3.4095504 -1.6462946 33 0.17644356 0.0060176682 0.98429233 0.0018020155
-0.6977042 -3.4110396 -1.6480058 36 0.1758233 0.0058544553 0.98440439 0.0018053229
-0.71066797 -3.4286723 -1.6574181 28 0.1757426 0.0068859556 0.98441213 0.0018054126
-0.7195738 -3.417578 -1.6531398 36 0.17525961 0.0065619312 0.98450041 0.0017958677
-0.72776425 -3.4121463 -1.6514285 39 0.1750059 0.0063770572 0.98454672 0.0017926102
-0.73788494 -3.4099722 -1.6514285 33 0.1749814 0.0064277481 0.98455071 0.0017997308
-0.74567407 -3.3971739 -1.6462946 36 0.1745788 0.0058776829 0.9846257 0.0017581586
-0.76284158 -3.3822422 -1.6411606 28 0.17372115 0.0057165325 0.98477834 0.0017521869
-0.77206743 -3.3764396 -1.6394492 30 0.17275961 0.0053554382 0.98494947 0.0017697755
-0.74848533 -3.3650804 -1.6317483 28 0.17343307 0.0053431201 0.98483115 0.0017325095
-0.77578312 -3.3496149 -1.6274699 28 0.17211461 0.0042479457 0.98506778 0.0017062289
-0.78588921 -3.3454015 -1.6266143 30 0.17146102 0.0040195915 0.98518264 0.0017102786
-0.79548025 -3.3468502 -1.6283257 27 0.17130418 0.0045377514 0.98520768 0.0017423077
-0.80683798 -3.3478491 -1.630037 33 0.17049566 0.0046908497 0.98534727 0.0017481631
-0.81704086 -3.3490953 -1.6317483 36 0.17044805 0.0051128338 0.98535341 0.0017739357
-0.82710493 -3.35221 -1.6343153 27 0.17006437 0.0052959286 0.98541874 0.0017599588
-0.83953303 -3.3547099 -1.6368823 28 0.17043664 0.0058595315 0.98535126 0.0018385274
-0.8460958 -3.3437381 -1.632604 28 0.16992213 0.0057581537 0.98544073 0.0018454324
-0.85722351 -3.348367 -1.6360266 30 0.16980377 0.0058009941 0.98546082 0.0018374951
-0.86592293 -3.3386583 -1.632604 27 0.16924062 0.005964892 0.98555666 0.001826018
-0.87145156 -3.3241398 -1.6266143 28 0.16849063 0.0048870048 0.98569119 0.0018053199
-0.87482035 -3.2970777 -1.614635 28 0.16735984 0.0037942876 0.9858886 0.0016855543
-0.89616334 -3.3007071 -1.6189133 27 0.1669611 0.0039243675 0.98595572 0.001678923
-0.90700781 -3.299619 -1.6197691 28 0.16697177 0.0047514299 0.98595023 0.001773986
-0.87662953 -3.2647879 -1.6000888 27 0.16573507 0.0015660956 0.9861691 0.0015192953
-0.91379875 -3.2883642 -1.6154907 30 0.16603166 0.0040972121 0.98611188 0.0016529699
-0.91613334 -3.2614348 -1.6035115 36 0.16472086 0.0024653911 0.98633718 0.0015412754
-0.92884666 -3.2672343 -1.6077898 39 0.16486976 0.0032410249 0.98631001 0.0015710233
-0.93247598 -3.2455163 -1.5983773 39 0.16345657 0.001244114 0.98654974 0.0014247391
-0.9400841 -3.2357914 -1.5949548 33 0.1631117 0.0011986827 0.98660684 0.0014131429
-0.94860739 -3.2314188 -1.594099 27 0.16283913 0.0010951434 0.98665202 0.0014091916
-0.95767665 -3.2268574 -1.5932435 28 0.16242577 0.00076311897 0.98672056 0.0013740573
-0.96715915 -3.2278025 -1.5949548 33 0.16212998 0.00081382017 0.98676908 0.0013723846
-0.97463584 -3.2179983 -1.5915322 30 0.1617842 0.00085522071 0.98682576 0.0013627403
-0.97832996 -3.1979778 -1.5829756 39 0.16127525 -9.2834189e-06 0.98690945 0.0013292035
-0.98890615 -3.196615 -1.5838312 39 0.16099785 0.00010873919 0.98695475 0.0013225331
-0.99782914 -3.193841 -1.5838312 36 0.16062397 4.3563865e-05 0.98701566 0.0013195999
-1.0051119 -3.1858704 -1.5812641 36 0.16011785 -0.00019642654 0.98709786 0.0012909404
-1.0129186 -3.1758082 -1.5778415 28 0.15966174 -0.00059534464 0.98717165 0.0012523836
-1.0167991 -3.159379 -1.5709963 27 0.15927923 -0.00032577667 0.98723352 0.0012494464
-1.0228049 -3.1441357 -1.5650066 33 0.15872601 -0.000277899 0.98732263 0.0012407792
-1.0287611 -3.1326799 -1.5607283 28 0.15790299 -0.001676737 0.98745316 0.0011803308
-1.0414448 -3.138011 -1.5650066 33 0.15781349 -0.00039368114 0.98746884 0.001232206
-1.0536733 -3.1472733 -1.5709963 27 0.157414 -0.00020662145 0.98753268 0.0012262007
-1.0589545 -3.1321456 -1.5650066 30 0.15663821 -0.0011659905 0.98765534 0.0011731471
-1.0635705 -3.1153038 -1.5581614 33 0.15578946 -0.0035273759 0.98778403 0.00097877707
-1.0705454 -3.1090903 -1.55645 33 0.15527159 -0.0035591321 0.98786539 0.00096862606
-1.0803593 -3.1076076 -1.5573056 27 0.15474109 -0.0032600937 0.98794973 0.00096418115
-1.0877208 -3.0973759 -1.5538831 36 0.15412392 -0.003527987 0.98804522 0.00094679731
-1.0922055 -3.0842931 -1.548749 45 0.15374628 -0.0035558231 0.98810399 0.00094098307
-1.1020304 -3.0846357 -1.5504603 45 0.15337537 -0.0035557393 0.98816156 0.00093697081
-1.1153966 -3.091361 -1.5555943 36 0.15302779 -0.0033297327 0.98821628 0.00093601644
-1.1227887 -3.0848367 -1.5538831 30 0.15248385 -0.0032371364 0.98830068 0.00093353284
-1.1319364 -3.0814919 -1.5538831 45 0.15198082 -0.0031918811 0.98837823 0.00093153573
-1.1373044 -3.0679498 -1.548749 39 0.15138082 -0.0032444696 0.9884702 0.00092382357
-1.1472307 -3.0700419 -1.551316 39 0.15106533 -0.0032285661 0.98851854 0.00091683812
-1.1575081 -3.068114 -1.5521717 49 0.15080659 -0.0030083277 0.98855871 0.00091386389
-1.1654285 -3.0631802 -1.551316 39 0.15005329 -0.0031507574 0.98867291 0.00091596058
-1.1739782 -3.0599136 -1.551316 42 0.14942597 -0.0031189846 0.98876798 0.00091260811
-1.1829321 -3.0545247 -1.5504603 45 0.14888252 -0.003194931 0.98884976 0.00090201682
-1.1934298 -3.0562613 -1.5530273 42 0.1485388 -0.0030338869 0.98890185 0.00089948601
-1.1997116 -3.0440874 -1.548749 52 0.14802089 -0.0036605359 0.98897749 0.00087975012
-1.2068727 -3.0373657 -1.5470377 49 0.14761825 -0.0037286463 0.98903739 0.00087791629
-1.2180386 -3.0406957 -1.5504603 58 0.1470366 -0.0037630536 0.98912394 0.0008730031
-1.2272018 -3.038959 -1.551316 49 0.14671943 -0.0038983219 0.98917049 0.00086064287
-1.2375771 -3.0386527 -1.5530273 33 0.14651489 -0.0036529219 0.98920172 0.00085817004
-1.2452136 -3.0316231 -1.551316 24 0.1460543 -0.0034753475 0.98927051 0.00085006171
-1.252292 -3.0247936 -1.5496047 33 0.14563364 -0.0039589554 0.98933065 0.00083962129
-1.2565567 -3.0112748 -1.5444707 45 0.14530508 -0.0041224379 0.98937827 0.00082881993
-1.262158 -3.0010889 -1.541048 49 0.14501148 -0.0044796737 0.98941976 0.00081809069
-1.2729918 -3.0004373 -1.5427594 49 0.14454058 -0.0044295895 0.98948896 0.00081548101
-1.2802778 -2.9914372 -1.5401924 52 0.14419225 -0.0045462879 0.98953927 0.00080649927
-1.2881049 -2.9880753 -1.5401924 56 0.14393653 -0.0045031314 0.9895767 0.00079936074
-1.2940832 -2.9776084 -1.5367697 49 0.14358611 -0.0050732223 0.98962486 0.00077231863
-1.302912 -2.9737561 -1.5367697 49 0.143112 -0.0050769974 0.98969346 0.00076528167
-1.3121526 -2.9736423 -1.5384811 49 0.14283435 -0.0050579901 0.9897337 0.00076698954
-1.3202349 -2.9680843 -1.5376254 42 0.14254513 -0.0048144097 0.98977661 0.0007560323
-1.3295527 -2.9639223 -1.5376254 36 0.14210992 -0.0048787021 0.98983884 0.00074630935
-1.3365637 -2.9587839 -1.5367697 30 0.14181714 -0.0050315433 0.98988008 0.00073978346
-1.3445874 -2.95316 -1.5359141 15 0.1416129 -0.0051020817 0.98990893 0.00073661818
-1.351082 -2.9442284 -1.5333471 15 0.14123984 -0.0051880642 0.9899618 0.00072151108
-1.3565102 -2.9357584 -1.5307801 15 0.14106339 -0.0054339175 0.98998564 0.00071668212
-1.3649632 -2.9298437 -1.5299245 16 0.14078407 -0.0052671498 0.99002635 0.0007114521
-1.3705772 -2.9192352 -1.5265018 19 0.14042495 -0.0051155579 0.99007809 0.00070267869
-1.3789879 -2.9172716 -1.5273575 19 0.13995832 -0.0049586231 0.99014497 0.00069379457
-1.3837508 -2.9050069 -1.5230792 30 0.13972914 -0.0049282522 0.99017751 0.00069192029
-1.3915812 -2.8992589 -1.5222235 28 0.1395759 -0.004898889 0.99019921 0.00069297652
-1.397312 -2.8904791 -1.5196565 28 0.13941991 -0.005023981 0.99022061 0.00068790663
-1.4090486 -2.8928211 -1.5230792 33 0.14079049 -0.0032670742 0.99003398 0.00079013698
-1.4152365 -2.883759 -1.5205121 35 0.14048722 -0.0032833477 0.99007708 0.00078498508
-1.4219801 -2.8784235 -1.5196565 33 0.14073732 -0.0029365621 0.99004263 0.0008012607
-1.4310162 -2.8739421 -1.5196565 33 0.14097419 -0.0022685418 0.99001062 0.00083833083
-1.4390363 -2.8699346 -1.5196565 33 0.14083591 -0.0023828766 0.99003005 0.00082570658
-1.4459145 -2.8624253 -1.5179452 31 0.14096123 -0.0022756469 0.99001253 0.00082711154
-1.4511219 -2.8516781 -1.5145226 35 0.14041498 -0.002558524 0.99008942 0.00080377073
-1.4590799 -2.8476145 -1.5145226 33 0.14050454 -0.0021598584 0.99007767 0.00081617798
-1.4671894 -2.8414104 -1.5136669 35 0.14049621 -0.0017981043 0.99007952 0.00083215925
-1.4749609 -2.8394213 -1.5145226 31 0.14062318 -0.0010845128 0.99006265 0.00085665396
-1.481359 -2.8299689 -1.5119555 27 0.14051519 -0.0010217376 0.99007797 0.00085354503
-1.4892561 -2.8258212 -1.5119555 24 0.14021306 -0.00091605546 0.99012095 0.00084329129
-1.4962937 -2.8200545 -1.5110998 18 0.14020514 -0.00054476864 0.99012232 0.00085516204
-1.5051459 -2.8153396 -1.5110998 12 0.13983917 -0.00044030062 0.99017411 0.0008451785
-1.5104319 -2.80635 -1.5085329 12 0.13941787 -0.001023747 0.99023312 0.00076675619
-1.5174018 -2.8005319 -1.5076772 12 0.13918139 -0.0011558702 0.9902662 0.00074730627
-1.5222405 -2.7896702 -1.5042546 12 0.13874719 -0.0014555992 0.99032676 0.00072094792
-1.5305111 -2.7851415 -1.5042546 12 0.1384978 -0.0021894276 0.99036032 0.0006279971
-1.5401291 -2.7819006 -1.5051103 11 0.13878931 -0.0016429661 0.99032056 0.00065807201
-1.5474069 -2.777859 -1.5051103 12 0.13859291 -0.0016362262 0.99034804 0.0006601701
-1.5521047 -2.7669489 -1.5016876 11 0.13813823 -0.0019506676 0.99041098 0.00063643965
-1.5603071 -2.7623317 -1.5016876 12 0.13806194 -0.0021591354 0.99042124 0.00061972818
-1.5657474 -2.7550943 -1.4999763 12 0.13788271 -0.0021233498 0.99044627 0.00061885454
-1.5743952 -2.7501614 -1.4999763 12 0.13786003 -0.0017175972 0.9904502 0.00062937359
-1.5816455 -2.7439117 -1.4991206 13 0.13755915 -0.0015829195 0.99049228 0.0006268851
-1.5888231 -2.7397621 -1.4991206 11 0.13733615 -0.0014225959 0.99052346 0.00062096101
-1.5932993 -2.7287912 -1.4956979 11 0.13684474 -0.0014419955 0.99059141 0.00059323292
-1.6009129 -2.7243316 -1.4956979 11 0.13693012 -0.001125747 0.99058008 0.00060651393
-1.6057539 -2.7151823 -1.493131 10 0.13630429 -0.0016812909 0.99066556 0.00056768209
-1.611501 -2.7054651 -1.490564 11 0.13580509 -0.001955027 0.99073362 0.00054357172
-1.61905 -2.7009544 -1.490564 10 0.13593711 -0.0016028719 0.99071622 0.00055556156
-1.6284531 -2.6995184 -1.4922754 11 0.13595404 -0.0012272671 0.99071437 0.0005677084
-1.6345792 -2.6915846 -1.490564 12 0.13561863 -0.0015488262 0.99075991 0.00054941146
-1.6416152 -2.6851802 -1.4897083 10 0.13532779 -0.0020849572 0.99079871 0.00052640622
-1.6500546 -2.6821253 -1.490564 11 0.13578889 -0.0016289983 0.99073648 0.00053839816
-1.6541977 -2.6710706 -1.4871413 12 0.13485341 -0.0027567793 0.99086171 0.0004808032
-1.6592469 -2.6615484 -1.4845744 10 0.13414435 -0.0034421517 0.99095583 0.00043625449
-1.6681299 -2.6602583 -1.4862857 10 0.13422522 -0.0029999227 0.99094629 0.0004551681
-1.6735839 -2.6504192 -1.4837186 10 0.13385047 -0.0033402531 0.99099594 0.00043055511
-1.6775613 -2.6393397 -1.4802961 10 0.13200583 -0.0057386588 0.99123234 0.00027986264
-1.6868732 -2.6376903 -1.4820074 10 0.13291907 -0.004362673 0.9911173 0.0003619729
-1.6917566 -2.6281135 -1.4794403 9 0.13159683 -0.006271373 0.99128348 0.00024889896
-1.7010548 -2.6264133 -1.4811517 10 0.13206241 -0.0053579882 0.99122691 0.00028682884
-1.7029161 -2.6122689 -1.4760177 10 0.13112137 -0.0068717264 0.99134248 0.00024053942
-1.711732 -2.6108253 -1.4777291 9 0.13125372 -0.0066815764 0.99132621 0.00024127454
-1.7179338 -2.6024172 -1.4760177 9 0.13093279 -0.006940926 0.99136698 0.00024064943
-1.7251939 -2.59761 -1.4760177 10 0.13089834 -0.0071654329 0.9913699 0.00023906883
-1.7323415 -2.5906749 -1.475162 10 0.13081287 -0.0071564685 0.99138123 0.00023686288
-1.7385603 -2.5843267 -1.4743063 10 0.13070132 -0.0072017577 0.99139565 0.0002335936
-1.7457705 -2.5794616 -1.4743063 10 0.13058165 -0.0073180171 0.99141055 0.00023344504
-1.7499149 -2.5700939 -1.4717394 10 0.13051489 -0.0074177729 0.9914186 0.00022734297
-1.7560633 -2.5637059 -1.4708837 10 0.13046724 -0.0075151226 0.9914242 0.00022824567
-1.7641089 -2.5581763 -1.4708837 10 0.13030556 -0.0077383779 0.99144375 0.00022244002
-1.7690443 -2.5481668 -1.4683168 9 0.13021252 -0.0080974791 0.99145299 0.000220923
-1.7757089 -2.5435271 -1.4683168 10 0.13009019 -0.0082296664 0.99146795 0.00021836648
-1.7832481 -2.5382471 -1.4683168 9 0.12997861 -0.0085212952 0.99148017 0.00021741306
-1.7876407 -2.5285165 -1.4657497 9 0.12992434 -0.0086013088 0.99148655 0.00022211592
-1.7953013 -2.5253015 -1.4666054 9 0.12976474 -0.0089103021 0.99150479 0.00021611938
-1.8000697 -2.5152385 -1.4640385 9 0.12977549 -0.0091946889 0.99150079 0.00021434417
-1.8075249 -2.5098865 -1.4640385 9 0.12965052 -0.0093343882 0.99151582 0.00021328536
-1.8162102 -2.508074 -1.4657497 9 0.12959456 -0.0094326204 0.99152219 0.00020809335
-1.8193849 -2.4968307 -1.4623271 9 0.12951799 -0.0097091468 0.99152958 0.00020408662
-1.8220757 -2.4859078 -1.4589044 9 0.12964989 -0.010009912 0.99150926 0.00020138465
-1.8290108 -2.4808099 -1.4589044 9 0.12961715 -0.010189022 0.9915117 0.0001968399
-1.8378725 -2.4765038 -1.4597602 9 0.12952499 -0.01029007 0.99152279 0.00019124553
-1.8436997 -2.469913 -1.4589044 10 0.12947434 -0.010348327 0.99152881 0.00018961974
-1.8484192 -2.4618635 -1.4571931 9 0.12945408 -0.010565037 0.99152911 0.00018709683
-1.8546261 -2.4549258 -1.4563375 9 0.12942696 -0.010740114 0.99153084 0.00018363625
-1.8619019 -2.4494121 -1.4563375 9 0.12938237 -0.010815225 0.99153572 0.00018188833
-1.8687342 -2.4442036 -1.4563375 9 0.12932637 -0.010901522 0.9915421 0.00018349571
-1.874876 -2.4372151 -1.4554819 10 0.12933941 -0.011039648 0.991539 0.00018189654
-1.8798864 -2.4287825 -1.4537705 9 0.12937802 -0.011361117 0.99153024 0.00017699404
-1.8873489 -2.4252791 -1.4546261 9 0.12929168 -0.011531017 0.9915396 0.0001739693
-1.8916143 -2.4150686 -1.4520591 9 0.12940159 -0.011975638 0.99151993 0.00016942759
-1.9010091 -2.4122856 -1.4537705 9 0.1294333 -0.01223415 0.99151266 0.00015978731
-1.9054923 -2.4041338 -1.4520591 9 0.12948246 -0.012424324 0.99150389 0.00015824103
-1.9092361 -2.3942294 -1.4494922 9 0.12951702 -0.012762702 0.99149507 0.00015346306
-1.9147837 -2.3874784 -1.4486365 8 0.12946968 -0.012980005 0.99149847 0.0001465684
-1.9200041 -2.3786378 -1.4469252 7 0.12943609 -0.013033085 0.99150211 0.00014462379
-1.9246716 -2.372535 -1.4460695 9 0.12944554 -0.013371979 0.99149632 0.00013610281
-1.9275423 -2.3608758 -1.4426469 9 0.12946625 -0.014359337 0.99147987 0.0001096095
-1.9352748 -2.3568811 -1.4435025 9 0.12944233 -0.014714388 0.99147779 0.0001029406
-1.9441514 -2.3542552 -1.4452139 8 0.12929194 -0.015177533 0.99149036 9.4942159e-05
-1.9480711 -2.3439653 -1.4426469 9 0.12928851 -0.015350677 0.99148816 9.0340851e-05
-1.9534498 -2.3371291 -1.4417912 8 0.12932168 -0.015862919 0.99147582 7.4707859e-05
-1.9564793 -2.3275135 -1.4392242 8 0.12932904 -0.016369915 0.99146658 5.998063e-05
-1.962971 -2.3220413 -1.4392242 9 0.12932883 -0.016903188 0.9914577 5.2230862e-05
-1.9690857 -2.3144855 -1.4383686 7 0.12934783 -0.017355623 0.99144745 4.1035288e-05
-1.9763466 -2.3082886 -1.4383686 7 0.12933318 -0.017560882 0.99144566 3.9393704e-05
-1.9796224 -2.3007123 -1.4366573 6 0.1293266 -0.017584549 0.9914462 3.7596961e-05
-1.9868412 -2.294481 -1.4366573 7 0.12934002 -0.017715614 0.99144202 3.9524959e-05
-1.9880934 -2.2838182 -1.4332346 9 0.12935859 -0.017885646 0.99143648 3.3645516e-05
-1.9972428 -2.2806289 -1.4349459 7 0.12933674 -0.01795299 0.99143821 3.3510518e-05
-2.0016103 -2.2719805 -1.4332346 7 0.12937145 -0.018193945 0.99142927 2.8651995e-05
-2.0063403 -2.2629755 -1.4315233 7 0.12939452 -0.018324845 0.99142385 2.7654858e-05
-2.013855 -2.2587128 -1.4323789 7 0.12938847 -0.018482361 0.99142176 2.7252081e-05
-2.0153265 -2.2476974 -1.4289563 7 0.1293657 -0.018605469 0.99142241 2.7281225e-05
-2.0244088 -2.2443919 -1.4306676 7 0.12937772 -0.018647239 0.99142003 2.2249042e-05
-2.0302775 -2.2390847 -1.4306676 7 0.12935895 -0.018687457 0.99142176 2.258297e-05
-2.0373018 -2.2326953 -1.4306676 6 0.12938273 -0.0188029 0.99141645 1.5610771e-05
-2.0402501 -2.2226455 -1.4281006 6 0.12937559 -0.018874992 0.99141598 1.5358815e-05
-2.0460622 -2.2172961 -1.4281006 6 0.12938839 -0.018920617 0.99141347 1.3482759e-05
-2.0522463 -2.2115738 -1.4281006 7 0.12940633 -0.018930137 0.99141097 1.0408059e-05
-2.055867 -2.2007933 -1.4255337 6 0.12942958 -0.018943448 0.99140769 5.2824107e-06
-2.0591462 -2.1927679 -1.4238223 7 0.12941006 -0.01895158 0.99141008 7.9691945e-06
-2.0656428 -2.1866491 -1.4238223 7 0.12943731 -0.018969268 0.9914062 6.181006e-06
-2.0758576 -2.1844418 -1.4263893 6 0.12943536 -0.01899088 0.99140602 8.7500412e-06
-2.075326 -2.1724637 -1.4221109 7 0.12943348 -0.019027432 0.99140561 9.4389043e-06
-2.0817628 -2.1662965 -1.4221109 6 0.12944101 -0.019040881 0.99140424 1.0817739e-05
-2.0881813 -2.16011 -1.4221109 7 0.12940116 -0.019040762 0.99140948 9.1926922e-06
-2.0942056 -2.1542704 -1.4221109 6 0.12940827 -0.01904818 0.99140841 8.2957995e-06
-2.0984344 -2.1450965 -1.4203997 7 0.12939547 -0.019073833 0.9914096 7.3569367e-06
-2.1044166 -2.1392281 -1.4203997 6 0.12940033 -0.019097464 0.99140847 9.308319e-06
-2.1091111 -2.1320579 -1.419544 7 0.1293909 -0.019113028 0.99140948 1.0493955e-05
-2.1119723 -2.1215785 -1.416977 7 0.12937774 -0.019131673 0.99141079 1.3980362e-05
-2.1166098 -2.1143947 -1.4161214 7 0.12937602 -0.019122135 0.99141121 1.5421818e-05
-2.1237888 -2.1097496 -1.416977 7 0.12937717 -0.01912773 0.99141097 1.2559646e-05
-2.1287529 -2.1021686 -1.4161214 7 0.12939566 -0.019124322 0.99140859 1.0386801e-05
-2.1336904 -2.0945771 -1.4152657 7 0.12941679 -0.019128546 0.99140579 8.8901879e-06
-2.1378732 -2.0877216 -1.4144101 7 0.12941881 -0.019123424 0.99140561 9.2739765e-06
-2.1431246 -2.079735 -1.4135543 7 0.12944505 -0.019131523 0.99140203 1.2257624e-05
-2.1472611 -2.0728621 -1.4126986 6 0.12943724 -0.019103548 0.99140358 9.5682835e-06
-2.1550672 -2.0673573 -1.4135543 7 0.12943697 -0.019101359 0.99140364 1.1025523e-05
-2.1598835 -2.0597064 -1.4126986 7 0.12944204 -0.019067632 0.99140358 1.128619e-05
-2.1587105 -2.0478246 -1.4084203 9 0.12942567 -0.019076057 0.99140567 1.2393659e-05
-2.1664495 -2.0422721 -1.409276 8 0.129434 -0.019065814 0.99140471 1.2539968e-05
-2.1678324 -2.0328841 -1.4067091 7 0.12944263 -0.019052915 0.99140388 1.1526609e-05
-2.1738541 -2.0264435 -1.4067091 6 0.12944324 -0.01901737 0.99140441 9.6927843e-06
-2.1811833 -2.0212133 -1.4075648 7 0.12944984 -0.019011145 0.99140376 1.0508687e-05
-2.183182 -2.0110581 -1.4049977 6 0.12941252 -0.018984599 0.99140912 1.5127784e-05
-2.1861236 -2.0025115 -1.4032865 6 0.12938771 -0.018959358 0.99141282 2.030014e-05
-2.1933918 -1.9972339 -1.404142 7 0.12937836 -0.018925501 0.99141473 2.1763279e-05
-2.1962807 -1.988674 -1.4024308 6 0.12937187 -0.018907679 0.99141586 2.383559e-05
-2.2018259 -1.982533 -1.4024308 7 0.12935291 -0.018860603 0.99141926 2.2358707e-05
-2.2063515 -1.9747856 -1.4015751 6 0.12935919 -0.018824121 0.99141908 2.3261515e-05
-2.2111936 -1.9666435 -1.4007194 7 0.12937345 -0.018749485 0.99141866 2.1124539e-05
-2.2163348 -1.9608477 -1.4007194 6 0.12937841 -0.018684534 0.99141926 2.3300874e-05
-2.2167132 -1.9494876 -1.3972968 7 0.12937389 -0.018612796 0.99142116 2.3416411e-05
-2.2207878 -1.9420997 -1.3964411 6 0.12938678 -0.018556159 0.99142057 2.3109929e-05
-2.2268779 -1.9351137 -1.3964411 7 0.12937322 -0.018483825 0.99142367 2.8941229e-05
-2.2350087 -1.9312512 -1.3981525 7 0.12938429 -0.018450938 0.99142283 2.8451645e-05
-2.2338724 -1.9187219 -1.3938742 6 0.12937626 -0.018314386 0.99142647 3.0987721e-05
-2.2405968 -1.9136503 -1.3947299 7 0.12939505 -0.018227624 0.99142563 3.1894902e-05
-2.2486877 -1.909726 -1.3964411 7 0.1293887 -0.018176019 0.9914273 3.2722168e-05
-2.2477679 -1.8968232 -1.3921628 7 0.12939864 -0.018079476 0.9914279 3.5784218e-05
-2.2541103 -1.8920947 -1.3930184 6 0.12939511 -0.017987669 0.99142998 3.6286863e-05
-2.2586558 -1.8838454 -1.3921628 7 0.12938669 -0.017909165 0.99143249 4.1645959e-05
-2.2652993 -1.8786845 -1.3930184 7 0.12937705 -0.017827824 0.99143523 4.4271095e-05
-2.2666786 -1.8685057 -1.3904516 6 0.12937437 -0.017746665 0.99143702 4.7942191e-05
-2.2729602 -1.8637118 -1.3913071 6 0.12940717 -0.017675465 0.99143404 5.0025679e-05
-2.280206 -1.857703 -1.3921628 6 0.12939312 -0.017597726 0.99143726 5.126396e-05
-2.2853844 -1.8513287 -1.3921628 7 0.12940708 -0.017515896 0.99143678 5.0032679e-05
-2.2824192 -1.8377373 -1.3870288 6 0.12939395 -0.017348286 0.99144149 4.8879985e-05
-2.2900448 -1.8340154 -1.3887401 6 0.12941198 -0.017324349 0.99143952 4.6289471e-05
-2.2912331 -1.8238357 -1.3861732 6 0.12937571 -0.017194094 0.99144655 4.7289468e-05
-2.2994699 -1.8192726 -1.3878845 6 0.12937284 -0.01715144 0.99144775 4.6956047e-05
-2.2991736 -1.8079722 -1.3844618 6 0.12936893 -0.017010411 0.99145055 4.8585604e-05
-2.304213 -1.8015449 -1.3844618 7 0.12936571 -0.016913917 0.99145269 4.6177585e-05
-2.3112895 -1.7954054 -1.3853174 6 0.12935537 -0.016808653 0.99145579 4.719853e-05
-2.3134327 -1.7867346 -1.3836062 6 0.12935096 -0.016684745 0.99145842 4.7977297e-05
-2.318413 -1.7802672 -1.3836062 6 0.12933466 -0.016595442 0.99146223 4.8886894e-05
-2.3208108 -1.7711874 -1.3818949 7 0.12934376 -0.016491566 0.99146265 4.7757159e-05
-2.325748 -1.7646995 -1.3818949 7 0.12932864 -0.016396882 0.99146616 5.0494924e-05
-2.3280871 -1.755614 -1.3801835 6 0.12933275 -0.016291274 0.99146742 4.7517224e-05
-2.3332858 -1.7486986 -1.3801835 7 0.12932245 -0.016189685 0.9914704 4.393595e-05
-2.3381598 -1.7421763 -1.3801835 6 0.12929973 -0.016094139 0.99147493 4.3111751e-05
-2.3427129 -1.7360489 -1.3801835 7 0.12930651 -0.016024867 0.99147516 4.2100251e-05
-2.3510671 -1.730824 -1.3818949 6 0.12931959 -0.015919859 0.99147511 3.7627095e-05
-2.3529737 -1.7221162 -1.3801835 7 0.12933759 -0.015826682 0.99147427 3.6961668e-05
-2.3536875 -1.7119373 -1.3776166 6 0.12933245 -0.015647316 0.99147785 3.1922944e-05
-2.3602211 -1.7060057 -1.3784722 7 0.12931082 -0.015569487 0.99148184 3.0883624e-05
-2.3679123 -1.7015175 -1.3801835 7 0.12932089 -0.015490747 0.99148178 2.6377562e-05
-2.3711834 -1.6938481 -1.3793279 7 0.12931253 -0.015379222 0.99148464 2.5251047e-05
-2.3703024 -1.6826195 -1.3759052 7 0.12929235 -0.015179661 0.9914903 2.6505362e-05
-2.3723302 -1.6734951 -1.3741939 7 0.12930393 -0.015057652 0.99149066 2.5418592e-05
-2.3802457 -1.6685239 -1.3759052 7 0.1292782 -0.014945082 0.99149579 2.5465239e-05
-2.378963 -1.657737 -1.3724825 6 0.12928219 -0.014792997 0.99149752 2.4409015e-05
-2.3835831 -1.651087 -1.3724825 7 0.1292775 -0.014675356 0.99149984 1.9531131e-05
-2.387269 -1.6425658 -1.3716269 6 0.12925915 -0.014562068 0.99150389 2.2217253e-05
-2.3948305 -1.6379343 -1.3733382 7 0.12923819 -0.014458852 0.99150813 2.1137883e-05
-2.3979006 -1.630224 -1.3724825 7 0.12921286 -0.014357394 0.99151295 1.9712308e-05
-2.4030104 -1.6226826 -1.3724825 6 0.12919855 -0.014225793 0.99151665 1.9517312e-05
-2.4072504 -1.6163857 -1.3724825 6 0.12918201 -0.014117255 0.99152046 1.699412e-05
-2.4060202 -1.6052234 -1.3690599 6 0.12916075 -0.013921814 0.99152595 1.4288486e-05
-2.4125586 -1.5986547 -1.3699156 6 0.12915438 -0.013798451 0.99152851 1.3564549e-05
-2.4134388 -1.5907656 -1.3682042 6 0.1291465 -0.01366084 0.99153143 7.5047342e-06
-2.4138873 -1.5802054 -1.3656373 6 0.12913804 -0.013519043 0.99153441 5.342491e-06
-2.4200802 -1.5740223 -1.366493 6 0.1291167 -0.01339801 0.99153888 6.5486192e-06
-2.4241929 -1.567681 -1.366493 6 0.12909776 -0.013273755 0.99154305 9.4147827e-06
-2.4288337 -1.5604812 -1.366493 7 0.12908667 -0.013161228 0.99154598 1.1606667e-05
-2.4261043 -1.5479819 -1.3622147 6 0.12908532 -0.012950355 0.99154896 8.3707264e-06
-2.433202 -1.5435609 -1.3639259 7 0.12904698 -0.012850888 0.99155521 8.4584963e-06
-2.4362411 -1.5353713 -1.3630702 7 0.12904562 -0.012691217 0.99155748 7.6713022e-06
-2.4364557 -1.5248328 -1.3605032 7 0.12904654 -0.012523681 0.99155945 7.8823077e-06
-2.4447782 -1.521741 -1.3630702 6 0.12901548 -0.012462814 0.99156427 4.4820699e-06
-2.4464719 -1.5121515 -1.361359 6 0.12903032 -0.012251148 0.99156499 0
-2.4494069 -1.5039407 -1.3605032 6 0.12901165 -0.012115476 0.99156904 2.1611536e-06
-2.4517927 -1.4965816 -1.3596476 6 0.12896137 -0.011960547 0.99157751 1.256503e-06
-2.4533908 -1.4869969 -1.3579364 6 0.12897758 -0.01182305 0.99157703 4.1969292e-07
-2.4577918 -1.4797114 -1.3579364 6 0.12896588 -0.011660373 0.99158049 0
-2.4616575 -1.4732717 -1.3579364 6 0.12894256 -0.011534929 0.99158496 1.1900662e-06
-2.4611008 -1.4636197 -1.3553693 7 0.12892774 -0.011361934 0.99158889 1.4376361e-06
-2.4688001 -1.4577187 -1.3570807 6 0.12889503 -0.011242093 0.99159455 1.9982276e-06
-2.4697425 -1.4489897 -1.3553693 7 0.12890588 -0.011050872 0.99159527 0
-2.4755929 -1.4425653 -1.3562249 6 0.12888502 -0.010876418 0.99159992 0
-2.476733 -1.4334027 -1.3545136 6 0.12886895 -0.010696843 0.99160397 0
-2.47891 -1.4260128 -1.353658 6 0.12883906 -0.010555786 0.99160933 0
-2.4831302 -1.4186512 -1.353658 6 0.12882024 -0.010403837 0.99161333 0
-2.4857564 -1.4103851 -1.3528024 6 0.12880497 -0.010231324 0.99161714 3.4911548e-06
-2.4896853 -1.403438 -1.3528024 6 0.12878349 -0.010057025 0.99162179 3.361276e-06
-2.4925041 -1.3947272 -1.3519466 6 0.12877825 -0.0098804217 0.99162418 3.0413466e-06
-2.4948094 -1.3868829 -1.351091 6 0.12875998 -0.0096924994 0.99162841 2.8332822e-06
-2.5002551 -1.3807844 -1.3519466 6 0.1287346 -0.0095310593 0.9916333 3.4367047e-06
-2.5014102 -1.3711855 -1.3502353 6 0.1287204 -0.009307107 0.99163723 5.6405938e-06
-2.5065789 -1.3654966 -1.351091 6 0.1286899 -0.009164759 0.99164253 2.767945e-06
-2.5074391 -1.3563331 -1.3493797 6 0.12865123 -0.00896639 0.99164933 5.9003405e-06
-2.5114527 -1.3488872 -1.3493797 6 0.12862678 -0.0087306732 0.99165463 5.6596359e-06
-2.5152097 -1.3418686 -1.3493797 7 0.12860121 -0.0085922694 0.99165916 5.6626372e-06
-2.5141554 -1.3323001 -1.3468127 6 0.1286248 -0.0083312057 0.99165839 5.4661527e-06
-2.5247283 -1.3277613 -1.3502353 7 0.12857135 -0.0082477843 0.99166596 2.2476156e-06
-2.5249915 -1.3194724 -1.348524 6 0.12857647 -0.0080150096 0.99166721 0
-2.5288954 -1.3119746 -1.348524 7 0.12854302 -0.0077870958 0.99167341 1.4657724e-06
-2.5311694 -1.3036382 -1.3476683 7 0.12852046 -0.007542633 0.99167824 3.0408494e-06
-2.5315812 -1.2949181 -1.345957 7 0.12848994 -0.0072914078 0.99168402 3.2586356e-06
-2.538636 -1.2890378 -1.3476683 6 0.12847178 -0.0070928968 0.99168777 8.9902824e-06
-2.5376067 -1.2790587 -1.3451014 6 0.12846857 -0.006846814 0.99168992 8.3207633e-06
-2.5460184 -1.2743946 -1.3476683 7 0.12843925 -0.0066636782 0.99169499 9.4588122e-06
-2.5416937 -1.2628137 -1.34339 6 0.12840603 -0.0063237255 0.99170154 1.0743873e-05
-2.5470505 -1.2560662 -1.3442457 6 0.12836915 -0.006127628 0.9917075 1.5322343e-05
-2.5535767 -1.2509847 -1.345957 6 0.12833272 -0.0059099519 0.99171352 1.8314846e-05
-2.5505579 -1.2406857 -1.3425344 6 0.12836625 -0.0055950684 0.99171108 2.0579817e-05
-2.556071 -1.2334529 -1.34339 6 0.12832189 -0.0053738393 0.99171799 2.2490924e-05
-2.5562449 -1.2247478 -1.3416787 6 0.12834187 -0.0051010987 0.99171686 2.460653e-05
-2.5582352 -1.2163814 -1.3408231 6 0.1283329 -0.0048297392 0.99171942 2.1833044e-05
-2.5618327 -1.2087861 -1.3408231 6 0.12834394 -0.0045705587 0.99171919 2.1258826e-05
-2.5668352 -1.2023941 -1.3416787 6 0.1282645 -0.0042919954 0.99173069 2.0604622e-05
-2.570183 -1.1952213 -1.3416787 6 0.12825271 -0.0040673311 0.99173313 2.5157859e-05
-2.5720768 -1.1868327 -1.3408231 6 0.12821913 -0.0037995495 0.99173862 2.8839093e-05
-2.5772305 -1.1799483 -1.3416787 6 0.12821238 -0.0035203213 0.99174052 2.9760522e-05
-2.5774281 -1.1708015 -1.3399674 6 0.12819666 -0.0032222995 0.99174351 2.9829012e-05
-2.5823357 -1.1643423 -1.3408231 6 0.12820414 -0.0029963544 0.99174327 3.2546359e-05
-2.5756772 -1.1526958 -1.3356891 6 0.12821183 -0.0026357132 0.99174333 3.7765651e-05
-2.5854943 -1.1484337 -1.3391117 6 0.12816378 -0.0024633349 0.99174994 3.6851776e-05
-2.5907435 -1.1410345 -1.3399674 6 0.12812275 -0.0021780506 0.9917559 3.9615963e-05
-2.5922635 -1.1330713 -1.3391117 6 0.12807953 -0.0018804247 0.9917621 4.0572537e-05
-2.5941517 -1.124203 -1.3382561 6 0.12804322 -0.001544527 0.99176741 4.6211073e-05
-2.5970862 -1.1174073 -1.3382561 6 0.12805216 -0.0012598666 0.99176657 4.5136578e-05
-2.5954022 -1.107568 -1.3356891 6 0.12801114 -0.00095268065 0.99177223 5.1089162e-05
-2.6038635 -1.1015223 -1.3382561 6 0.12795956 -0.0006711543 0.99177915 5.1440024e-05
-2.6065469 -1.0951569 -1.3382561 6 0.12791838 -0.00043156106 0.99178463 5.4223656e-05
-2.6032996 -1.084182 -1.3348334 7 0.12796316 -2.655139e-05 0.99177891 5.4597731e-05
-2.6148591 -1.0799038 -1.3391117 6 0.12788188 0.0001631325 0.99178934 5.9181915e-05
-2.6126595 -1.0709972 -1.3365448 6 0.12782925 0.0004849119 0.99179602 6.5620938e-05
-2.6175003 -1.0639218 -1.3374004 6 0.12786031 0.00076316204 0.9917919 6.9174195e-05
-2.6225069 -1.0563681 -1.3382561 6 0.1277798 0.0011208231 0.99180198 7.4401709e-05
-2.6235847 -1.0488282 -1.3374004 6 0.12772895 0.0013972914 0.99180812 7.8082689e-05
-2.6233239 -1.0397077 -1.3356891 6 0.12773943 0.0017270134 0.99180627 8.3048726e-05
-2.6263976 -1.0319188 -1.3356891 6 0.1277055 0.002097961 0.99180996 8.6026448e-05
-2.6290898 -1.0250398 -1.3356891 6 0.12769444 0.0023110618 0.99181092 8.4704436e-05
-2.6304333 -1.0165827 -1.3348334 6 0.12764341 0.0026584843 0.99181658 9.2067647e-05
-2.6353025 -1.0089602 -1.3356891 7 0.12756689 0.0029443542 0.99182558 9.1364062e-05
-2.636245 -1.0014154 -1.3348334 7 0.1275726 0.0032519696 0.99182391 9.4394047e-05
-2.6407232 -0.99468684 -1.3356891 6 0.12750348 0.0035629461 0.99183172 9.7499862e-05
-2.6406193 -0.98466098 -1.3339777 8 0.12746492 0.0039421902 0.99183524 9.9584126e-05
-2.643188 -0.97774494 -1.3339777 6 0.12741306 0.004279912 0.99184048 0.00010333237
-2.6442108 -0.96973741 -1.3331221 6 0.12737134 0.0046019591 0.99184436 0.0001082798
-2.6455452 -0.96080899 -1.3322664 6 0.1273232 0.0049275141 0.99184906 0.00011121515
-2.6480517 -0.95387948 -1.3322664 6 0.12729123 0.0053040632 0.99185115 0.00010983018
-2.6510351 -0.94555551 -1.3322664 6 0.12724942 0.0056181177 0.99185485 0.0001113672
-2.6555333 -0.93828833 -1.3331221 7 0.12715681 0.0059620454 0.99186474 0.00010926204
-2.6613929 -0.9325276 -1.3348334 7 0.12707797 0.0062750964 0.99187291 0.00010752818
-2.6504855 -0.91988581 -1.3279881 6 0.12714662 0.0066635455 0.99186152 0.00010692974
-2.661751 -0.91495568 -1.3322664 6 0.1270027 0.0069640717 0.99187785 0.0001055546
-2.6608737 -0.90635324 -1.3305551 6 0.1269848 0.0073338803 0.99187756 0.00010370846
-2.6654208 -0.89856732 -1.3314108 6 0.12692638 0.007682859 0.99188232 0.00010681665
-2.6644902 -0.88997501 -1.3296994 6 0.12689729 0.0080719404 0.99188304 0.0001085574
-2.6669652 -0.88253069 -1.3296994 6 0.12684299 0.0083878171 0.99188733 0.00010934252
-2.6694191 -0.87508011 -1.3296994 6 0.12672932 0.0087001473 0.99189925 0.00011198008
-2.6754427 -0.86827248 -1.3314108 7 0.12667097 0.0089978417 0.99190408 0.00011123614
-2.6692522 -0.85803169 -1.3271325 6 0.12667878 0.0094072446 0.99189925 0.00011037471
-2.6771028 -0.85128433 -1.3296994 6 0.12651224 0.009772798 0.99191689 0.00011052545
-2.677598 -0.84372997 -1.3288438 7 0.12648672 0.010062447 0.99191731 0.00011039742
-2.6783638 -0.83524334 -1.3279881 6 0.12642418 0.010452216 0.99192125 0.00011219562
-2.68083 -0.82729328 -1.3279881 7 0.12638076 0.010772038 0.99192327 0.00011179543
-2.6780863 -0.81775153 -1.3254211 6 0.12640685 0.011186761 0.99191546 0.00011181119
-2.6855505 -0.81183881 -1.3279881 6 0.12626815 0.011532286 0.99192911 0.00011227748
-2.6879475 -0.80386746 -1.3279881 6 0.12624268 0.011931891 0.99192762 0.00011437992
-2.6935093 -0.79785371 -1.3296994 6 0.12608621 0.012237668 0.99194378 0.00011331989
-2.6890631 -0.7873565 -1.3262768 6 0.12610035 0.012687828 0.99193633 0.00011169948
-2.689651 -0.77887148 -1.3254211 6 0.12603468 0.013045835 0.99193996 0.0001106103
-2.6936879 -0.77138585 -1.3262768 6 0.12597066 0.013464589 0.99194258 0.00010790811
-2.6956983 -0.76433027 -1.3262768 6 0.12587279 0.013805598 0.99195027 0.00010711937
-2.6996949 -0.7568171 -1.3271325 6 0.12579234 0.014141434 0.99195582 0.00010691548
-2.6983137 -0.74830884 -1.3254211 6 0.12577967 0.014533821 0.99195176 0.00010987435
-2.7022657 -0.74077719 -1.3262768 6 0.12569708 0.014845109 0.99195766 0.00011313725
-2.6992171 -0.73133844 -1.3237097 6 0.12569508 0.015222283 0.99195212 0.00011630975
-2.7031214 -0.72379392 -1.3245655 6 0.1255918 0.015670098 0.9919582 0.0001209547
-2.7068796 -0.71670508 -1.3254211 6 0.12551333 0.016040977 0.99196225 0.00012159534
-2.7072453 -0.70821273 -1.3245655 6 0.12544362 0.016398378 0.99196529 0.00012324798
-2.70559 -0.70021737 -1.3228542 6 0.12541123 0.016741399 0.99196362 0.00012423082
-2.7130308 -0.69305623 -1.3254211 6 0.12530625 0.017144084 0.99197 0.00012490834
-2.7132032 -0.68503457 -1.3245655 6 0.12527004 0.017537227 0.99196774 0.00012696654
-2.7151053 -0.67745566 -1.3245655 6 0.12515961 0.01793237 0.99197453 0.00012503067
-2.7172203 -0.66892248 -1.3245655 6 0.12504423 0.018296981 0.99198246 0.00012822625
-2.720834 -0.66175902 -1.3254211 6 0.12492551 0.018704755 0.99198973 0.00013009516
-2.7175124 -0.65241706 -1.3228542 6 0.12491688 0.019085908 0.99198359 0.00012818513
-2.7228417 -0.64565974 -1.3245655 6 0.12488381 0.019387174 0.99198192 0.00012478148
-2.7210026 -0.63770467 -1.3228542 6 0.12483702 0.01973463 0.99198103 0.00012682719
-2.7282763 -0.63037461 -1.3254211 6 0.12463446 0.020153498 0.99199808 0.00012877479
-2.7248473 -0.62107092 -1.3228542 6 0.12466509 0.020538699 0.99198633 0.00013014657
-2.7247005 -0.61353844 -1.3219985 6 0.12459954 0.020851128 0.991988 0.00012981812
-2.7248495 -0.6045838 -1.3211428 6 0.12452654 0.02127916 0.99198806 0.00013191013
-2.7317204 -0.59860879 -1.3237097 6 0.12437498 0.021587873 0.99200046 0.00013102491
-2.7317176 -0.59011912 -1.3228542 6 0.12432871 0.021960609 0.99199808 0.00013246444
-2.7352245 -0.58238828 -1.3237097 6 0.12422369 0.022333454 0.99200284 0.00013169268
-2.7369404 -0.57427001 -1.3237097 6 0.12417778 0.022677267 0.99200082 0.00013347744
-2.7385335 -0.56662464 -1.3237097 6 0.1241009 0.023069274 0.99200141 0.00013733769
-2.7384312 -0.55813622 -1.3228542 6 0.12402019 0.023445973 0.99200255 0.00013665931
-2.7417517 -0.55084276 -1.3237097 6 0.12396418 0.023759548 0.99200219 0.00013370864
-2.743279 -0.54318404 -1.3237097 7 0.12390449 0.024145665 0.99200034 0.00013377411
-2.7378747 -0.53318077 -1.3202872 6 0.1238744 0.024519527 0.99199498 0.00013694595
-2.7446787 -0.5265547 -1.3228542 7 0.12373786 0.024901884 0.99200237 0.00013648599
-2.7496912 -0.51955914 -1.3245655 10 0.12361471 0.025243048 0.99200916 0.00013445363
-2.7440221 -0.51055694 -1.3211428 12 0.12366229 0.02559614 0.9919942 0.00013731222
-2.7490816 -0.50306368 -1.3228542 11 0.12356267 0.025945859 0.99199748 0.00013732875
-2.7487831 -0.49458387 -1.3219985 11 0.12349669 0.026338205 0.99199539 0.00013830359
-2.7573586 -0.48768571 -1.3254211 10 0.12333772 0.02663656 0.9920072 0.00013840785
-2.7533667 -0.47905472 -1.3228542 10 0.1233813 0.027038122 0.99199098 0.00013992329
-2.7565579 -0.47118697 -1.3237097 9 0.12324321 0.02749552 0.99199551 0.00014114764
-2.7577822 -0.46396914 -1.3237097 8 0.12317546 0.027807623 0.99199522 0.00014331267
-2.7627933 -0.45589152 -1.3254211 7 0.12302173 0.028158858 0.99200439 0.00014348385
-2.7640555 -0.44817504 -1.3254211 6 0.12297867 0.028538644 0.99199891 0.00014164687
-2.7618794 -0.43892109 -1.3237097 7 0.12294612 0.02898472 0.99198997 0.00014367139
-2.7648804 -0.43148595 -1.3245655 6 0.12289491 0.029343428 0.9919858 0.00014609926
-2.7625008 -0.42321557 -1.3228542 6 0.12280866 0.02968836 0.99198622 0.00014645379
-2.7654595 -0.41576815 -1.3237097 7 0.12273749 0.030120952 0.99198192 0.00014509277
-2.7702577 -0.40808845 -1.3254211 6 0.12263373 0.030419551 0.99198574 0.00014162812
-2.7696671 -0.39960885 -1.3245655 6 0.12260716 0.030807806 0.99197698 0.00013808279
-2.7709088 -0.39090556 -1.3245655 6 0.12252492 0.031250916 0.99197328 0.00013955796
-2.7700653 -0.38388544 -1.3237097 6 0.12250388 0.031537652 0.99196684 0.00013870349
-2.7694662 -0.37493911 -1.3228542 6 0.1224725 0.031971447 0.99195677 0.00013686069
-2.7740221 -0.36816284 -1.3245655 6 0.12232113 0.032251097 0.99196643 0.00013625457
-2.7786877 -0.3603954 -1.3262768 6 0.12221689 0.032594085 0.99196804 0.00014034504
-2.7815385 -0.35237634 -1.3271325 6 0.12208917 0.033018023 0.99196982 0.00013900353
-2.7826316 -0.34363669 -1.3271325 6 0.12199201 0.033451155 0.9919672 0.00014017447
-2.7781377 -0.33569977 -1.3245655 6 0.12200811 0.033749633 0.99195516 0.00014012764
-2.7809167 -0.32766676 -1.3254211 6 0.12192575 0.034095313 0.99195349 0.00014372553
-2.7800252 -0.319693 -1.3245655 6 0.12187903 0.034463275 0.99194646 0.00014419903
-2.7828121 -0.31115913 -1.3254211 6 0.12178024 0.034855116 0.99194485 0.00014354018
-2.7854142 -0.30406931 -1.3262768 6 0.12171084 0.035224523 0.99194038 0.00014132056
-2.7881536 -0.29550695 -1.3271325 6 0.12161577 0.035626445 0.99193764 0.00014006642
-2.7853212 -0.28783533 -1.3254211 7 0.12156969 0.035950083 0.99193174 0.00014579771
-2.7879617 -0.2797502 -1.3262768 7 0.12148392 0.036314543 0.99192894 0.00014568614
-2.7941298 -0.27248985 -1.3288438 6 0.12130935 0.036658071 0.9919377 0.00014450117
-2.7913725 -0.26337075 -1.3271325 6 0.12126541 0.037076823 0.99192739 0.0001414783
-2.7938972 -0.25573999 -1.3279881 7 0.1211744 0.037429847 0.9919253 0.00014143503
-2.7964444 -0.2476085 -1.3288438 6 0.12107543 0.037775591 0.99192429 0.00014651738
-2.8006852 -0.24059582 -1.3305551 6 0.12096269 0.038069088 0.99192673 0.0001447347
-2.7978241 -0.23149844 -1.3288438 7 0.12096486 0.038511962 0.99190933 0.00014363979
-2.7966967 -0.22305153 -1.3279881 6 0.12093482 0.038844313 0.99190015 0.00014056779
-2.8009131 -0.21551867 -1.3296994 6 0.12081663 0.03912187 0.99190366 0.00014098875
-2.7997377 -0.20707443 -1.3288438 7 0.12075493 0.039465923 0.99189752 0.0001405957
-2.802108 -0.19938339 -1.3296994 6 0.12064639 0.03981391 0.99189687 0.00014011643
-2.804491 -0.1911913 -1.3305551 6 0.12057938 0.040144771 0.99189156 0.00014020386
-2.7995703 -0.18349358 -1.3279881 6 0.12055577 0.040476002 0.99188107 0.00013686407
-2.8019373 -0.17481069 -1.3288438 6 0.12049822 0.040816531 0.99187398 0.00013270945
-2.8060236 -0.16720039 -1.3305551 6 0.12038325 0.041102447 0.99187624 0.00013110273
-2.8101168 -0.1590782 -1.3322664 6 0.12028387 0.041411657 0.99187541 0.0001311932
-2.8087187 -0.15162311 -1.3314108 6 0.12022304 0.041789141 0.99186695 0.00012766523
-2.8109865 -0.14289017 -1.3322664 6 0.12012972 0.042080939 0.99186593 0.00012749592
-2.8095689 -0.1349536 -1.3314108 6 0.12005594 0.042382602 0.991862 0.00012709195
-2.8099351 -0.1271071 -1.3314108 6 0.12000207 0.042741008 0.99185318 0.00012428193
-2.8121057 -0.11884547 -1.3322664 6 0.1199309 0.043062136 0.99184787 0.00012348697
-2.8088334 -0.11035916 -1.3305551 6 0.11992887 0.043379113 0.99183428 0.00012122219
-2.814532 -0.10320445 -1.3331221 6 0.11980164 0.043692574 0.99183601 0.00011806509
-2.8148425 -0.094361708 -1.3331221 6 0.11976197 0.044101126 0.99182266 0.00011648591
-2.8150949 -0.0865013 -1.3331221 6 0.11969545 0.044352893 0.99181944 0.00010948876
-2.8189397 -0.0787405 -1.3348334 6 0.11961652 0.044640347 0.9918161 0.00010832219
-2.8209803 -0.069928825 -1.3356891 6 0.11947892 0.04502847 0.99181509 0.00010329761
-2.8175607 -0.061479472 -1.3339777 6 0.11947992 0.045322992 0.99180162 0.00010078592
-2.8177121 -0.054103356 -1.3339777 6 0.11941798 0.045615431 0.99179566 9.7910081e-05
-2.8196676 -0.045771983 -1.3348334 6 0.11935426 0.045932826 0.99178863 9.4317722e-05
-2.823406 -0.037453458 -1.3365448 6 0.11924178 0.046266727 0.99178672 8.7684333e-05
-2.8180869 -0.028528262 -1.3339777 6 0.1192535 0.046610083 0.99176913 8.2550861e-05
-2.823575 -0.021191584 -1.3365448 6 0.11918315 0.046913434 0.99176329 7.6220844e-05
-2.8236253 -0.01281362 -1.3365448 6 0.11911433 0.047134314 0.99176115 7.218487e-05
-2.8236492 -0.0054211235 -1.3365448 7 0.11901758 0.047431219 0.99175858 6.8936504e-05
-2.8200369 0.0034446931 -1.3348334 6 0.11898004 0.047692589 0.99175054 6.4980042e-05
-2.8272452 0.011842338 -1.3382561 6 0.11890377 0.048024997 0.99174368 5.9477727e-05
-2.8290052 0.020243984 -1.3391117 6 0.11883291 0.04835853 0.99173599 5.3568885e-05
-2.8289378 0.028144166 -1.3391117 6 0.11875493 0.048649274 0.99173105 4.766928e-05
-2.8270404 0.036021098 -1.3382561 6 0.11874638 0.048859894 0.99172175 4.9414124e-05
-2.834151 0.044521991 -1.3416787 6 0.1186193 0.049167298 0.99172175 4.3995133e-05
-2.8286028 0.051842473 -1.3391117 6 0.11860979 0.049409878 0.99171084 4.2419895e-05
-2.8284259 0.060728662 -1.3391117 6 0.11854295 0.04970853 0.99170393 3.8894592e-05
-2.826438 0.068583213 -1.3382561 6 0.11853053 0.049923968 0.99169457 3.5980564e-05
-2.8298361 0.077067032 -1.3399674 6 0.11845446 0.050226897 0.99168837 3.4328419e-05
-2.8278179 0.08442153 -1.3391117 6 0.11841559 0.050423082 0.99168301 2.9212139e-05
-2.8347492 0.094038308 -1.3425344 6 0.11832559 0.05071187 0.99167907 2.5052934e-05
-2.8344934 0.10145956 -1.3425344 6 0.11825421 0.050945379 0.99167562 2.2644495e-05
-2.8251672 0.10902552 -1.3382561 6 0.11829028 0.051121127 0.99166226 2.1268699e-05
-2.8266168 0.11797602 -1.3391117 6 0.11819949 0.051422633 0.99165756 1.4875519e-05
-2.8335001 0.12619087 -1.3425344 6 0.11812828 0.05167466 0.99165291 8.0789978e-06
-2.8313308 0.13401704 -1.3416787 6 0.11805439 0.05185049 0.99165249 1.0519098e-05
-2.8327265 0.14250816 -1.3425344 6 0.11797439 0.052101452 0.99164885 8.0091768e-06
-2.8323174 0.15041827 -1.3425344 7 0.11792757 0.052306265 0.99164373 8.5383608e-06
-2.8354683 0.15902318 -1.3442457 6 0.11783296 0.052566875 0.99164116 2.5892155e-06
-2.8331795 0.16732906 -1.34339 6 0.11776901 0.052785873 0.99163705 2.4755648e-06
-2.8308663 0.17562343 -1.3425344 6 0.11774082 0.05296639 0.99163079 0
-2.8376124 0.18350019 -1.345957 6 0.11768427 0.053178683 0.9916262 0
-2.8334148 0.19216873 -1.3442457 6 0.11763266 0.053378705 0.99162149 0
-2.8364737 0.20033526 -1.345957 6 0.11758241 0.053576369 0.99161673 0
-2.8341002 0.20812319 -1.3451014 6 0.11749721 0.053753648 0.99161738 0
-2.8352728 0.21666913 -1.345957 6 0.11747476 0.053959779 0.9916088 0
-2.8328545 0.22444326 -1.3451014 6 0.1174317 0.054114137 0.99160552 0
-2.8375809 0.23329136 -1.3476683 6 0.1173971 0.054322317 0.99159819 0
-2.8314726 0.24124937 -1.3451014 6 0.11736099 0.05450815 0.99159229 0
-2.8397918 0.24994805 -1.3493797 6 0.11731726 0.054726049 0.99158543 0
-2.8372376 0.25820845 -1.348524 6 0.11727376 0.054855667 0.99158341 0
-2.8364592 0.26662573 -1.348524 6 0.11722516 0.055038892 0.99157906 0
-2.8356555 0.27504063 -1.348524 6 0.11718263 0.055217866 0.99157417 0
-2.8385231 0.2828221 -1.3502353 7 0.11715301 0.055408791 0.99156696 0
-2.8358223 0.29155272 -1.3493797 6 0.11711291 0.055549368 0.9915638 0
-2.8349969 0.2994709 -1.3493797 6 0.11709813 0.055724803 0.99155569 0
-2.8412845 0.3086623 -1.3528024 6 0.11703879 0.055895478 0.99155313 0
-2.8385599 0.31689012 -1.3519466 7 0.11700407 0.055998359 0.99155146 0
-2.8394599 0.32502139 -1.3528024 6 0.11697932 0.056163963 0.99154496 0
-2.8403366 0.33316016 -1.353658 6 0.11697072 0.056286443 0.991539 0
-2.8356862 0.34164935 -1.3519466 7 0.11693551 0.056383383 0.99153769 0
-2.84202 0.34945932 -1.3553693 8 0.11690438 0.056515809 0.99153388 0
-2.8409081 0.35838684 -1.3553693 6 0.11690351 0.056631416 0.99152726 0
-2.8362465 0.36635071 -1.353658 6 0.11688974 0.056764539 0.99152136 0
-2.8406544 0.37448308 -1.3562249 6 0.11686867 0.05687559 0.99151748 0
-2.8412554 0.38364813 -1.3570807 6 0.11684513 0.05698381 0.99151403 0
-2.8419638 0.39182734 -1.3579364 6 0.11684354 0.057089247 0.99150813 0
-2.8426485 0.40001413 -1.3587919 6 0.11683285 0.057194021 0.99150336 0
-2.8378706 0.40793175 -1.3570807 6 0.11680123 0.057300169 0.99150097 0
-2.8402247 0.41687527 -1.3587919 7 0.11678626 0.057397962 0.9914971 0
-2.8426993 0.42484415 -1.3605032 6 0.11679664 0.057491489 0.99149036 0
-2.8377767 0.43322647 -1.3587919 7 0.11677142 0.057581969 0.99148816 0
-2.8365557 0.44114956 -1.3587919 7 0.11675926 0.057671316 0.9914844 0
-2.8424549 0.45020035 -1.3622147 6 0.1167689 0.057753883 0.9914785 0
-2.8446758 0.4592084 -1.3639259 6 0.11675207 0.0578449 0.99147511 0
-2.8415167 0.46735346 -1.3630702 7 0.1167677 0.057903837 0.9914698 0
-2.8402004 0.47528684 -1.3630702 6 0.11676643 0.057969771 0.99146616 0
-2.8369961 0.48340765 -1.3622147 6 0.11677724 0.058026537 0.99146158 8.2460127e-07
-2.8426738 0.49305895 -1.3656373 7 0.11678921 0.058112927 0.99145508 0
-2.8394177 0.50117642 -1.3647816 7 0.11677808 0.058195792 0.9914515 0
-2.8415661 0.5097422 -1.366493 7 0.11677845 0.058258582 0.99144781 0
-2.8382628 0.51784676 -1.3656373 7 0.11676419 0.058308978 0.99144655 2.3197008e-06
-2.8420458 0.52725512 -1.3682042 7 0.11678904 0.058420178 0.99143702 0
-2.8388793 0.53435892 -1.3673486 7 0.11678401 0.058467142 0.99143481 0
-2.8390567 0.54312021 -1.3682042 8 0.11676382 0.058554996 0.99143213 9.3393294e-07
-2.8374326 0.55154091 -1.3682042 6 0.11674035 0.058629569 0.99143046 3.3589552e-06
-2.8357837 0.5599575 -1.3682042 7 0.11673302 0.058665723 0.99142909 4.1846065e-06
-2.8395267 0.56893998 -1.3707713 7 0.11673408 0.05875656 0.99142361 5.2846008e-06
-2.8361552 0.57650656 -1.3699156 8 0.11672793 0.058786727 0.99142259 2.9421515e-06
-2.8327637 0.58405954 -1.3690599 7 0.11672369 0.058860078 0.99141872 5.6250065e-06
-2.8379922 0.59443855 -1.3724825 7 0.11674365 0.058887035 0.99141473 7.1686627e-06
-2.834553 0.60198539 -1.3716269 7 0.1167424 0.058951776 0.99141097 7.8005523e-06
-2.8414831 0.61279297 -1.3759052 7 0.1167573 0.058999188 0.99140656 8.1493881e-06
-2.8364451 0.61896366 -1.3741939 7 0.11675102 0.05905297 0.991404 9.2030741e-06
-2.8327215 0.62747997 -1.3733382 7 0.11674628 0.059111819 0.99140102 9.250818e-06
-2.8307362 0.63637632 -1.3733382 6 0.11675188 0.059182264 0.99139631 1.119723e-05
-2.8344612 0.64449388 -1.3759052 7 0.11676667 0.059221804 0.99139214 1.1473796e-05
-2.8324225 0.65339488 -1.3759052 7 0.11676453 0.059264131 0.99138981 1.2818628e-05
-2.828711 0.66138452 -1.3750496 8 0.11676634 0.059326664 0.99138588 1.5495425e-05
-2.8321304 0.67053092 -1.3776166 8 0.11676372 0.059409037 0.99138135 1.778415e-05
-2.8302469 0.67843729 -1.3776166 7 0.11677733 0.059444815 0.99137747 1.9220397e-05
-2.8281016 0.68732488 -1.3776166 7 0.11676224 0.059495453 0.99137622 2.4962457e-05
-2.8280478 0.69515812 -1.3784722 7 0.11678136 0.059552021 0.99137062 2.2757122e-05
-2.8259728 0.70354623 -1.3784722 7 0.11678801 0.059611775 0.99136627 2.3653995e-05
-2.8291314 0.71325386 -1.3810391 7 0.11681817 0.059592411 0.99136388 2.0410829e-05
-2.8272545 0.7206583 -1.3810391 7 0.11681575 0.059644014 0.99136102 2.3989714e-05
-2.8267269 0.72998822 -1.3818949 7 0.11683792 0.059695568 0.9913553 2.483e-05
-2.8262973 0.73882949 -1.3827505 6 0.1168484 0.059726469 0.9913522 2.8727207e-05
-2.820858 0.74530292 -1.3810391 7 0.11685786 0.059762582 0.99134898 3.0815587e-05
-2.8203804 0.75413638 -1.3818949 7 0.11687887 0.059789397 0.99134481 3.3557164e-05
-2.8214872 0.76393741 -1.3836062 7 0.11691686 0.059819799 0.99133855 3.5828842e-05
-2.8212211 0.77179867 -1.3844618 7 0.11690634 0.059864368 0.99133706 4.0426701e-05
-2.8190551 0.77967346 -1.3844618 6 0.11694571 0.059887979 0.99133104 4.1120955e-05
-2.8183322 0.78901416 -1.3853174 7 0.11698637 0.05991872 0.99132437 3.9166502e-05
-2.817997 0.79688126 -1.3861732 8 0.11703107 0.059944116 0.99131757 4.1061168e-05
