# .PCD v0.7 - Point Cloud Data file format
VERSION 0.7
FIELDS x y z intensity normal_x normal_y normal_z curvature
SIZE 4 4 4 4 4 4 4 4
TYPE F F F F F F F F
COUNT 1 1 1 1 1 1 1 1
WIDTH 584
HEIGHT 1
VIEWPOINT 0 0 0 1 0 0 0
POINTS 584
DATA ascii
-1.6757849 -2.8700616 -1.479708 25 0.14707495 0.014568506 0.98901802 0.0027751622
-1.6856441 -2.8685217 -1.4813349 24 0.1465466 0.014529848 0.98909706 0.0027874394
-1.695508 -2.8669484 -1.4829619 19 0.14684428 0.015061834 0.98904496 0.0029479477
-1.7007667 -2.8553286 -1.479708 15 0.14601028 0.015006 0.9891693 0.0027806892
-1.7068551 -2.8474338 -1.478081 13 0.14562374 0.015189637 0.98922342 0.0027636483
-1.7129118 -2.8395274 -1.476454 13 0.14538914 0.014936151 0.98926181 0.002689959
-1.7203813 -2.832871 -1.4756407 15 0.14520061 0.01470136 0.98929298 0.0026679141
-1.726873 -2.824636 -1.4740136 12 0.14490104 0.015139538 0.98933035 0.0026676257
-1.7328395 -2.8166902 -1.4723867 12 0.1447778 0.014838953 0.98935288 0.0025978552
-1.7411886 -2.8115368 -1.4723867 15 0.14458932 0.014925775 0.98937911 0.002583839
-1.7485569 -2.8048079 -1.4715732 12 0.14433306 0.015030839 0.98941499 0.002580947
-1.7558939 -2.8002205 -1.4715732 17 0.14401677 0.015131474 0.98945951 0.0025766946
-1.7627314 -2.7916002 -1.4699463 17 0.14380687 0.015425581 0.9894855 0.0025610789
-1.771006 -2.7863581 -1.4699463 13 0.14342339 0.015540035 0.98953938 0.0025518732
-1.7768115 -2.7783229 -1.4683193 12 0.14298974 0.015132931 0.98960847 0.0024673005
-1.7830694 -2.7699664 -1.4666924 11 0.14286031 0.01495776 0.98962986 0.0024439662
-1.7907979 -2.7649763 -1.4666924 10 0.1426488 0.014908914 0.9896611 0.0024389364
-1.796 -2.7550592 -1.464252 11 0.1425354 0.014742654 0.98967993 0.0024186289
-1.8032069 -2.7503476 -1.464252 10 0.14220284 0.014817863 0.9897266 0.0024141464
-1.812845 -2.7461939 -1.4650655 11 0.14201124 0.014903614 0.98975289 0.0024110526
-1.8174738 -2.7365551 -1.462625 10 0.14148496 0.014470377 0.98983461 0.0023169045
-1.824031 -2.7277942 -1.4609982 10 0.14088964 0.01398047 0.98992658 0.0022282214
-1.8316416 -2.7226896 -1.4609982 10 0.14070353 0.01393832 0.98995364 0.0022223671
-1.8382136 -2.7160509 -1.4601846 10 0.14025244 0.013193769 0.99002784 0.0021289438
-1.8427063 -2.7063763 -1.4577441 9 0.13880667 0.010836486 0.99026018 0.0018144505
-1.8502564 -2.70122 -1.4577441 10 0.13864583 0.010752955 0.99028367 0.0018091104
-1.8556217 -2.6908813 -1.4553038 9 0.13847481 0.010908869 0.9903059 0.0017994938
-1.8640664 -2.6850386 -1.4553038 9 0.13833319 0.010794127 0.99032694 0.0017919265
-1.8669055 -2.6741571 -1.4520499 9 0.13828452 0.010539873 0.99033648 0.00177978
-1.8716807 -2.6641209 -1.4496094 9 0.1379409 0.010097834 0.99038899 0.0017280449
-1.8837965 -2.6645234 -1.4528633 9 0.13801895 0.010506525 0.99037391 0.0017767374
-1.8875892 -2.6551154 -1.450423 9 0.13776976 0.0099960109 0.99041384 0.0017369286
-1.8980478 -2.6521435 -1.4520499 11 0.1376112 0.010035669 0.99043548 0.001739456
-1.9037734 -2.6435349 -1.450423 10 0.13738535 0.010013777 0.99046707 0.001731885
-1.9096161 -2.6370618 -1.4496094 9 0.13728257 0.0099697849 0.99048179 0.0017351252
-1.9120514 -2.6240015 -1.4455421 9 0.1370105 0.0089785187 0.99052894 0.0016703125
-1.920452 -2.6201253 -1.4463556 9 0.13695125 0.008928258 0.99053758 0.0016645669
-1.9234245 -2.6088696 -1.4431016 9 0.13658762 0.0080872895 0.99059492 0.0016011879
-1.934877 -2.6072161 -1.4455421 9 0.13649212 0.0080608027 0.99060839 0.0016022493
-1.9399644 -2.5988741 -1.4439151 9 0.13635337 0.0073524835 0.99063295 0.0015482459
-1.9450206 -2.5905244 -1.4422883 9 0.13583735 0.0063870726 0.99071056 0.0014742031
-1.9504955 -2.581826 -1.4406612 9 0.13574091 0.0058775507 0.99072695 0.0014646817
-1.9581475 -2.5760274 -1.4406612 9 0.13544832 0.0051850905 0.99077082 0.0014101668
-1.9620039 -2.5661952 -1.4382209 9 0.13486855 0.0036425598 0.99085677 0.0012866026
-1.9673814 -2.557466 -1.4365939 9 0.1346017 0.0030394269 0.99089515 0.0012415036
-1.9771978 -2.554507 -1.4382209 9 0.13427192 0.0025447351 0.99094129 0.0011932725
-1.9827567 -2.5478799 -1.4374074 9 0.13394417 0.0016174897 0.99098748 0.0011236061
-1.9884977 -2.5387621 -1.4357804 9 0.13357596 0.00058878405 0.99103844 0.0010524943
-1.997152 -2.5342863 -1.4365939 9 0.13326897 -3.9729953e-06 0.99107993 0.00099858607
-2.0019517 -2.5258353 -1.4349669 9 0.13292715 -0.00098286022 0.99112535 0.00093314989
-2.007159 -2.5170274 -1.43334 9 0.13226873 -0.002588297 0.99121052 0.00080907211
-2.011894 -2.5085616 -1.4317131 9 0.1308535 -0.0058038491 0.99138469 0.00051224406
-2.0174696 -2.4993851 -1.4300861 9 0.13012311 -0.0075336145 0.99146926 0.00036078494
-2.0247221 -2.4958668 -1.4308995 10 0.12991853 -0.0083328923 0.99148959 0.00032201051
-2.0302417 -2.4866633 -1.4292727 10 0.12948093 -0.0096716136 0.99153471 0.00026835801
-2.0336995 -2.4767478 -1.4268322 10 0.12888728 -0.011947337 0.99158728 0.00016638554
-2.0440984 -2.4752853 -1.4292727 10 0.12882915 -0.012002551 0.99159414 0.00016156187
-2.0483608 -2.4646363 -1.4268322 9 0.12867326 -0.012230857 0.99161166 0.00016211928
-2.0540638 -2.457505 -1.4260188 10 0.12884302 -0.012584776 0.99158514 0.00015630244
-2.0609188 -2.4517591 -1.4260188 9 0.12886281 -0.012776857 0.99158013 0.00014789138
-2.0653975 -2.4432039 -1.4243917 9 0.1288158 -0.013055101 0.99158263 0.00014460276
-2.0706959 -2.4339194 -1.4227648 9 0.12880298 -0.013193869 0.99158239 0.0001436305
-2.0771432 -2.4260147 -1.4219513 9 0.12878655 -0.013415695 0.99158156 0.00013895051
-2.0854478 -2.4237022 -1.4235784 9 0.12879498 -0.013532649 0.99157894 0.00013697278
-2.0918565 -2.4157567 -1.4227648 9 0.12888837 -0.013880335 0.99156189 0.00012304542
-2.0921752 -2.4033821 -1.4186975 9 0.12889722 -0.014006261 0.99155903 0.00012276157
-2.0968897 -2.3944147 -1.4170705 8 0.12909502 -0.014761747 0.99152231 9.849108e-05
-2.1051919 -2.3895538 -1.417884 8 0.12919161 -0.015041814 0.99150562 8.9560272e-05
-2.1139016 -2.384295 -1.4186975 7 0.12917651 -0.015263532 0.99150413 8.4205101e-05
-2.1156881 -2.3729274 -1.4154437 8 0.12920345 -0.016411519 0.99148226 5.2789026e-05
-2.1235249 -2.368371 -1.416257 9 0.12929034 -0.016756603 0.99146521 4.6817502e-05
-2.1268721 -2.3579893 -1.4138166 8 0.12931889 -0.016981322 0.99145764 3.899389e-05
-2.1305833 -2.3497064 -1.4121897 8 0.12936524 -0.017256439 0.99144685 3.4922694e-05
-2.1354914 -2.340302 -1.4105628 8 0.12938052 -0.017412622 0.99144214 2.9052075e-05
-2.1424258 -2.3339555 -1.4105628 9 0.12937707 -0.017724287 0.99143708 2.5286698e-05
-2.1485291 -2.3283384 -1.4105628 9 0.12937582 -0.017862333 0.99143469 2.1765074e-05
-2.15378 -2.3209901 -1.4097493 8 0.12941037 -0.018126 0.99142545 1.396364e-05
-2.1589706 -2.3111649 -1.4081223 8 0.12941505 -0.018206505 0.99142331 1.5763544e-05
-2.1662641 -2.3068368 -1.4089358 8 0.12944749 -0.018298443 0.99141747 1.4849902e-05
-2.1693344 -2.2964151 -1.4064953 8 0.12947905 -0.018433871 0.99141079 1.2104822e-05
-2.1761386 -2.2899685 -1.4064953 8 0.12949118 -0.01849105 0.99140817 1.1179487e-05
-2.1783404 -2.2802999 -1.404055 9 0.12950842 -0.018599797 0.99140388 9.7934626e-06
-2.1850967 -2.2738264 -1.404055 8 0.12953298 -0.018683631 0.99139905 7.6849446e-06
-2.1931038 -2.2686467 -1.4048685 8 0.1295397 -0.018702483 0.99139786 1.0269487e-05
-2.1943364 -2.2572732 -1.4016145 9 0.12955186 -0.018773554 0.99139494 1.1771586e-05
-2.2052495 -2.2542868 -1.404055 8 0.12954263 -0.01878552 0.99139589 1.0145847e-05
-2.2051296 -2.2416072 -1.3999876 8 0.12953204 -0.018815938 0.99139667 9.7447873e-06
-2.2100959 -2.2341413 -1.3991741 8 0.12951365 -0.018839335 0.99139869 1.0038985e-05
-2.2196815 -2.2297776 -1.4008011 9 0.12950569 -0.018844681 0.99139953 1.3086743e-05
-2.224607 -2.2222786 -1.3999876 9 0.12951919 -0.018903375 0.99139673 1.3549706e-05
-2.2295079 -2.2147698 -1.3991741 8 0.12952891 -0.018911947 0.99139529 1.2094104e-05
-2.2347698 -2.2068613 -1.3983606 8 0.12951493 -0.018973554 0.99139589 1.3413246e-05
-2.2426109 -2.2015011 -1.3991741 9 0.12951514 -0.01895958 0.99139613 1.0751371e-05
-2.2444451 -2.1917934 -1.3967338 8 0.12953876 -0.018971043 0.99139279 6.2690606e-06
-2.253943 -2.1872756 -1.3983606 8 0.1295227 -0.018984474 0.9913947 7.797662e-06
-2.2544029 -2.1762917 -1.3951067 8 0.12953885 -0.019007513 0.99139214 6.4157316e-06
-2.2612288 -2.1691983 -1.3951067 9 0.12953047 -0.019042958 0.99139255 8.6713217e-06
-2.2676551 -2.1624796 -1.3951067 9 0.12954761 -0.019082006 0.99138957 8.8459265e-06
-2.2680061 -2.1515059 -1.3918529 8 0.12955029 -0.019089604 0.99138904 6.38648e-06
-2.2787433 -2.1481295 -1.3942933 8 0.12958916 -0.01909727 0.99138385 5.5381952e-06
-2.2816935 -2.1396573 -1.3926663 9 0.12959537 -0.019113671 0.99138272 5.3474955e-06
-2.2853584 -2.1303866 -1.3910394 8 0.12961096 -0.019087914 0.99138117 5.4181041e-06
-2.2916696 -2.1235962 -1.3910394 8 0.12963158 -0.019083295 0.99137861 6.4169922e-06
-2.2939289 -2.1130736 -1.388599 8 0.12963982 -0.019060289 0.99137789 7.3553324e-06
-2.2984736 -2.1054254 -1.3877856 8 0.12965378 -0.019083101 0.99137563 1.2541657e-05
-2.303359 -2.0973666 -1.386972 8 0.12964223 -0.019052511 0.99137777 1.4289012e-05
-2.3078527 -2.0896995 -1.3861586 8 0.12964974 -0.019064717 0.99137658 1.7797514e-05
-2.3150373 -2.0844691 -1.386972 8 0.12966771 -0.019052848 0.99137443 1.7366314e-05
-2.3171277 -2.0739353 -1.3845315 8 0.12966028 -0.019039897 0.99137563 1.8104925e-05
-2.3222661 -2.0654321 -1.3837181 9 0.12964217 -0.019033505 0.99137813 1.631833e-05
-2.326297 -2.0581343 -1.3829046 8 0.12963663 -0.018994501 0.99137968 1.5530948e-05
-2.3296497 -2.0488095 -1.3812777 8 0.12963137 -0.019002236 0.99138016 1.9560784e-05
-2.3312359 -2.0386875 -1.3788372 9 0.12963447 -0.018940996 0.99138099 1.6217262e-05
-2.3403871 -2.033751 -1.3804642 8 0.12962559 -0.018886751 0.99138308 1.7986211e-05
-2.3446751 -2.0260129 -1.3796507 8 0.12961622 -0.018892381 0.99138421 2.1110598e-05
-2.3506761 -2.019047 -1.3796507 9 0.12963641 -0.018828571 0.99138284 2.0970154e-05
-2.3521373 -2.0089149 -1.3772104 8 0.12959667 -0.018770276 0.99138904 2.5940331e-05
-2.3563454 -2.0011556 -1.3763968 8 0.12959439 -0.018712111 0.99139047 2.5746129e-05
-2.3598275 -1.9913868 -1.3747699 8 0.1295757 -0.018658929 0.99139398 2.6698706e-05
-2.3650324 -1.9852024 -1.3747699 8 0.12955312 -0.01858712 0.99139827 3.0443791e-05
-2.3670487 -1.9742513 -1.3723295 8 0.1295239 -0.018485783 0.991404 3.2242515e-05
-2.3767719 -1.9711323 -1.3747699 8 0.12958643 -0.018416416 0.99139708 3.4140565e-05
-2.3812001 -1.9629099 -1.3739564 7 0.12956432 -0.018361518 0.99140102 3.7097729e-05
-2.3863304 -1.9566697 -1.3739564 7 0.12957507 -0.018275384 0.9914012 3.6138954e-05
-2.3882165 -1.9457003 -1.371516 7 0.12955835 -0.018201524 0.99140483 3.7557518e-05
-2.3893814 -1.9355738 -1.3690757 8 0.12947576 -0.018126262 0.99141687 4.2952706e-05
-2.3936906 -1.9273298 -1.3682621 8 0.12948698 -0.018010454 0.99141753 4.2576383e-05
-2.3944502 -1.9176301 -1.3658217 8 0.12943317 -0.017974472 0.99142522 4.4187174e-05
-2.4015584 -1.9116554 -1.3666352 8 0.1294871 -0.017834971 0.99142069 4.3361961e-05
-2.4043541 -1.9022541 -1.3650082 8 0.12945244 -0.017725125 0.99142712 4.5109282e-05
-2.4085512 -1.8939822 -1.3641948 8 0.12944719 -0.017635694 0.99142945 4.5573812e-05
-2.4109521 -1.8849986 -1.3625678 8 0.12941667 -0.017559467 0.99143487 4.7587826e-05
-2.4168625 -1.8774143 -1.3625678 8 0.1294567 -0.017466063 0.99143124 4.5741468e-05
-2.4206495 -1.8695414 -1.3617543 8 0.12945998 -0.017374173 0.99143243 4.5093024e-05
-2.42731 -1.8638872 -1.3625678 7 0.12948155 -0.017279938 0.9914313 4.0015595e-05
-2.428472 -1.853352 -1.3601273 8 0.12946597 -0.017174507 0.99143517 3.8752889e-05
-2.4336383 -1.8465631 -1.3601273 8 0.12946236 -0.017055105 0.99143761 3.6583417e-05
-2.4391065 -1.839334 -1.3601273 8 0.12947193 -0.016962936 0.99143797 3.5728361e-05
-2.4460154 -1.8331846 -1.3609409 9 0.12949729 -0.016899046 0.99143577 3.199765e-05
-2.4525895 -1.8274387 -1.3617543 9 0.12951204 -0.016804792 0.99143541 2.6652515e-05
-2.4529619 -1.8177482 -1.359314 8 0.12948769 -0.016702803 0.99144042 2.8579609e-05
-2.4571891 -1.8089496 -1.3585005 8 0.12946601 -0.016540209 0.99144584 2.9453067e-05
-2.4607568 -1.8010014 -1.3576869 8 0.1294619 -0.016433533 0.99144822 3.1960055e-05
-2.4675674 -1.7947669 -1.3585005 8 0.12945218 -0.01633543 0.99145108 3.0645479e-05
-2.4699199 -1.7852975 -1.3568735 8 0.12942944 -0.016216781 0.99145603 2.7635122e-05
-2.4719284 -1.7762607 -1.3552465 8 0.12939525 -0.016096381 0.99146247 2.9207638e-05
-2.4813385 -1.7725372 -1.3576869 9 0.12941618 -0.016023692 0.99146086 2.6557931e-05
-2.4791377 -1.7598789 -1.3536196 8 0.12934843 -0.015857868 0.99147236 2.5382284e-05
-2.4843485 -1.7525152 -1.3536196 7 0.12932828 -0.015761053 0.9914766 2.5617159e-05
-2.4880416 -1.7440876 -1.3528062 7 0.12932415 -0.015644316 0.99147898 2.643816e-05
-2.4958999 -1.7392224 -1.3544331 8 0.12933762 -0.015573118 0.99147832 2.7343442e-05
-2.4962413 -1.7291244 -1.3519926 8 0.12931272 -0.015423516 0.99148387 2.3983495e-05
-2.5061769 -1.7243807 -1.3544331 8 0.12931862 -0.015324695 0.99148464 1.8531973e-05
-2.5064578 -1.7142814 -1.3519926 8 0.12930925 -0.015182337 0.9914881 2.0140829e-05
-2.5127466 -1.7083025 -1.3528062 8 0.12929538 -0.015055524 0.99149179 1.990565e-05
-2.5150726 -1.698355 -1.3511792 8 0.12924789 -0.014925038 0.99150002 2.192702e-05
-2.5179935 -1.6907459 -1.3503658 7 0.12925929 -0.014803454 0.99150032 1.9480272e-05
-2.5214787 -1.6822538 -1.3495522 8 0.12925822 -0.014639514 0.99150282 2.1096788e-05
-2.5237055 -1.672305 -1.3479253 8 0.12923194 -0.014509182 0.99150831 2.0034142e-05
-2.5293097 -1.6671393 -1.3487388 8 0.1292268 -0.014420172 0.99151021 2.2384766e-05
-2.5391207 -1.6621871 -1.3511792 9 0.12921807 -0.014315566 0.99151284 1.6975235e-05
-2.5363829 -1.6496656 -1.3471118 8 0.12917016 -0.014128391 0.99152172 1.4802388e-05
-2.5391588 -1.6420273 -1.3462983 8 0.12916066 -0.013989449 0.99152499 1.3962238e-05
-2.5424826 -1.6334985 -1.3454849 8 0.12916036 -0.013855933 0.9915269 1.3087776e-05
-2.5476015 -1.6255034 -1.3454849 8 0.12915894 -0.013703598 0.99152923 1.105393e-05
-2.5503061 -1.6178488 -1.3446715 8 0.12913087 -0.013569581 0.99153477 1.2930525e-05
-2.5550947 -1.6102753 -1.3446715 8 0.12911972 -0.01343986 0.99153799 1.2911842e-05
-2.5539458 -1.5983628 -1.3414174 8 0.12910424 -0.013189678 0.99154335 7.3569877e-06
-2.5593948 -1.5930836 -1.342231 8 0.12912236 -0.013149694 0.9915415 6.4533388e-06
-2.5674956 -1.5869555 -1.3438579 9 0.12913089 -0.013028412 0.99154198 6.6749731e-06
-2.5721927 -1.5793313 -1.3438579 9 0.12911229 -0.012874888 0.99154633 4.7610465e-06
-2.5638421 -1.5649768 -1.3373501 8 0.12908387 -0.012682262 0.99155259 3.9720298e-06
-2.5703092 -1.5578609 -1.3381636 8 0.12908337 -0.012533421 0.9915545 3.83611e-06
-2.5733542 -1.5492857 -1.3373501 8 0.1290665 -0.012374185 0.99155879 3.8046928e-06
-2.5789695 -1.5434816 -1.3381636 8 0.12903887 -0.012245398 0.99156398 2.3652983e-06
-2.5785587 -1.5334719 -1.3357232 8 0.12903799 -0.012103608 0.99156576 3.2538449e-06
-2.5849366 -1.5262923 -1.3365368 8 0.12903589 -0.011949327 0.99156785 4.3627301e-06
-2.5860367 -1.5172191 -1.3349097 7 0.12904023 -0.011802317 0.99156916 3.5488933e-06
-2.5842128 -1.5058599 -1.3316559 8 0.12899736 -0.011606522 0.99157703 1.1066273e-05
-2.5902507 -1.4991007 -1.3324693 8 0.12898102 -0.011456983 0.99158084 1.2502611e-05
-2.5941663 -1.4923148 -1.3324693 8 0.12897469 -0.011329737 0.99158317 1.1228895e-05
-2.5985827 -1.484611 -1.3324693 7 0.12899414 -0.011194376 0.99158216 1.2151399e-05
-2.599798 -1.4750909 -1.3308424 8 0.12897901 -0.010981101 0.99158651 1.0876214e-05
-2.6023157 -1.4669278 -1.3300289 8 0.12896164 -0.010835771 0.99159038 1.1479332e-05
-2.6148832 -1.4632066 -1.3340963 9 0.12893647 -0.010715862 0.99159497 1.2912522e-05
-2.617362 -1.4550108 -1.3332827 9 0.12892279 -0.010550364 0.99159849 1.2964402e-05
-2.6134181 -1.4432795 -1.3292154 8 0.12890427 -0.010340367 0.99160314 1.6718652e-05
-2.6195416 -1.435941 -1.3300289 7 0.12888898 -0.010113728 0.99160755 1.5249998e-05
-2.623292 -1.4290779 -1.3300289 8 0.1288581 -0.0099616917 0.99161297 1.0320422e-05
-2.6226995 -1.4186801 -1.3275884 8 0.12882045 -0.0097361449 0.99162006 1.0295034e-05
-2.6268973 -1.410892 -1.3275884 8 0.12883036 -0.0095398938 0.99162072 8.3077739e-06
-2.6308272 -1.4035506 -1.3275884 8 0.12884349 -0.0093676671 0.99162072 8.39115e-06
-2.6315076 -1.3944873 -1.3259616 8 0.12880623 -0.009159931 0.99162751 9.1793099e-06
-2.6358752 -1.3862138 -1.3259616 8 0.12879112 -0.0089600924 0.99163127 7.8707553e-06
-2.6394954 -1.3793081 -1.3259616 8 0.1287526 -0.0087933848 0.99163777 1.0655217e-05
-2.6435761 -1.3714703 -1.3259616 7 0.12875082 -0.0086003561 0.99163973 1.1056331e-05
-2.6443849 -1.361948 -1.3243345 8 0.12871547 -0.0084008286 0.99164599 1.1747359e-05
-2.6498048 -1.3553901 -1.325148 8 0.12868379 -0.0082302168 0.99165148 1.1485438e-05
-2.6472983 -1.344213 -1.3218942 8 0.12867925 -0.0079707131 0.99165428 9.509864e-06
-2.6529064 -1.3371745 -1.3227077 8 0.12867266 -0.0077658822 0.99165666 1.3061614e-05
-2.6615319 -1.3322144 -1.325148 8 0.12864611 -0.0076146265 0.99166131 1.4206886e-05
-2.6605639 -1.3218731 -1.3227077 8 0.12861502 -0.007352341 0.99166733 1.1859959e-05
-2.6677516 -1.3155893 -1.3243345 9 0.1285779 -0.0071094795 0.99167395 1.2713305e-05
-2.6728275 -1.309405 -1.325148 9 0.12857598 -0.006938966 0.99167544 1.2307935e-05
-2.6699014 -1.2987388 -1.3218942 8 0.12856495 -0.006682924 0.9916786 1.1643621e-05
-2.6805503 -1.2935214 -1.325148 9 0.1285246 -0.006443528 0.99168533 1.2618699e-05
-2.6742656 -1.2812939 -1.3202672 8 0.12850648 -0.0061491393 0.99168962 1.3284426e-05
-2.6780555 -1.2733533 -1.3202672 8 0.12847304 -0.005912642 0.99169534 1.4967843e-05
-2.6818216 -1.2654023 -1.3202672 8 0.12848936 -0.0056764893 0.99169457 1.6422082e-05
-2.6836905 -1.2571331 -1.3194537 8 0.12846698 -0.0053534699 0.99169934 1.8361277e-05
-2.6838775 -1.248093 -1.3178269 8 0.12842944 -0.0051026521 0.99170554 2.1925924e-05
-2.6892276 -1.2408895 -1.3186402 8 0.12838215 -0.0048874039 0.99171269 2.5696425e-05
-2.6978817 -1.2351867 -1.3210807 9 0.12837552 -0.004680933 0.9917146 2.466837e-05
-2.6948802 -1.2241544 -1.3178269 8 0.1283727 -0.0042768503 0.9917168 2.2353017e-05
-2.6982884 -1.2166239 -1.3178269 8 0.12836812 -0.0040140324 0.99171841 2.5127028e-05
-2.7000077 -1.2083375 -1.3170133 7 0.1283695 -0.0037326699 0.99171937 2.7326043e-05
-2.700032 -1.1993093 -1.3153864 8 0.1283242 -0.0034478009 0.99172622 2.9201374e-05
-2.7138186 -1.1952401 -1.3202672 9 0.1282614 -0.0032558723 0.99173504 3.2396514e-05
-2.7054269 -1.1825347 -1.3145729 8 0.12826055 -0.0028368044 0.99173647 3.6044697e-05
-2.7091286 -1.1740294 -1.3145729 7 0.12825523 -0.0025485998 0.9917379 3.6654292e-05
-2.7105148 -1.1662105 -1.3137594 7 0.12823272 -0.002297733 0.99174148 3.4975063e-05
-2.7173238 -1.1595972 -1.3153864 7 0.12822154 -0.0020442905 0.99174351 3.7051646e-05
-2.7192707 -1.1503434 -1.3145729 8 0.12819512 -0.0016881146 0.9917475 4.2654516e-05
-2.7237575 -1.1444037 -1.3153864 8 0.12816861 -0.0015121375 0.99175119 4.4285302e-05
-2.7222798 -1.133733 -1.312946 8 0.12810297 -0.0010482284 0.99176037 4.596154e-05
-2.7273202 -1.1263489 -1.3137594 8 0.12811165 -0.00080645317 0.99175948 5.0178394e-05
-2.728569 -1.1185116 -1.312946 7 0.12807769 -0.00047911319 0.99176401 5.3542048e-05
-2.7318754 -1.1104114 -1.312946 8 0.12800804 -0.00020205528 0.99177307 5.9273993e-05
-2.7370458 -1.1025053 -1.3137594 7 0.12798478 0.00010291098 0.99177611 6.4715459e-05
-2.734833 -1.0933018 -1.311319 8 0.12795711 0.00044469637 0.99177963 6.6780383e-05
-2.7431602 -1.0872027 -1.3137594 8 0.12790318 0.00075749296 0.99178642 7.0014103e-05
-2.7378716 -1.0757172 -1.3096921 8 0.12789951 0.001139463 0.99178648 7.4636744e-05
-2.7491896 -1.0718647 -1.3137594 8 0.12786327 0.0013497865 0.99179089 7.8210694e-05
-2.7489491 -1.0623854 -1.3121325 7 0.12780811 0.0017254227 0.99179733 8.2596423e-05
-2.7539797 -1.0543973 -1.312946 7 0.12777619 0.0020398567 0.99180102 8.8086243e-05
-2.753315 -1.045886 -1.311319 8 0.12771317 0.0023608143 0.99180841 8.9044785e-05
-2.7579343 -1.038837 -1.3121325 7 0.1276554 0.0026316992 0.99181509 9.2128888e-05
-2.761364 -1.0296855 -1.3121325 7 0.12761469 0.0030439505 0.9918192 9.5787145e-05
-2.7589095 -1.0205517 -1.3096921 8 0.12759675 0.0034012846 0.99182028 9.6858683e-05
-2.763464 -1.0134723 -1.3105055 8 0.12750173 0.0037101598 0.99183136 9.999732e-05
-2.7649171 -1.0041624 -1.3096921 8 0.12750231 0.0041160514 0.99182975 0.0001021526
-2.7675364 -0.99692023 -1.3096921 8 0.12749119 0.00444233 0.99182981 0.00010367752
-2.765492 -0.98637933 -1.3072517 8 0.12743211 0.0048403572 0.99183547 0.00010235789
-2.77702 -0.98121363 -1.311319 8 0.12730584 0.0050891615 0.9918505 9.9406025e-05
-2.7744064 -0.97212648 -1.3088785 8 0.12734801 0.0054492638 0.9918431 0.00010130373
-2.7772784 -0.96389091 -1.3088785 8 0.12730852 0.0058390782 0.99184602 0.00010122327
-2.7766705 -0.9544583 -1.3072517 8 0.12726523 0.0062213773 0.99184918 0.00010068526
-2.7793252 -0.94670051 -1.3072517 8 0.12721562 0.006568233 0.99185342 0.00010099915
-2.7840168 -0.93854851 -1.3080651 8 0.12715885 0.0069143893 0.99185824 9.966884e-05
-2.7866268 -0.93077028 -1.3080651 8 0.12710512 0.0072706523 0.99186265 0.00010049003
-2.7840114 -0.92126262 -1.3056246 8 0.12711455 0.0076662363 0.99185848 9.8472563e-05
-2.7883091 -0.91405433 -1.3064382 7 0.12704319 0.0079741022 0.9918651 9.9137244e-05
-2.7910089 -0.90577769 -1.3064382 7 0.12698787 0.0083194366 0.99186939 9.7771146e-05
-2.7935274 -0.89798003 -1.3064382 7 0.12691581 0.0086691929 0.99187565 9.7147e-05
-2.796335 -0.88919872 -1.3064382 8 0.12687303 0.0091919685 0.9918763 9.8345852e-05
-2.7969105 -0.88132614 -1.3056246 8 0.12680146 0.0094341515 0.99188328 9.8753546e-05
-2.8012574 -0.87356752 -1.3064382 7 0.12676679 0.0098017287 0.99188411 9.6814387e-05
-2.8003452 -0.86417514 -1.3048112 7 0.12672091 0.010198602 0.99188596 9.7887016e-05
-2.7976546 -0.85426164 -1.3023708 7 0.1267003 0.010599318 0.99188447 9.8414697e-05
-2.8035274 -0.84750301 -1.3039978 8 0.12664999 0.010969532 0.99188673 0.00010398299
-2.8077798 -0.83970499 -1.3048112 7 0.12655729 0.01134942 0.9918943 0.00010335697
-2.8064651 -0.83131272 -1.3031843 7 0.12649757 0.011717171 0.9918977 0.00010692675
-2.8073092 -0.82197893 -1.3023708 8 0.126454 0.012163525 0.99189782 0.00010756881
-2.811491 -0.81415397 -1.3031843 8 0.12639028 0.012485662 0.99190211 0.00010623973
-2.813894 -0.80580908 -1.3031843 8 0.12634426 0.012855185 0.99190319 0.00010665043
-2.8159943 -0.79843861 -1.3031843 7 0.126268 0.013266867 0.99190742 0.00010657562
-2.8148317 -0.78909391 -1.3015573 8 0.12620278 0.013679521 0.99191016 0.00010810378
-2.8170245 -0.78123021 -1.3015573 8 0.1261449 0.014058012 0.99191225 0.00010947989
-2.8246167 -0.7743175 -1.3039978 8 0.12608001 0.014477979 0.99191445 0.00011104884
-2.8251379 -0.76545596 -1.3031843 7 0.1260528 0.014866074 0.99191219 0.00010976339
-2.8256316 -0.75659758 -1.3023708 7 0.12594612 0.015302496 0.9919191 0.00011040927
-2.8277335 -0.74870378 -1.3023708 7 0.12590322 0.015647732 0.9919191 0.00011222238
-2.8264074 -0.73938543 -1.3007438 7 0.12583928 0.01605181 0.99192071 0.00011518705
-2.8247957 -0.73106831 -1.299117 8 0.12580702 0.016449625 0.99191833 0.00011952606
-2.8306191 -0.72309464 -1.3007438 8 0.1257087 0.01686915 0.99192375 0.00011636205
-2.8379419 -0.71652883 -1.3031843 7 0.12561464 0.017232854 0.99192941 0.00011305279
-2.831068 -0.7063899 -1.299117 7 0.12559111 0.017644258 0.99192518 0.00011598538
-2.8385952 -0.69880247 -1.3015573 7 0.12550451 0.018050037 0.99192888 0.00011344891
-2.8423111 -0.6913045 -1.3023708 7 0.12544796 0.01838164 0.99192989 0.00011265026
-2.8354666 -0.68073535 -1.2983034 7 0.12543872 0.018886058 0.9919216 0.00011392721
-2.8426902 -0.67407912 -1.3007438 8 0.12536345 0.019184215 0.99192542 0.00011418697
-2.8408873 -0.66580129 -1.299117 8 0.1252837 0.019617831 0.99192697 0.00011551887
-2.8411846 -0.65646231 -1.2983034 8 0.12526232 0.020038802 0.99192125 0.00011107908
-2.8413386 -0.64762259 -1.2974899 8 0.1252014 0.020495478 0.99191958 0.00011370143
-2.8448067 -0.64058357 -1.2983034 8 0.1251469 0.020817643 0.99191982 0.00011644207
-2.8521564 -0.63283044 -1.3007438 8 0.12502459 0.021181356 0.9919275 0.00011604061
-2.848449 -0.62418783 -1.2983034 7 0.12499505 0.021600295 0.9919222 0.00011500222
-2.8538604 -0.61650497 -1.2999303 8 0.12488313 0.021960281 0.99192846 0.00011356142
-2.8538899 -0.60765475 -1.299117 7 0.12487038 0.022345634 0.99192142 0.00011233603
-2.8592567 -0.59993464 -1.3007438 7 0.12471385 0.02279212 0.9919309 0.00011360544
-2.8573425 -0.59120715 -1.299117 7 0.12468088 0.023153445 0.99192667 0.0001146237
-2.8572936 -0.58236223 -1.2983034 8 0.12461083 0.023485983 0.99192768 0.00011639321
-2.8607001 -0.57474059 -1.299117 8 0.1245495 0.023889842 0.99192572 0.00011710978
-2.8605015 -0.56639469 -1.2983034 8 0.1244773 0.024208728 0.99192709 0.00012088833
-2.8640604 -0.55775452 -1.299117 8 0.12441657 0.024685804 0.99192297 0.00011915408
-2.8656068 -0.5497542 -1.299117 7 0.12432542 0.025016366 0.99192607 0.00012038928
-2.867131 -0.5417496 -1.299117 8 0.12427371 0.025359711 0.99192387 0.00012220038
-2.8704286 -0.53407633 -1.2999303 8 0.12417249 0.025812086 0.99192488 0.00012269802
-2.8684061 -0.5248993 -1.2983034 7 0.12412133 0.026162326 0.99192208 0.00012249291
-2.8717494 -0.51670897 -1.299117 8 0.12406569 0.026476307 0.99192071 0.00012398101
-2.8732696 -0.50818658 -1.299117 7 0.12395797 0.026867377 0.99192363 0.0001249448
-2.8692772 -0.49922186 -1.2966765 7 0.12392306 0.027238067 0.99191797 0.00012811949
-2.8815517 -0.49255252 -1.3015573 7 0.12374904 0.027644983 0.9919284 0.00012820073
-2.8774261 -0.48409805 -1.299117 7 0.12370889 0.027997445 0.99192357 0.00013085676
-2.8843408 -0.47594818 -1.3015573 7 0.12355027 0.028504133 0.99192894 0.0001353884
-2.8820515 -0.46730739 -1.2999303 7 0.12354761 0.028803371 0.99192053 0.00013576327
-2.8817012 -0.45796332 -1.299117 8 0.12345802 0.029208153 0.99191982 0.00013453848
-2.8883843 -0.45075992 -1.3015573 7 0.12334868 0.029607508 0.9919216 0.00013140379
-2.8860199 -0.44213873 -1.2999303 8 0.12330959 0.029989542 0.99191499 0.00013398298
-2.8836296 -0.43353423 -1.2983034 8 0.12329429 0.030331122 0.99190652 0.00013581602
-2.8830957 -0.42471069 -1.2974899 8 0.12321178 0.030728517 0.99190456 0.00013516523
-2.8933847 -0.41745889 -1.3015573 8 0.1230521 0.031191299 0.99190992 0.00013458892
-2.8928733 -0.40811166 -1.3007438 8 0.1229656 0.031598352 0.99190772 0.0001352196
-2.8902423 -0.40053999 -1.299117 7 0.12293302 0.031902999 0.99190199 0.00013447476
-2.8932967 -0.3917037 -1.2999303 7 0.12284001 0.032316435 0.99190021 0.00013540695
-2.8961236 -0.38436791 -1.3007438 7 0.12271179 0.032670077 0.99190444 0.00013391675
-2.9044988 -0.37671307 -1.3039978 7 0.12260848 0.033097345 0.99190307 0.00013207286
-2.9019787 -0.36763415 -1.3023708 6 0.1225591 0.033409484 0.99189872 0.00013677453
-2.9067457 -0.35896397 -1.3039978 6 0.12242044 0.033885073 0.99189967 0.00013741663
-2.9113033 -0.35179099 -1.3056246 6 0.12234138 0.034199171 0.99189872 0.0001318205
-2.9068909 -0.34250993 -1.3031843 6 0.12230783 0.034602191 0.99188882 0.00012994645
-2.9114661 -0.33480826 -1.3048112 6 0.12219108 0.034942616 0.99189126 0.00012864948
-2.9088724 -0.3252545 -1.3031843 7 0.12214131 0.035400853 0.99188119 0.00013115379
-2.9097137 -0.31763843 -1.3031843 6 0.12208539 0.035771322 0.99187481 0.00013130502
-2.9088802 -0.30830234 -1.3023708 7 0.12197378 0.0361702 0.99187404 0.00013249896
-2.9151297 -0.30124974 -1.3048112 7 0.12187715 0.036472153 0.99187481 0.00013153594
-2.9141927 -0.29241648 -1.3039978 8 0.12180657 0.036827423 0.9918704 0.00013185323
-2.9131796 -0.28409988 -1.3031843 8 0.12172426 0.037166554 0.99186784 0.00013263086
-2.9122384 -0.27477467 -1.3023708 7 0.12165365 0.037617847 0.9918595 0.00013245156
-2.918453 -0.26714122 -1.3048112 7 0.12157492 0.03788957 0.99185878 0.00013123672
-2.9192326 -0.25848067 -1.3048112 7 0.12146405 0.038360942 0.99185425 0.00013064229
-2.9198995 -0.25083703 -1.3048112 7 0.12137344 0.038628716 0.99185503 0.00012932306
-2.9206729 -0.24166322 -1.3048112 8 0.12128077 0.039044857 0.99185002 0.00012956915
-2.9231985 -0.23314074 -1.3056246 7 0.12117851 0.039400082 0.99184847 0.00012657595
-2.9274817 -0.22525759 -1.3072517 7 0.12105094 0.039841428 0.9918465 0.0001263023
-2.9281371 -0.21657112 -1.3072517 7 0.12097821 0.040202752 0.99184078 0.00012437013
-2.930553 -0.20852286 -1.3080651 6 0.12088952 0.040513389 0.99183887 0.00012489232
-2.9275131 -0.19957811 -1.3064382 7 0.12083631 0.040871497 0.99183065 0.00012354503
-2.9280255 -0.19191298 -1.3064382 6 0.12077019 0.041123003 0.99182832 0.00012468539
-2.9249668 -0.1824864 -1.3048112 6 0.12077815 0.04151063 0.99181122 0.0001233137
-2.9327605 -0.17475216 -1.3080651 7 0.12062391 0.041921549 0.99181271 0.00011837541
-2.931442 -0.1659463 -1.3072517 7 0.12058318 0.042233497 0.99180442 0.00011535253
-2.9318664 -0.158271 -1.3072517 7 0.12050794 0.04247053 0.99180347 0.00011782267
-2.9359984 -0.14924486 -1.3088785 7 0.12041992 0.042924184 0.99179459 0.00011291141
-2.9364038 -0.14104593 -1.3088785 7 0.12035658 0.0432471 0.99178827 0.00010968875
-2.9367862 -0.13284519 -1.3088785 7 0.12028299 0.0435762 0.99178284 0.0001070172
-2.938993 -0.124208 -1.3096921 7 0.12017273 0.043883409 0.99178267 0.00010792589
-2.9411743 -0.11555884 -1.3105055 7 0.12010437 0.04420843 0.99177647 0.00010452088
-2.937815 -0.10772504 -1.3088785 7 0.12003344 0.044533197 0.99177057 0.00010419555
-2.939965 -0.098556176 -1.3096921 7 0.11993209 0.044861808 0.991768 9.9443976e-05
-2.942055 -0.090402484 -1.3105055 7 0.11984228 0.045202155 0.99176341 9.5700794e-05
-2.942296 -0.08218617 -1.3105055 8 0.11978468 0.045509152 0.99175632 9.1477523e-05
-2.9425397 -0.072942138 -1.3105055 7 0.11970568 0.045864914 0.99174941 8.8681249e-05
-2.9409165 -0.064171106 -1.3096921 7 0.11964326 0.046160061 0.99174327 8.6521424e-05
-2.9483812 -0.056612361 -1.312946 7 0.11953955 0.04650788 0.99173951 8.5316999e-05
-2.9467094 -0.047834266 -1.3121325 7 0.11947705 0.04679187 0.99173367 7.8719553e-05
-2.9486654 -0.039115068 -1.312946 7 0.11942058 0.047097702 0.99172604 7.3530231e-05
-2.9506009 -0.029869735 -1.3137594 7 0.11936001 0.047476068 0.99171525 7.0783884e-05
-2.9488418 -0.022131741 -1.312946 7 0.11930386 0.047720294 0.99171036 6.7875517e-05
-2.9470673 -0.0133738 -1.3121325 7 0.11924859 0.048011225 0.99170291 6.6371293e-05
-2.9525735 -0.0056686453 -1.3145729 7 0.11914988 0.048313763 0.99170011 6.3229068e-05
-2.9507496 0.0036043597 -1.3137594 8 0.11911321 0.048622999 0.99168938 5.7074951e-05
-2.95438 0.012374862 -1.3153864 7 0.11906609 0.048974112 0.99167782 5.2729963e-05
-2.9543302 0.021140793 -1.3153864 7 0.11900038 0.049250331 0.99167198 4.6946643e-05
-2.9524329 0.02937278 -1.3145729 8 0.11894646 0.04947193 0.99166745 4.5040895e-05
-2.9541662 0.037640885 -1.3153864 8 0.11887023 0.049743507 0.99166298 4.2171599e-05
-2.9540415 0.046405364 -1.3153864 8 0.11881612 0.050012153 0.99165595 4.0726536e-05
-2.9575636 0.054206062 -1.3170133 7 0.11872537 0.050265841 0.99165404 3.5542213e-05
-2.9555519 0.06345816 -1.3161998 8 0.11869796 0.050508257 0.99164498 3.0452398e-05
-2.9571898 0.071755894 -1.3170133 8 0.11864039 0.050767768 0.9916386 2.6105186e-05
-2.9587905 0.080578938 -1.3178269 8 0.11858783 0.051025826 0.99163163 2.253574e-05
-2.9603953 0.088379495 -1.3186402 8 0.11854009 0.051286075 0.991624 1.8364746e-05
-2.9619122 0.09825673 -1.3194537 8 0.11848288 0.051576428 0.99161571 1.4693575e-05
-2.957993 0.10588018 -1.3178269 8 0.11843038 0.05174851 0.99161297 1.2011026e-05
-2.9595113 0.11420998 -1.3186402 8 0.11840236 0.051993947 0.99160349 7.0407609e-06
-2.9609637 0.12358333 -1.3194537 8 0.1183399 0.052214563 0.99159932 3.920637e-06
-2.9660828 0.13209547 -1.3218942 7 0.11826684 0.05253198 0.99159127 0
-2.9657023 0.14037731 -1.3218942 8 0.1182394 0.052741013 0.99158347 0
-2.9652729 0.14917627 -1.3218942 7 0.11817703 0.052981682 0.9915781 0
-2.9630201 0.1573596 -1.3210807 8 0.11817724 0.053138923 0.9915697 0
-2.960716 0.16604751 -1.3202672 8 0.11813524 0.053321701 0.99156487 0
-2.965682 0.17515472 -1.3227077 8 0.11805131 0.053579602 0.99156094 0
-2.9669728 0.18406732 -1.3235211 7 0.11803803 0.053771198 0.99155217 0
-2.9664807 0.19183373 -1.3235211 7 0.11797077 0.053955119 0.99155021 0
-2.9640405 0.20102805 -1.3227077 6 0.11794357 0.054148816 0.99154282 0
-2.9671128 0.20956208 -1.3243345 7 0.11788248 0.054310996 0.99154127 0
-2.9665158 0.21784718 -1.3243345 7 0.11787062 0.05451417 0.99153149 0
-2.9695001 0.22692667 -1.3259616 8 0.1178375 0.054694723 0.99152553 0
-2.9743192 0.23565131 -1.328402 9 0.1178093 0.054868963 0.99151921 0
-2.9754276 0.24462439 -1.3292154 9 0.11776613 0.055046767 0.99151456 0
-2.9674067 0.25283131 -1.3259616 8 0.11769063 0.055174824 0.99151635 0
-2.9648693 0.26095691 -1.325148 8 0.11767202 0.055321239 0.99151039 0
-2.9749992 0.27074572 -1.3300289 9 0.11763994 0.055502843 0.99150413 0
-2.9705448 0.27922973 -1.328402 8 0.11759815 0.055650786 0.99150074 0
-2.9697032 0.28804243 -1.328402 7 0.11755266 0.055766802 0.9914996 0
-2.9725749 0.29617864 -1.3300289 7 0.11752351 0.05590751 0.99149513 0
-2.9698122 0.30532834 -1.3292154 8 0.11751456 0.056031857 0.99148923 0
-2.9707651 0.31381258 -1.3300289 8 0.11749094 0.056155611 0.99148494 0
-2.9698207 0.32262579 -1.3300289 8 0.11745365 0.056292377 0.99148154 0
-2.9688506 0.33143547 -1.3300289 8 0.11741166 0.056447271 0.99147779 0
-2.9697287 0.33993274 -1.3308424 7 0.11741921 0.056530457 0.99147218 0
-2.9687679 0.34822464 -1.3308424 7 0.11738543 0.056634907 0.99147022 0
-2.967659 0.35754973 -1.3308424 8 0.11738701 0.056759354 0.99146289 0
-2.9722168 0.36546853 -1.3332827 8 0.11737967 0.056861632 0.99145782 0
-2.9710541 0.37480503 -1.3332827 8 0.11733134 0.056988932 0.99145633 0
-2.968117 0.38338408 -1.3324693 8 0.1173288 0.057095051 0.99145055 0
-2.9707263 0.39163041 -1.3340963 8 0.11735772 0.05718993 0.99144161 0
-2.9712915 0.40120661 -1.3349097 8 0.11734299 0.05728158 0.99143803 0
-2.9810193 0.41099924 -1.3397906 9 0.11735189 0.057362881 0.99143231 0
-2.970814 0.41804942 -1.3357232 8 0.1172862 0.05744021 0.99143565 6.8831872e-07
-2.9731774 0.42738152 -1.3373501 8 0.11726893 0.057503436 0.99143398 1.271334e-06
-2.9682808 0.43567076 -1.3357232 8 0.11731301 0.057585988 0.99142396 0
-2.9761651 0.44479072 -1.3397906 9 0.11731727 0.057647005 0.99141997 0
-2.9783654 0.45468932 -1.3414174 9 0.117329 0.05773852 0.99141324 0
-2.9752786 0.46272415 -1.3406041 9 0.11732624 0.057832841 0.99140799 0
-2.9739749 0.47103107 -1.3406041 9 0.11731365 0.057902411 0.99140549 0
-2.9797792 0.4810178 -1.3438579 9 0.11733917 0.058004953 0.99139649 0
-2.9729302 0.48896748 -1.3414174 8 0.11732919 0.05805682 0.9913947 0
-2.975157 0.49787086 -1.3430444 8 0.11733287 0.058159318 0.99138808 0
-2.9772694 0.50730944 -1.3446715 9 0.11735306 0.058246378 0.99138069 0
-2.9685502 0.5148921 -1.3414174 8 0.11732047 0.058318105 0.99138027 0
-2.9760058 0.52528512 -1.3454849 9 0.11734094 0.058395781 0.99137324 0
-2.9745274 0.53359383 -1.3454849 9 0.11733679 0.058467072 0.99136961 0
-2.969336 0.54176134 -1.3438579 8 0.11730196 0.058545027 0.99136907 1.9177528e-06
-2.9713085 0.55123585 -1.3454849 8 0.11734015 0.058579501 0.99136251 0
-2.9680598 0.5586744 -1.3446715 8 0.11731546 0.058633965 0.99136227 0
-2.9699779 0.56816584 -1.3462983 8 0.11733917 0.058692243 0.99135602 0
-2.9718661 0.57767212 -1.3479253 8 0.11737437 0.05871601 0.99135041 0
-2.970139 0.58648747 -1.3479253 8 0.11737166 0.058780074 0.9913469 0
-2.9738641 0.59585643 -1.3503658 9 0.11739098 0.058855213 0.99134022 8.8141422e-07
-2.9650269 0.60270238 -1.3471118 8 0.11737416 0.05889266 0.99133998 1.4339588e-06
-2.9651215 0.61134905 -1.3479253 8 0.11739168 0.058937646 0.99133521 0
-2.9703395 0.62215972 -1.3511792 8 0.11742856 0.058987688 0.99132782 0
-2.9668033 0.63007194 -1.3503658 8 0.11741064 0.059030022 0.99132746 4.0797832e-07
-2.9701674 0.64054501 -1.3528062 9 0.11743794 0.059098944 0.99132013 9.5035284e-07
-2.9650233 0.64702171 -1.3511792 8 0.1174085 0.059143279 0.99132103 1.9031171e-06
-2.9665437 0.65712315 -1.3528062 8 0.1174407 0.059195273 0.99131405 3.4260668e-06
-2.9644647 0.66643971 -1.3528062 8 0.11743004 0.059214529 0.99131429 7.803038e-06
-2.9610457 0.67327642 -1.3519926 8 0.11744922 0.059239391 0.99131048 6.9974508e-06
-2.9589159 0.68257493 -1.3519926 8 0.11746865 0.059268706 0.99130636 7.3239039e-06
-2.9657733 0.6934312 -1.35606 9 0.11749453 0.059302121 0.99130136 8.7442622e-06
-2.9638252 0.70171076 -1.35606 8 0.11750694 0.059324164 0.9912985 1.2957722e-05
-2.961854 0.70998478 -1.35606 8 0.11751962 0.059339531 0.99129605 1.4969256e-05
-2.9649353 0.7205801 -1.3585005 9 0.11758263 0.059353445 0.99128771 1.379727e-05
-2.9594898 0.72746772 -1.3568735 7 0.11757199 0.059385564 0.99128717 1.156816e-05
-2.9590914 0.73668706 -1.3576869 8 0.11759305 0.059418913 0.99128264 1.6337011e-05
-2.9568925 0.74546379 -1.3576869 8 0.11758901 0.059455074 0.99128103 1.7418921e-05
-2.9531603 0.75275129 -1.3568735 8 0.11757067 0.059486322 0.99128127 2.1357133e-05
-2.9560883 0.76339519 -1.359314 8 0.11764837 0.059468061 0.99127305 2.2163396e-05
-2.9520423 0.7717008 -1.3585005 8 0.11763698 0.059509642 0.99127203 2.5236057e-05
-2.950012 0.77942687 -1.3585005 8 0.1176666 0.059537914 0.99126679 2.5824331e-05
-2.9512165 0.78912038 -1.3601273 8 0.11767272 0.059592806 0.99126279 2.7232265e-05
-2.9557774 0.80029744 -1.3633813 8 0.11775338 0.05960859 0.9912523 2.6321193e-05
-2.9554341 0.80851519 -1.3641948 8 0.11778338 0.05961867 0.99124813 2.8806266e-05
-2.9531651 0.81676459 -1.3641948 9 0.11779295 0.059620421 0.99124676 2.9116021e-05
-2.9453058 0.82456142 -1.3617543 8 0.11775161 0.059662569 0.99124914 3.075082e-05
-2.9536865 0.83525193 -1.3666352 9 0.11785059 0.059685711 0.99123597 3.2065003e-05
-2.9457777 0.84301913 -1.3641948 8 0.11780418 0.059732493 0.99123871 3.5945795e-05
-2.953794 0.85480332 -1.3690757 9 0.11790206 0.059788685 0.99122369 3.4751476e-05
-2.9445314 0.86048305 -1.3658217 9 0.11787837 0.059820008 0.99122465 3.4959936e-05
-2.948822 0.87180138 -1.3690757 9 0.11792396 0.059860546 0.99121678 3.4351138e-05
-2.9463761 0.88003212 -1.3690757 9 0.11791955 0.059909157 0.99121433 3.4621509e-05
-2.9456563 0.88878453 -1.3698891 9 0.11794071 0.059924044 0.991211 3.4321685e-05
-2.9393539 0.89696842 -1.3682621 8 0.11793265 0.059959147 0.99120981 3.1824024e-05
-2.9368382 0.90517199 -1.3682621 8 0.11793476 0.060015231 0.99120599 3.3242562e-05
-2.9395328 0.91499895 -1.3707025 9 0.11797723 0.060062788 0.99119812 3.0895379e-05
-2.9385476 0.92426503 -1.371516 9 0.11801444 0.060113218 0.99119067 3.0474424e-05
-2.9410164 0.93464017 -1.3739564 9 0.11806229 0.06012857 0.99118406 3.0210302e-05
-2.9418743 0.94396597 -1.3755834 9 0.11810485 0.060173649 0.99117625 3.0656804e-05
-2.9355845 0.95156324 -1.3739564 8 0.11807626 0.060216371 0.99117714 2.9496161e-05
-2.9348192 0.95981413 -1.3747699 9 0.11809417 0.060252339 0.99117273 3.0910051e-05
-2.9335246 0.96960223 -1.3755834 9 0.11815257 0.060251977 0.99116588 2.9510833e-05
-2.9342718 0.97894704 -1.3772104 9 0.11816268 0.060298845 0.99116176 2.8101962e-05
-2.9263318 0.98538816 -1.3747699 8 0.11815163 0.060288318 0.99116373 2.986753e-05
-2.9301407 0.99693018 -1.3780239 9 0.1182718 0.060208242 0.99115425 2.7780052e-05
-2.9290733 1.0057024 -1.3788372 9 0.11849935 0.059867628 0.9911477 3.3911743e-05
-2.9279799 1.0144763 -1.3796507 9 0.11869548 0.059523337 0.99114496 4.1591673e-05
-2.9247787 1.0236692 -1.3796507 9 0.11884477 0.059217904 0.99114537 4.8736209e-05
-2.9186423 1.0301075 -1.3780239 8 0.11888059 0.059068102 0.99114996 5.5002482e-05
-2.9207366 1.0406018 -1.3804642 9 0.11902551 0.058793038 0.99114895 7.0530776e-05
-2.9227941 1.0511183 -1.3829046 9 0.11911403 0.058655161 0.99114656 7.252935e-05
-2.9164121 1.0580301 -1.3812777 8 0.11916631 0.058305457 0.99116081 8.3518134e-05
-2.9220254 1.0693091 -1.3853451 9 0.11930792 0.058052756 0.9911586 8.5671629e-05
-2.9188399 1.0779737 -1.3853451 9 0.11932206 0.057914946 0.99116504 8.8309382e-05
-2.9139166 1.0859922 -1.3845315 9 0.11932904 0.057878453 0.99116635 8.6888234e-05
-2.9160035 1.0960531 -1.386972 9 0.1195205 0.057558194 0.99116188 9.3722301e-05
-2.9093218 1.1034046 -1.3853451 9 0.11950167 0.057452366 0.99117029 9.6163552e-05
-2.9079361 1.112177 -1.3861586 9 0.11965976 0.057201236 0.9911657 0.00010189685
-2.9046233 1.1208003 -1.3861586 8 0.1196643 0.057042673 0.9911744 0.00010390664
-2.9115007 1.1333904 -1.3910394 9 0.11985265 0.056878846 0.99116105 0.00010677863
-2.9066234 1.1408491 -1.3902259 9 0.11982947 0.056791466 0.99116886 0.00011080811
-2.9051251 1.1496339 -1.3910394 9 0.11986734 0.056684148 0.99117035 0.00011038701
-2.9048929 1.1601098 -1.3926663 9 0.11993448 0.056519873 0.99117166 0.00011286613
-2.8980482 1.1673591 -1.3910394 9 0.11989251 0.056548543 0.99117506 0.00011526214
-2.9017544 1.1776901 -1.3942933 9 0.11999798 0.056478038 0.99116641 0.00011518765
-2.8997309 1.1874923 -1.3951067 9 0.12008413 0.056333721 0.99116409 0.00011727064
-2.8866861 1.1903951 -1.3902259 8 0.11999843 0.056367442 0.99117255 0.00011947992
-2.8930535 1.2036693 -1.3951067 9 0.12009602 0.056117155 0.991175 0.00012580074
-2.8892579 1.2127515 -1.3951067 9 0.12015048 0.056028932 0.99117339 0.00013073483
-2.890908 1.2229508 -1.3975471 9 0.12019873 0.055928048 0.99117321 0.00013377177
-2.8891623 1.2317358 -1.3983606 9 0.12017635 0.055814993 0.99118227 0.00013603506
-2.8871734 1.2410243 -1.3991741 9 0.12048519 0.055537216 0.99116045 0.00014651037
-2.8855915 1.2493041 -1.3999876 9 0.12082941 0.055214841 0.99113649 0.00015559017
-2.8818717 1.2578611 -1.3999876 9 0.12087496 0.055256706 0.99112868 0.00015881822
-2.8795784 1.2676443 -1.4008011 9 0.12089238 0.05515324 0.99113226 0.00016097653
-2.8812606 1.2773997 -1.4032414 9 0.12109283 0.055071473 0.99111235 0.00016702224
-2.8757894 1.2851983 -1.402428 9 0.12112776 0.055054422 0.99110901 0.00017060443
-2.8750694 1.2957275 -1.404055 9 0.1211924 0.055034522 0.99110222 0.00017475699
-2.8735588 1.3035038 -1.4048685 9 0.12131918 0.055056144 0.99108553 0.00017861104
-2.8711107 1.3132849 -1.4056818 9 0.12117645 0.055444159 0.99108136 0.00018713564
-2.8672013 1.321798 -1.4056818 9 0.12120802 0.055735353 0.99106115 0.00020012468
-2.8670461 1.3308381 -1.4073089 9 0.12110234 0.055968493 0.99106091 0.00021341334
-2.8645055 1.3406131 -1.4081223 9 0.12102945 0.056137707 0.99106026 0.00022302434
-2.8607512 1.3486066 -1.4081223 9 0.1208766 0.05665125 0.99104971 0.00023698012
-2.8619251 1.3589413 -1.4105628 9 0.12098137 0.056688126 0.99103481 0.00024020157
-2.8545842 1.3658499 -1.4089358 9 0.12092165 0.05697117 0.99102587 0.00024802104
-2.8521645 1.3751072 -1.4097493 7 0.12091749 0.056994952 0.99102497 0.00024952067
-2.8466699 1.3822687 -1.4089358 8 0.12094635 0.057079021 0.99101669 0.00025463532
-2.8491211 1.3939201 -1.4121897 9 0.12078867 0.057339903 0.9910208 0.0002732123
-2.8515279 1.405599 -1.4154437 9 0.12060138 0.05787836 0.99101222 0.00029342508
-2.8462017 1.4122475 -1.4146301 9 0.12063558 0.057893161 0.99100733 0.00029492014
-2.840117 1.4203643 -1.4138166 9 0.12043001 0.058630258 0.99098891 0.00031427501
-2.8394032 1.4299338 -1.4154437 9 0.12029809 0.058999211 0.99098307 0.00032299594
-2.8370283 1.4386836 -1.416257 9 0.12033681 0.059007384 0.99097788 0.00032473006
-2.8308675 1.4467582 -1.4154437 8 0.12030775 0.059325933 0.99096239 0.00033572593
-2.8333149 1.4580021 -1.4186975 9 0.12030797 0.059478402 0.99095327 0.00034806374
-2.8276098 1.465068 -1.417884 9 0.12019947 0.059760578 0.99094945 0.00035068262
-2.8262327 1.4756347 -1.419511 9 0.12023683 0.06023059 0.99091649 0.00036343321
-2.8237181 1.4843715 -1.4203244 9 0.120058 0.060629781 0.99091375 0.00037140239
-2.8227913 1.4939606 -1.4219513 9 0.12014438 0.060686793 0.9908998 0.00037792703
-2.8183467 1.502329 -1.4219513 9 0.12002578 0.061215363 0.99088168 0.00038973888
-2.8144038 1.5097024 -1.4219513 9 0.11998677 0.061431035 0.9908731 0.00039433505
-2.8158109 1.5225033 -1.4252052 9 0.11898378 0.062737294 0.99091208 0.00042722322
-2.8099432 1.5294871 -1.4243917 9 0.11898146 0.063324817 0.99087507 0.00043283633
-2.8123398 1.5403488 -1.4276457 9 0.1185434 0.063938595 0.99088818 0.00044705972
-2.8029578 1.5460385 -1.4252052 9 0.11860839 0.063929722 0.99088091 0.00044338952
-2.7999556 1.5552356 -1.4260188 9 0.11840045 0.064357683 0.99087811 0.00045394097
-2.7956014 1.5630487 -1.4260188 9 0.11827368 0.064492896 0.99088442 0.00045508245
-2.7989116 1.5758184 -1.4300861 9 0.11807165 0.065113932 0.99086797 0.00047249411
-2.7910452 1.5823133 -1.4284592 9 0.11777327 0.065447956 0.99088138 0.00048231505
-2.7897894 1.5919124 -1.4300861 9 0.11763544 0.065962434 0.99086374 0.00049483945
-2.7913909 1.603824 -1.43334 9 0.11727912 0.066779718 0.99085116 0.00051171071
-2.786901 1.6116132 -1.43334 9 0.11704922 0.066878527 0.99087167 0.00051282404
-2.7823896 1.6193893 -1.43334 9 0.11693639 0.06742917 0.99084771 0.00052611891
-2.7788649 1.629046 -1.4341536 9 0.11677323 0.067952633 0.99083114 0.00053912523
-2.7758782 1.6377282 -1.4349669 9 0.11640896 0.068720318 0.99082112 0.00055897213
-2.774436 1.6473393 -1.4365939 9 0.11629535 0.069093689 0.99080849 0.00056810182
-2.7726724 1.6574392 -1.4382209 9 0.11594817 0.069700524 0.9908067 0.00058114046
-2.7680333 1.6651757 -1.4382209 9 0.11592878 0.069859616 0.99079776 0.0005865026
-2.7662065 1.6752738 -1.4398478 9 0.11575569 0.070474193 0.99077445 0.00059600157
-2.7643433 1.685376 -1.4414747 9 0.11566088 0.071051322 0.99074429 0.00060539489
-2.7611835 1.6940449 -1.4422883 9 0.11550841 0.07150574 0.99072939 0.00061152678
-2.7545905 1.7012693 -1.4414747 11 0.11553089 0.071773887 0.9907074 0.00061276782
-2.7541854 1.712329 -1.4439151 16 0.11513364 0.072529547 0.99069858 0.00062488567
-2.749393 1.7200136 -1.4439151 23 0.11517363 0.072992109 0.99066001 0.00062890811
-2.7461252 1.7286583 -1.4447286 25 0.11502356 0.073856317 0.99061334 0.00063669356
-2.7391381 1.7362983 -1.4439151 26 0.11497615 0.074157901 0.99059635 0.00063998532
-2.7419808 1.7488532 -1.4479825 25 0.11497113 0.075159751 0.99052137 0.00065990625
-2.7340112 1.7545301 -1.4463556 24 0.11491605 0.075520799 0.99050027 0.00065984839
-2.7330897 1.7660851 -1.448796 26 0.11488452 0.076039143 0.99046433 0.00066867203
-2.728766 1.7727581 -1.448796 23 0.11483478 0.076346695 0.99044639 0.00067486486
-2.7216539 1.7803221 -1.4479825 21 0.11464179 0.076806933 0.99043322 0.00067851826
-2.7221508 1.7928834 -1.4512364 22 0.11460712 0.077545635 0.99037969 0.00068052637
-2.717762 1.7995292 -1.4512364 26 0.11435018 0.078048833 0.9903698 0.00067781395
-2.7151356 1.8100864 -1.4528633 28 0.1142523 0.078541182 0.99034226 0.00068400963
-2.708236 1.8171158 -1.4520499 21 0.11425129 0.078789636 0.99032259 0.00068130111
-2.7125573 1.8303311 -1.4569308 20 0.11412024 0.079221219 0.99030322 0.00068969373
-2.7083044 1.8398713 -1.4577441 15 0.11402704 0.07967896 0.99027729 0.00069586234
-2.7073586 1.850992 -1.4601846 17 0.11381295 0.080115288 0.99026674 0.00070163258
-2.7009976 1.8570384 -1.4593711 12 0.11373298 0.080263779 0.99026388 0.00070452254
-2.7029889 1.870242 -1.4634385 11 0.11334447 0.080957234 0.99025202 0.00071050209
-2.6929295 1.8751216 -1.4609982 13 0.11329299 0.081348598 0.99022579 0.00072019873
-2.6939976 1.8863573 -1.464252 15 0.11289969 0.081936814 0.99022222 0.00072468643
-2.6895518 1.8958634 -1.4650655 14 0.11258948 0.08215189 0.99023968 0.00073882507
-2.6868954 1.9059496 -1.4666924 13 0.11229101 0.082516871 0.99024326 0.00073288486
-2.684871 1.9150995 -1.4683193 11 0.11202263 0.082991175 0.99023408 0.00074259361
-2.676544 1.9204588 -1.4666924 12 0.111939 0.082796499 0.99025983 0.00075010111
-2.6731226 1.9314642 -1.4683193 11 0.11116439 0.083021857 0.99032819 0.00075225905
-2.6724908 1.9416786 -1.4707597 11 0.11096482 0.083546154 0.99030644 0.00075410091
-2.6655836 1.9480549 -1.4699463 13 0.11089668 0.083581515 0.99031115 0.00074685679
-2.6609218 1.957503 -1.4707597 14 0.11082483 0.084108159 0.99027455 0.00075669982
-2.6601949 1.9677216 -1.4732002 18 0.11123273 0.084139571 0.99022615 0.00081425492
-2.6572764 1.9777879 -1.4748272 18 0.11124208 0.084477484 0.99019629 0.00082252588
-2.6510496 1.9861264 -1.4748272 25 0.11119941 0.084603794 0.99019033 0.00082879851
