# .PCD v0.7 - Point Cloud Data file format
VERSION 0.7
FIELDS x y z intensity normal_x normal_y normal_z curvature
SIZE 4 4 4 4 4 4 4 4
TYPE F F F F F F F F
COUNT 1 1 1 1 1 1 1 1
WIDTH 185
HEIGHT 1
VIEWPOINT 0 0 0 1 0 0 0
POINTS 185
DATA ascii
8.0055017 4.7400999 -2.9030874 14 0.2138302 0.12976688 0.96821338 0.001942593
7.9899073 4.6989064 -2.8923638 19 0.22106737 0.13124955 0.9663865 0.0020082819
7.9914579 4.6698346 -2.8881936 15 0.22132844 0.1309761 0.96636385 0.0019317365
8.0011673 4.6455808 -2.8870022 12 0.2255449 0.13173205 0.96528554 0.0019298388
8.0066452 4.617053 -2.8840234 13 0.2346949 0.13363086 0.96284014 0.0019813306
8.0145388 4.5918264 -2.8822362 13 0.23861347 0.13408262 0.96181363 0.0019757734
8.028924 4.566627 -2.8822362 13 0.24476005 0.13524264 0.96010524 0.001960411
8.0350723 4.5441766 -2.8804488 12 0.25159213 0.13663447 0.95814008 0.0019475312
8.0476446 4.5179744 -2.8798532 13 0.25949022 0.13830596 0.95579088 0.0019292972
8.0635672 4.4973416 -2.8810449 12 -0.26613027 -0.13947397 -0.95379335 0.0019143281
8.0777607 4.4757361 -2.8816404 11 -0.26991007 -0.13964368 -0.95270568 0.001899209
8.0709343 4.4407029 -2.8744915 12 -0.2756311 -0.13957968 -0.95107567 0.0019342852
8.0723467 4.4103265 -2.8703213 18 -0.27684531 -0.13888294 -0.95082504 0.0019215618
8.087985 4.3895936 -2.8715127 19 -0.27832472 -0.13828261 -0.95048064 0.0018958981
8.1060171 4.3682914 -2.8733001 20 -0.27815899 -0.13713011 -0.95069599 0.0018829335
8.1189432 4.3442187 -2.8733001 19 -0.27931789 -0.1456473 -0.94908816 5.9776798e-05
8.1402245 4.324594 -2.8762786 13 -0.28032684 -0.14512753 -0.9488703 5.0375871e-05
8.1539583 4.3027339 -2.8768742 11 -0.28104287 -0.1444972 -0.94875479 5.0372641e-05
8.1768379 4.2838354 -2.8804488 9 -0.28092161 -0.14359188 -0.94892806 5.8412163e-05
8.1846371 4.2606521 -2.8792574 7 -0.28221971 -0.14319099 -0.94860333 5.2020787e-05
8.2013741 4.2366724 -2.8804488 7 -0.28132984 -0.14202023 -0.94904357 5.6185523e-05
8.2165718 4.2154937 -2.8816404 9 -0.28049502 -0.14087994 -0.94946063 6.2824089e-05
8.2280722 4.1887956 -2.8810449 7 -0.28134874 -0.14075163 -0.94922692 6.777724e-05
8.2390108 4.1672416 -2.8810449 9 -0.28176117 -0.14001507 -0.94921356 6.6355402e-05
8.2513399 4.1427751 -2.8810449 7 -0.28267351 -0.13990009 -0.94895929 6.4277672e-05
8.2594576 4.1180143 -2.8798532 6 -0.28533787 -0.13991727 -0.94815898 7.1963834e-05
8.2709265 4.0949311 -2.8798532 5 -0.28899547 -0.14025097 -0.94700122 6.9025635e-05
8.2803211 4.067245 -2.8786616 5 -0.29265547 -0.14055905 -0.94583088 6.6561937e-05
8.2882156 4.0424337 -2.8774703 5 -0.29445192 -0.1395558 -0.94542176 5.6927242e-05
8.3001728 4.0178261 -2.8774703 5 -0.29261398 -0.1377659 -0.94625449 5.540104e-05
8.3086147 3.9915249 -2.8762786 6 -0.29286784 -0.13741057 -0.94622761 6.1653715e-05
8.3273144 3.9701433 -2.8786616 6 -0.28904897 -0.13521345 -0.94771731 6.4721826e-05
8.3421659 3.9522376 -2.8804488 5 0.23975863 0.11321255 0.96420884 6.6467328e-05
8.3528147 3.9251959 -2.8798532 5 0.246379 0.11557955 0.96225715 6.3771789e-05
8.3620119 3.9010494 -2.8792574 5 0.24399641 0.11415093 0.96303445 7.2770417e-05
8.3707609 3.8731587 -2.8780661 4 0.13234843 0.065130316 0.98906118 0
8.3832798 3.8505619 -2.8786616 4 0.13348165 0.065451838 0.98888761 0
8.3974733 3.828722 -2.8798532 4 0.13016722 0.063912116 0.98943001 0
8.4029169 3.8028932 -2.8780661 5 0.10842143 0.053900596 0.9926427 0
8.4169855 3.7809787 -2.8792574 4 0.10666908 0.052683908 0.99289787 0
8.425334 3.7529655 -2.8780661 4 0.10182511 0.050239928 0.9935329 0
8.4392738 3.7309642 -2.8792574 5 0.10531505 0.051333494 0.99311304 0
8.4461641 3.7058504 -2.8780661 4 0.10973891 0.052853517 0.99255419 0
8.4542608 3.6777756 -2.8768742 4 0.10827491 0.052015308 0.99275929 0
8.4656134 3.6563885 -2.8774703 4 0.10972542 0.052372068 0.99258119 0
8.4781809 3.6320038 -2.8780661 4 0.11052135 0.052470751 0.99248773 0
8.4889193 3.6068339 -2.8780661 4 0.10857599 0.051551308 0.99275059 0
8.4966898 3.5786624 -2.8768742 4 0.10496691 0.049922407 0.99322188 0
8.5042677 3.5556707 -2.8762786 4 0.11028692 0.051716097 0.99255341 0
8.5165434 3.5311553 -2.8768742 4 0.10151105 0.048338283 0.99365932 0
8.5210752 3.5051777 -2.8750873 4 0.097193033 0.046822298 0.99416357 0
8.5343647 3.4828126 -2.8762786 4 0.093244508 0.045456737 0.994605 0
8.5428915 3.4567568 -2.8756828 4 0.084570758 0.042388212 0.99551547 0
8.5519371 3.4291928 -2.8750873 4 0.082413949 0.041709833 0.99572498 0
8.5614815 3.4052951 -2.8750873 4 0.077409364 0.039945595 0.99619883 0
8.5638523 3.3785722 -2.872704 4 0.070701636 0.037619006 0.99678791 0
8.5762014 3.3523486 -2.8733001 4 0.067414887 0.036300272 0.99706453 0
8.5849485 3.3298862 -2.8733001 4 0.061644282 0.034285333 0.99750912 0
8.5947914 3.3043969 -2.8733001 4 0.051071454 0.030511992 0.99822885 0
8.6009893 3.2775228 -2.8721085 4 0.043809041 0.027895115 0.99865043 0
8.6083221 3.2528181 -2.8715127 4 0.042162579 0.02722084 0.99873984 0
8.6155844 3.2280939 -2.8709171 4 0.026803231 0.021907313 0.99940073 0
8.6256828 3.2010128 -2.8709171 4 0.025808113 0.021331539 0.9994393 0
8.6358252 3.179081 -2.8715127 4 0.015021891 0.017610632 0.99973202 0
8.6470137 3.1540959 -2.8721085 4 0.023185287 0.020027041 0.99953055 0
8.6514931 3.1249707 -2.8703213 4 -0.002772399 0.011547149 0.99992949 0
8.6524534 3.099736 -2.867938 4 -0.016364925 0.0070549981 0.99984121 0
8.6664743 3.077476 -2.8697255 4 -0.034354523 0.0011744841 0.99940908 0
8.6743002 3.0495987 -2.8691299 4 -0.060292389 -0.0071580335 0.99815506 0
8.6791744 3.0241127 -2.867938 4 -0.037919495 -0.00055110874 0.99928069 0
8.6868296 2.996202 -2.8673425 4 -0.0044709719 0.009289274 0.99994683 0
8.70187 2.9759223 -2.8697255 4 0.01153422 0.013624508 0.99984062 0
8.7011042 2.9485483 -2.8667467 4 0.0082685845 0.012018804 0.99989361 0
8.7103233 2.9212003 -2.8667467 4 0.011638558 0.012339067 0.99985617 0
8.7125072 2.8965769 -2.8649592 4 0.094260231 0.036700275 0.9948709 0
8.7210627 2.8707149 -2.8649592 4 0.18468428 0.063337021 0.98075485 0
8.726408 2.8421178 -2.8637679 4 0.18555313 0.062681086 0.98063296 0
8.7379436 2.818912 -2.8649592 4 -0.28903782 -0.0931779 -0.95277226 0
8.7421446 2.7933393 -2.8637679 4 -0.39430344 -0.12435593 -0.91052753 0
8.7503929 2.7673903 -2.8637679 4 -0.37746885 -0.11845757 -0.91841441 0
8.7544451 2.7418001 -2.8625765 4 -0.39899388 -0.12429763 -0.90848994 0
8.7593679 2.7131555 -2.8613851 4 -0.40032795 -0.12400214 -0.90794331 0
8.768734 2.6892455 -2.8619809 4 -0.43200055 -0.13315701 -0.89198923 0
8.7689037 2.6625266 -2.8595977 4 -0.42362079 -0.13000174 -0.89646244 0
8.7813292 2.6412117 -2.8613851 4 -0.42872921 -0.13109177 -0.89387143 0
8.7900381 2.6120789 -2.8613851 4 -0.43023768 -0.13103046 -0.89315546 0
8.7913542 2.5874338 -2.8595977 4 -0.42713606 -0.12949784 -0.89486599 0
8.7989902 2.5613437 -2.8595977 4 -0.43332899 -0.13104725 -0.89165723 0
8.8047171 2.5346944 -2.8590021 4 -0.43577954 -0.13137181 -0.89041424 0
8.809926 2.5095713 -2.8584063 4 -0.43439269 -0.13058546 -0.89120728 0
8.8187361 2.4854832 -2.8590021 4 -0.4272745 -0.12782483 -0.89504045 0
8.8260717 2.4593041 -2.8590021 4 -0.438333 -0.13110924 -0.88919884 0
8.8314905 2.432596 -2.8584063 4 -0.42435369 -0.12602985 -0.89668298 0
8.8478794 2.408891 -2.8613851 4 -0.43806392 -0.13029864 -0.88945061 0
8.8453531 2.3816934 -2.8584063 4 -0.45376402 -0.13539726 -0.88077569 0
8.8634529 2.3583813 -2.8619809 4 -0.45280641 -0.13476312 -0.8813656 0
8.8667164 2.3311028 -2.8607891 4 -0.46179661 -0.13769209 -0.87623334 0
8.8713446 2.3058548 -2.8601935 4 -0.45293242 -0.13426901 -0.88137621 0
8.8869953 2.2834451 -2.8631723 4 -0.45554316 -0.13498947 -0.87991941 0
8.8959742 2.2559855 -2.8637679 4 -0.45290899 -0.13379946 -0.88145965 0
8.9022398 2.2311358 -2.8637679 4 -0.45771289 -0.13541004 -0.87872797 0
8.9084358 2.2062647 -2.8637679 4 -0.45351994 -0.13361216 -0.88117391 0
8.9153223 2.1782689 -2.8637679 4 -0.44947979 -0.13187914 -0.88350201 0
8.9280434 2.1582699 -2.8661511 4 -0.4523966 -0.13277499 -0.88187754 0
8.9384928 2.131098 -2.8673425 4 -0.44955435 -0.1313297 -0.88354588 0
8.9507198 2.1043193 -2.8691299 4 -0.44343773 -0.12860896 -0.88703024 0
8.9595537 2.0833042 -2.8703213 4 -0.44986218 -0.13085799 -0.88345921 0
8.967556 2.0571399 -2.8709171 4 -0.43714002 -0.12567092 -0.89057022 0
8.9776993 2.0298011 -2.8721085 4 -0.42874905 -0.12193108 -0.89515758 0
8.9848452 2.0067036 -2.872704 4 -0.43735921 -0.12520224 -0.89052868 0
9.0022926 1.9809308 -2.8762786 4 -0.43600053 -0.12430397 -0.89132041 0
9.0155935 1.9558325 -2.8786616 4 -0.43615943 -0.12406729 -0.89127558 0
9.016614 1.9329941 -2.8774703 4 -0.44699144 -0.12823692 -0.88529873 0
9.035717 1.90742 -2.8816404 4 -0.44662455 -0.1277152 -0.88555932 0
9.0488148 1.8821547 -2.8840234 4 -0.42516142 -0.11801324 -0.89739096 0
9.0649319 1.8607633 -2.8875978 4 -0.41513687 -0.11317907 -0.90269142 0
9.0726032 1.8326555 -2.8881936 4 -0.42693704 -0.11775543 -0.89658153 0
9.0836201 1.8068435 -2.889981 4 -0.42466849 -0.11614922 -0.89786744 0
9.0976868 1.7848958 -2.8929598 4 -0.40417045 -0.10646097 -0.90846694 0
9.1026354 1.7594848 -2.8929598 4 -0.37570816 -0.093221329 -0.92203754 0
9.1253014 1.7324921 -2.8983214 4 -0.32981098 -0.072356217 -0.94126999 0
9.1335573 1.7092999 -2.8995128 4 -0.29734498 -0.057375897 -0.95304453 0
9.1404676 1.6825355 -2.9001086 4 0.22782527 0.026599832 0.97333866 0
9.1510563 1.6564299 -2.901896 4 0.17106324 0.0016096425 0.98525876 0
9.1647587 1.6341441 -2.9048748 4 0.12956282 -0.016665455 0.99143112 0
9.1733284 1.6076007 -2.9060662 4 0.095083728 -0.031812694 0.99496084 0
9.1893463 1.5823258 -2.9096408 4 0.067003816 -0.044587262 0.99675602 0
9.1937294 1.5566554 -2.9096408 3 0.070689388 -0.043688476 0.9965412 0
9.2136412 1.5302645 -2.9144068 4 0.066889606 -0.045742899 0.99671125 0
9.2178774 1.5045352 -2.9144068 3 0.08108671 -0.04043065 0.99588662 0
9.2258139 1.4793899 -2.9155982 3 0.071885586 -0.044712707 0.99641025 0
9.2379608 1.4515817 -2.9179811 3 0.081798546 -0.041006662 0.99580491 0
9.2473898 1.4282676 -2.9197683 3 0.10032859 -0.033929937 0.99437565 0
9.2629128 1.4025403 -2.9233427 3 0.10585951 -0.032018706 0.99386543 0
9.2764769 1.376449 -2.9263217 3 0.11261344 -0.029521532 0.99320024 0
9.2878418 1.3516402 -2.9287047 3 0.12078836 -0.026565338 0.9923228 0
9.3010302 1.327044 -2.9316833 3 0.12516205 -0.025037054 0.99182039 0
9.3051529 1.2978191 -2.9316833 3 0.13633381 -0.020888364 0.99044269 0
9.3160849 1.2744905 -2.9340663 3 0.14695664 -0.016933069 0.98899794 0
9.3273954 1.2478534 -2.9364495 3 0.14950435 -0.016057139 0.98863065 0
9.3331623 1.2187934 -2.9370451 3 0.15274791 -0.014844681 0.98815364 0
9.3422108 1.1934485 -2.9388323 3 0.15656276 -0.013617399 0.98757416 0
9.3530846 1.1683036 -2.9412155 3 0.16447942 -0.010732639 0.9863221 0
9.3697767 1.1421663 -2.9453857 3 0.16724183 -0.0099477312 0.98586571 0
9.384305 1.1173525 -2.9489601 3 0.16836657 -0.0096559301 0.98567718 0
9.3932676 1.0901612 -2.9507473 3 0.16951868 -0.0093008578 0.98548305 0
9.4078436 1.0635746 -2.9543219 3 0.17785901 -0.0066529047 0.98403358 0
9.4068003 1.0385237 -2.9531305 3 0.17813195 -0.0066716461 0.98398399 0
9.4210539 1.0134734 -2.9567049 3 0.18196963 -0.0055310689 0.98328859 0
9.427989 0.98426956 -2.9578962 3 0.18255742 -0.0054623466 0.98318005 0
9.4382992 0.95871121 -2.9602795 3 0.17931196 -0.0065597231 0.98377037 0
9.4468012 0.93126202 -2.9620667 3 0.18030025 -0.0063959872 0.98359084 0
9.449522 0.90323043 -2.9620667 3 0.17943268 -0.0067458521 0.98374712 0
9.4558115 0.87719333 -2.9632583 3 0.18015309 -0.0066806441 0.98361588 0
9.4658298 0.85146552 -2.965641 3 0.1813069 -0.0064478978 0.98340535 0
9.4702158 0.82353872 -2.9662368 2 0.18195835 -0.006285673 0.98328614 0
9.4764233 0.79576224 -2.9674284 2 0.18401967 -0.0058051622 0.98290545 0
9.4825478 0.76794702 -2.9686198 2 0.18231434 -0.006315242 0.98321998 0
9.4884634 0.74175847 -2.9698114 2 0.18359511 -0.0061339736 0.98298275 0
9.4962082 0.71569085 -2.9715986 2 0.18693349 -0.005437945 0.98235756 0
9.5060263 0.68640596 -2.9739816 2 0.18124059 -0.0070525045 0.98341358 0
9.5021935 0.65945804 -2.9721944 2 0.17976406 -0.0074133389 0.9836818 0
9.5192366 0.63393676 -2.9769604 2 0.18029463 -0.0073722471 0.983585 0
9.5230875 0.60415083 -2.977556 2 0.17876261 -0.0076362179 0.98386264 0
9.532259 0.579678 -2.9799392 2 0.18159102 -0.0069673331 0.9833495 0
9.5434675 0.55194557 -2.982918 2 0.18580048 -0.0060523693 0.98256892 0
9.5412502 0.52341968 -2.9817264 2 0.18895866 -0.0053632818 0.98197043 0
9.5444946 0.4985401 -2.982322 2 0.18923007 -0.0052204006 0.98191887 0
9.551816 0.4671638 -2.9841094 2 0.19340658 -0.0043121078 0.98110926 0
9.5511761 0.440402 -2.9835136 2 0.19851318 -0.0033483244 0.98009247 0
9.5580187 0.41564593 -2.9853008 3 0.20982759 -0.0012645896 0.97773755 0
9.5573025 0.3872048 -2.9847052 3 0.21625988 -0.00012915223 0.97633582 1.4659904e-05
9.5640688 0.36072719 -2.9864922 3 0.22549655 0.0013130932 0.9742431 1.834722e-05
9.5612812 0.33222222 -2.9853008 3 0.22954606 0.001880773 0.97329599 1.4855367e-05
9.566041 0.30397028 -2.9864922 3 0.23218499 0.0021540956 0.97266924 1.6572487e-05
9.5707188 0.27569309 -2.987684 3 0.23253946 0.0020708116 0.97258478 1.4251252e-05
9.5676336 0.24886785 -2.9864922 3 0.23989865 0.0030811792 0.97079307 1.8005176e-05
9.5721483 0.22056878 -2.987684 3 0.247798 0.0036216264 0.96880496 1.7953682e-05
9.5708179 0.19379586 -2.9870882 3 0.24697971 0.0031243335 0.9690156 3.0439063e-05
9.5732307 0.16710331 -2.987684 3 0.24823686 0.003038621 0.96869457 2.8408134e-05
9.5851631 0.13718854 -2.9912584 3 0.25510472 0.0022240884 0.96691084 5.0929793e-05
9.5912352 0.11048879 -2.9930456 3 0.25912505 0.0015833388 0.96584243 5.3694454e-05
9.5972338 0.083751634 -2.994833 3 0.25925002 0.0015895406 0.96580893 6.0301354e-05
9.599349 0.055293035 -2.9954288 3 0.27045673 0.00075497373 0.96273184 6.7488472e-05
9.5975571 0.028477788 -2.994833 3 0.28010106 0.00019605794 0.95997047 7.162807e-05
