# .PCD v0.7 - Point Cloud Data file format
VERSION 0.7
FIELDS x y z intensity normal_x normal_y normal_z curvature
SIZE 4 4 4 4 4 4 4 4
TYPE F F F F F F F F
COUNT 1 1 1 1 1 1 1 1
WIDTH 123
HEIGHT 1
VIEWPOINT 0 0 0 1 0 0 0
POINTS 123
DATA ascii
-0.75729948 3.0924857 -1.7888921 25 0.11528954 0.073587053 0.99060243 0.0014081505
-0.74906981 3.0962837 -1.7898719 25 0.11567261 0.073654883 0.99055278 0.0014267163
-0.78929675 3.1078663 -1.801628 27 0.11555301 0.071784951 0.990704 0.0014514673
-0.78285724 3.1166863 -1.8055466 25 0.1156242 0.071957096 0.99068314 0.0014448409
-0.77444649 3.1223798 -1.807506 27 0.11618542 0.072120085 0.99060571 0.0014492231
-0.74838299 3.1341074 -1.8104451 28 0.1172419 0.072589152 0.99044693 0.0014468334
-0.80416018 3.1274636 -1.8143638 30 0.11599578 0.070736334 0.99072766 0.0014804278
-0.81420684 3.1302683 -1.8173029 25 0.11614711 0.070083827 0.99075627 0.0014851876
-0.82226074 3.1209502 -1.8133841 27 0.11515076 0.069742993 0.9908967 0.001484751
-0.83187026 3.1220119 -1.8153435 27 0.11486828 0.069618024 0.99093831 0.0014700092
-0.74068248 3.1431022 -1.8143638 28 0.11793227 0.072602823 0.99036402 0.00144406
-0.73135251 3.1452863 -1.8143638 27 0.11853989 0.072598912 0.99029171 0.0014471895
-0.72077346 3.1369941 -1.8084857 25 0.11886046 0.072688423 0.99024683 0.0014679703
-0.7093749 3.1324406 -1.8045671 28 0.1189337 0.073684804 0.99016428 0.0014504262
-0.70366663 3.1480224 -1.8124045 28 0.11983794 0.072937645 0.99011052 0.0014745342
-0.84122092 3.1176996 -1.8143638 22 0.11447605 0.069640055 0.99098212 0.0014572209
-0.84929425 3.1173172 -1.8153435 27 0.11389104 0.069664612 0.99104768 0.0014513341
-0.85722828 3.1079104 -1.8114247 30 0.11341368 0.069338247 0.9911254 0.0014275027
-0.86449844 3.1004658 -1.8084857 30 0.1131677 0.069045424 0.99117398 0.0014228813
-0.69807535 3.1671243 -1.8222013 31 0.1206116 0.072989181 0.99001282 0.0014698668
-0.68144882 3.133281 -1.801628 30 0.12019064 0.073725425 0.99000955 0.0014892729
-0.67598754 3.1505153 -1.8104451 30 0.12084143 0.074006692 0.98990929 0.0014824431
-0.66718751 3.1523905 -1.8104451 28 0.12127056 0.073986918 0.98985827 0.001487809
-0.66012669 3.1681268 -1.8182825 20 0.12256437 0.072846815 0.98978347 0.0015163601
-0.87180161 3.0911744 -1.8045671 29 0.1128049 0.068673007 0.99124116 0.0014260234
-0.8819254 3.0919275 -1.8065264 30 0.11254741 0.068595894 0.99127573 0.0014072408
-0.89254612 3.0943229 -1.8094654 30 0.11243392 0.068420716 0.99130076 0.0013996789
-0.89727974 3.0784271 -1.801628 30 0.11187342 0.068414725 0.9913646 0.0013836228
-0.64987248 3.1631265 -1.8143638 21 0.12254839 0.073617302 0.98972845 0.0015004483
-0.63861442 3.152966 -1.807506 30 0.12290689 0.073633336 0.98968273 0.001521304
-0.63321984 3.1718364 -1.8173029 30 0.12348098 0.07398095 0.9895854 0.0014974901
-0.62762052 3.1960521 -1.8300385 31 0.1245899 0.072255455 0.98957384 0.0015050139
-0.61471909 3.1772497 -1.8182825 21 0.12391498 0.07395874 0.98953283 0.0015330843
-0.89749831 3.0474751 -1.7849735 32 0.11111902 0.069086537 0.99140286 0.0013686836
-0.92862236 3.0545411 -1.7937906 30 0.11134686 0.068412215 0.99142402 0.0013480607
-0.91405934 3.0370867 -1.7820345 31 0.11085401 0.069001406 0.99143839 0.0013532294
-0.60616958 3.1806669 -1.8192623 23 0.12463015 0.073498532 0.98947728 0.0015308154
-0.59842211 3.1945519 -1.8261199 20 0.12529315 0.073553063 0.98938948 0.0015289538
-0.58830827 3.1928844 -1.8241606 21 0.12479369 0.074090473 0.98941255 0.0015553065
-0.5762102 3.1738265 -1.8124045 24 0.12298517 0.076420814 0.98946172 0.0017827664
-0.90153056 3.0299156 -1.7761563 41 0.11091045 0.069124185 0.99142355 0.0013598017
-0.93459046 3.0436018 -1.7888921 28 0.11114652 0.068686724 0.99142754 0.0013327244
-0.94826722 3.0558031 -1.7977092 27 0.11147168 0.067789629 0.99145275 0.0013374037
-0.95367867 3.0413294 -1.7908515 23 0.11130419 0.068228006 0.99144155 0.001327768
-0.95900691 3.0305107 -1.7859532 27 0.11138304 0.068290904 0.99142838 0.001336197
-0.9695847 3.0308044 -1.7879125 27 0.11147255 0.068368509 0.99141294 0.0013270483
-0.5658707 3.1703727 -1.8094654 30 0.12331253 0.076607324 0.98940653 0.0018062347
-0.55030656 3.1925757 -1.8202418 27 0.12430181 0.076187938 0.98931509 0.001752116
-0.97858143 3.0297441 -1.7888921 27 0.1112792 0.068422258 0.991431 0.0013278577
-0.98865938 3.0319729 -1.7918313 30 0.11133092 0.068424352 0.99142498 0.0013309766
-0.99492472 3.0207455 -1.7869328 28 0.11125268 0.068259604 0.99144518 0.0013340974
-1.001681 3.0111623 -1.7830141 25 0.11120326 0.06846419 0.9914366 0.001332531
-1.0078961 3.0035706 -1.7800751 23 0.11126998 0.06910187 0.9913848 0.0013084881
-0.51903319 3.1695428 -1.8045671 21 0.12141678 0.07886453 0.98946369 0.0022206386
-0.53249544 3.2026653 -1.8241606 18 0.12380852 0.075677358 0.98941612 0.0017801786
-0.54808992 3.2336397 -1.8427744 21 0.12467194 0.073645137 0.98946112 0.0017574669
-0.50907236 3.1711578 -1.8045671 21 0.12137177 0.078734607 0.98947954 0.0022499186
-1.0116895 2.9820485 -1.7692987 24 0.11154269 0.0694969 0.99132663 0.0013363287
-1.0278082 2.9765313 -1.7692987 24 0.11148766 0.06977421 0.99131328 0.0013302555
-0.49967071 3.1691225 -1.8026077 19 0.12157959 0.078976467 0.98943478 0.0022580589
-0.49615598 3.204967 -1.8222013 18 0.12195186 0.077424668 0.98951167 0.0021569938
-0.47605601 3.2044888 -1.8202418 30 0.12157807 0.07706853 0.9895854 0.0021610614
-1.0337093 2.9634094 -1.7634206 24 0.11175598 0.070413239 0.99123788 0.0013435495
-1.0401801 2.9537508 -1.7595018 27 0.11196455 0.070926607 0.9911778 0.0013687529
-1.0519933 2.9625194 -1.7663596 25 0.11238375 0.071044527 0.99112189 0.0013924077
-1.0560728 2.946254 -1.7585222 20 0.11221286 0.07167539 0.99109584 0.0014022184
-0.46685469 3.2040803 -1.8192623 28 0.12168442 0.077068128 0.98957235 0.0021605664
-0.49082971 3.2340076 -1.8378761 31 0.12201848 0.076422811 0.98958123 0.0021040863
-0.45994669 3.2156477 -1.8251402 28 0.12153011 0.076516226 0.9896341 0.0021638526
-0.44085628 3.2183206 -1.8251402 30 0.1214734 0.076663077 0.98962969 0.0021724729
-0.45249575 3.2360723 -1.8359168 27 0.12151361 0.076233909 0.98965794 0.002155381
-0.43223047 3.2265272 -1.829059 23 0.12140787 0.076415651 0.98965693 0.0021940202
-0.42423898 3.2398977 -1.8359168 27 0.12151075 0.075707376 0.98969871 0.0022272547
-0.4167428 3.2531757 -1.8427744 30 0.12174634 0.075339995 0.98969775 0.0022303837
-0.40895593 3.2647078 -1.8486525 31 0.12168359 0.075258292 0.9897117 0.0022198495
-0.3766202 3.2352455 -1.8300385 24 0.12142925 0.075616106 0.9897157 0.0023155578
-0.39200628 3.2825911 -1.8574697 28 0.12213112 0.075002 0.98967606 0.0021973951
-0.40144336 3.2884767 -1.8613883 32 0.12178921 0.074879333 0.98972744 0.002198338
-0.34062257 3.2462463 -1.8339574 27 0.12176049 0.075688578 0.98966938 0.0023963568
-0.33024508 3.2455657 -1.8329777 27 0.12246354 0.075314075 0.98961133 0.0024469411
-0.36230302 3.1947684 -1.8065264 27 0.12069682 0.077594765 0.9896521 0.0025121262
-0.36315423 3.2841539 -1.85649 31 0.12226401 0.075214066 0.98964357 0.0022626687
-0.3551015 3.295557 -1.8623681 30 0.12192293 0.074702039 0.98972446 0.0022790153
-0.31394947 3.2664516 -1.8437542 27 0.12289198 0.075055033 0.98957789 0.0024291666
-0.32392609 3.2742379 -1.8486525 27 0.1225425 0.074949481 0.98962915 0.0023911858
-0.30344704 3.258688 -1.8388557 27 0.12346155 0.074715458 0.98953265 0.0025007834
-0.29408905 3.2630475 -1.8408151 30 0.12421107 0.074543193 0.98945189 0.0025301729
-0.28380126 3.2569573 -1.8368964 24 0.12446755 0.074692495 0.98940837 0.0025544434
-0.27558461 3.2681618 -1.8427744 24 0.12483384 0.074353062 0.98938775 0.0025172362
-0.26729915 3.2863441 -1.8525712 24 0.12478095 0.073850751 0.98943204 0.0024609754
-0.22788478 3.2753296 -1.8447338 17 0.12647063 0.074386597 0.98917729 0.0024966577
-0.26143122 3.3217976 -1.8721648 21 0.12540939 0.07317204 0.98940307 0.0023261304
-0.22128969 3.3054905 -1.8613883 18 0.12693949 0.073238395 0.98920298 0.0024214655
-0.21101418 3.3079095 -1.8623681 16 0.12666315 0.072915129 0.98926228 0.0024610187
-0.25270227 3.3452051 -1.8849007 24 0.12605307 0.0733575 0.98930752 0.0022963821
-0.20341836 3.3258543 -1.8721648 18 0.12626933 0.072240151 0.98936212 0.0024466945
-0.18233284 3.302629 -1.8584493 24 0.12632452 0.073107384 0.98929131 0.0025534006
-0.19415775 3.3368871 -1.8780428 25 0.12642659 0.072205923 0.9893446 0.0024277852
-0.17374881 3.3153141 -1.865307 30 0.12675981 0.071695998 0.98933905 0.0025232716
-0.16434234 3.3245223 -1.8702054 32 0.12691541 0.071415022 0.98933941 0.0024993913
-0.15269634 3.2866771 -1.8486525 38 0.12628174 0.074529387 0.98919076 0.0026378054
-0.13490687 3.3014162 -1.85649 24 0.12503652 0.073233627 0.98944569 0.0028281563
-0.12511139 3.3018019 -1.85649 19 0.12497806 0.073483646 0.98943448 0.0028303901
-0.14188398 3.262728 -1.8349371 29 0.12587117 0.075749606 0.9891504 0.0027216135
-0.11537407 3.303901 -1.8574697 21 0.12465016 0.07321135 0.98949599 0.002908261
-0.10711864 3.3163908 -1.8643274 23 0.12528235 0.072276995 0.98948491 0.0029044966
-0.06785991 3.3226583 -1.8672664 23 0.12638572 0.072440475 0.98933268 0.0029616577
-0.058427922 3.3141181 -1.8623681 17 0.12612434 0.073571958 0.98928243 0.0030145037
-0.079118952 3.3572915 -1.88686 30 0.12670867 0.070873007 0.98940486 0.0027716826
-0.020120319 3.2936478 -1.8506118 30 0.12755464 0.074032806 0.98906469 0.0030622119
-0.010401587 3.3111291 -1.8604087 30 0.12760204 0.07349997 0.98909825 0.0030140993
-0.097970366 3.3602829 -1.8888193 23 0.12618519 0.070966527 0.98946506 0.0027735033
-0.089092314 3.3797169 -1.8995959 27 0.1266059 0.070777997 0.98942477 0.0027094055
-0.050051376 3.3735449 -1.8956771 23 0.12768289 0.070419647 0.98931199 0.0027996518
-0.040694043 3.378902 -1.8986161 27 0.12780496 0.07061065 0.98928255 0.0028376919
-0.029846553 3.35286 -1.8839209 30 0.12764175 0.071129695 0.98926646 0.0029006416
-0.00057752535 3.3094022 -1.859429 32 0.12789413 0.073637024 0.98905045 0.0030273611
0.009260539 3.3163636 -1.8633476 31 0.12842256 0.073506117 0.98899162 0.003021338
0.01795321 3.3180716 -1.8643274 30 0.12858622 0.073414348 0.98897719 0.0030471759
0.027898103 3.3302088 -1.8711852 28 0.12907542 0.072215468 0.98900169 0.0030433245
0.046858337 3.3143017 -1.8623681 23 0.12966011 0.072541796 0.98890144 0.0031077431
0.037257131 3.3353484 -1.8741242 30 0.12944126 0.071788609 0.98898494 0.0030463217
0.05725627 3.3472722 -1.8809819 28 0.13073385 0.071042262 0.98886883 0.0030488148
