# .PCD v0.7 - Point Cloud Data file format
VERSION 0.7
FIELDS x y z intensity normal_x normal_y normal_z curvature
SIZE 4 4 4 4 4 4 4 4
TYPE F F F F F F F F
COUNT 1 1 1 1 1 1 1 1
WIDTH 575
HEIGHT 1
VIEWPOINT 0 0 0 1 0 0 0
POINTS 575
DATA ascii
-1.3780433 -2.1407654 -1.5098743 7 0.12829682 -0.019611908 0.99154192 4.7185604e-05
-1.3830812 -2.1354651 -1.5088543 8 0.12829085 -0.019617405 0.99154252 4.1142703e-05
-1.3865924 -2.1270289 -1.5057937 8 0.12826948 -0.019725258 0.99154317 3.8930964e-05
-1.3912133 -2.121953 -1.5047734 7 0.12828754 -0.019742556 0.99154055 3.6576017e-05
-1.3950297 -2.1132648 -1.5017129 6 0.12823272 -0.019851588 0.99154538 3.4210163e-05
-1.4028286 -2.1122272 -1.5037533 7 0.12830362 -0.019840842 0.99153644 3.358836e-05
-1.4085011 -2.1063795 -1.5027331 7 0.12825385 -0.019918848 0.99154127 3.1401152e-05
-1.4153383 -2.1038651 -1.5037533 7 0.128268 -0.019955467 0.99153876 2.9170063e-05
-1.4202436 -2.0984797 -1.5027331 7 0.12826742 -0.020011351 0.99153775 2.6768294e-05
-1.424162 -2.0916617 -1.5006927 8 0.12823446 -0.02008222 0.99154055 3.2741362e-05
-1.428053 -2.0848384 -1.4986523 8 0.12817371 -0.020211758 0.99154574 3.3653094e-05
-1.4365489 -2.083174 -1.5006927 7 0.12822507 -0.020169985 0.99153996 3.3370154e-05
-1.4411244 -2.0758245 -1.4986523 7 0.12819402 -0.020213427 0.99154311 3.30695e-05
-1.4445843 -2.0692239 -1.4966121 7 0.12817205 -0.020285625 0.99154443 2.7450078e-05
-1.4517063 -2.0663359 -1.4976321 8 0.12820467 -0.020268017 0.99154061 2.8026836e-05
-1.456838 -2.0606151 -1.4966121 7 0.12821501 -0.020260671 0.99153942 2.4163082e-05
-1.4612305 -2.0553918 -1.4955918 8 0.12819512 -0.020348042 0.99154019 2.8059349e-05
-1.4656782 -2.0479932 -1.4935515 8 0.1281615 -0.020388428 0.99154371 2.5068346e-05
-1.4717486 -2.0436354 -1.4935515 8 0.12814248 -0.020440724 0.99154502 2.7137115e-05
-1.4750758 -2.0369887 -1.491511 8 0.12812026 -0.020448176 0.99154782 2.6398113e-05
-1.4821259 -2.0339935 -1.4925312 8 0.12813653 -0.020414485 0.99154639 2.4308454e-05
-1.4867833 -2.0284593 -1.491511 6 0.12812427 -0.020430434 0.99154764 2.3354212e-05
-1.4904007 -2.0215302 -1.4894706 6 0.1280794 -0.020432794 0.99155349 1.967061e-05
-1.498794 -2.0196011 -1.491511 7 0.12812915 -0.020393467 0.99154782 1.6352338e-05
-1.503399 -2.014029 -1.4904909 7 0.12811327 -0.02040378 0.99154967 1.1257424e-05
-1.5079846 -2.0084474 -1.4894706 8 0.12811667 -0.020390313 0.99154949 1.0713607e-05
-1.5118634 -2.0012188 -1.4874303 7 0.12807463 -0.020413147 0.99155444 1.3787918e-05
-1.5177946 -1.9967241 -1.4874303 7 0.12811884 -0.020382077 0.99154931 1.685455e-05
-1.5254539 -1.9952115 -1.4894706 7 0.12810752 -0.02035792 0.99155128 1.7875631e-05
-1.5303184 -1.989313 -1.4884505 7 0.12810436 -0.020366605 0.99155158 2.1332613e-05
-1.5330553 -1.9806825 -1.4853899 7 0.12810248 -0.020320665 0.99155277 2.0873145e-05
-1.5392921 -1.9780196 -1.48641 7 0.12814708 -0.020262565 0.99154818 2.2536626e-05
-1.5465591 -1.9745284 -1.4874303 7 0.12816137 -0.020247646 0.99154669 1.7947357e-05
-1.5481516 -1.964527 -1.4833496 7 0.12816149 -0.020284291 0.9915458 1.8902238e-05
-1.5568371 -1.9642403 -1.48641 7 0.12819871 -0.020214688 0.99154252 1.5801468e-05
-1.5562233 -1.9515426 -1.480289 7 0.12816605 -0.020215025 0.99154669 1.392838e-05
-1.5659721 -1.952557 -1.4843698 7 0.12821496 -0.020175694 0.99154121 1.6998851e-05
-1.5688571 -1.9436119 -1.4813092 7 0.12823196 -0.02017726 0.99153894 1.5964972e-05
-1.5703506 -1.9357648 -1.4782487 7 0.12819602 -0.020187136 0.99154335 1.3054551e-05
-1.5785998 -1.9334871 -1.480289 7 0.12822638 -0.020186761 0.99153942 1.607189e-05
-1.5829014 -1.9277418 -1.4792688 7 0.12819894 -0.02017788 0.99154317 1.7640346e-05
-1.5882785 -1.9233137 -1.4792688 7 0.12818919 -0.020186216 0.99154419 1.568118e-05
-1.591014 -1.9143459 -1.4762082 7 0.12815839 -0.020197108 0.99154806 2.1271959e-05
-1.5963538 -1.9098954 -1.4762082 7 0.12818652 -0.020186214 0.99154466 2.0176503e-05
-1.6038951 -1.9080638 -1.4782487 7 0.12820062 -0.020180259 0.99154294 2.5333406e-05
-1.6036639 -1.8970091 -1.4731477 7 0.12816617 -0.020205112 0.99154693 2.8870683e-05
-1.6129602 -1.8958917 -1.4762082 7 0.12822028 -0.020173218 0.99154049 3.2649601e-05
-1.6144327 -1.8855885 -1.4721276 7 0.12820658 -0.020170201 0.9915424 3.4027558e-05
-1.617913 -1.8803345 -1.4711074 7 0.1282108 -0.020136081 0.99154246 3.3167431e-05
-1.6226867 -1.8739414 -1.4700872 7 0.12819266 -0.020120265 0.99154514 3.4063862e-05
-1.6298459 -1.872282 -1.4721276 7 0.12820946 -0.020097798 0.99154341 3.0313093e-05
-1.6376606 -1.8700262 -1.4741679 7 0.12826154 -0.02005109 0.99153763 2.7711316e-05
-1.6386528 -1.8599961 -1.4700872 7 0.12824275 -0.020028893 0.99154055 2.9585046e-05
-1.6456299 -1.8561257 -1.4711074 7 0.12828027 -0.020011833 0.99153608 2.8986589e-05
-1.6462276 -1.8463868 -1.4670266 7 0.1282444 -0.019953893 0.99154192 3.0652747e-05
-1.6513765 -1.8417832 -1.4670266 7 0.12826121 -0.019937128 0.99153996 3.7243244e-05
-1.6568345 -1.836875 -1.4670266 7 0.1282741 -0.019876534 0.99153954 3.9617804e-05
-1.6593264 -1.8299825 -1.4649863 7 0.12827532 -0.019834647 0.99154031 3.6926234e-05
-1.6627482 -1.822219 -1.4629458 7 0.12827268 -0.01977062 0.9915418 3.2787484e-05
-1.669311 -1.8185449 -1.463966 7 0.12829459 -0.019729797 0.99153978 3.4242494e-05
-1.675233 -1.8154324 -1.4649863 7 0.12836185 -0.019676492 0.99153215 3.2268894e-05
-1.6814663 -1.812008 -1.4660064 7 0.12837411 -0.019634085 0.99153143 3.3186658e-05
-1.683943 -1.8026508 -1.4629458 7 0.12835315 -0.019572178 0.99153537 3.3029279e-05
-1.6851237 -1.7944744 -1.4598854 8 0.12832864 -0.019498112 0.99153996 3.1208398e-05
-1.6939839 -1.7932183 -1.4629458 7 0.12833697 -0.019441051 0.99154001 3.4549059e-05
-1.6957422 -1.7844434 -1.4598854 7 0.12831542 -0.019366039 0.99154437 3.8152244e-05
-1.7015966 -1.7812414 -1.4609054 7 0.12834685 -0.019309452 0.99154133 4.0618135e-05
-1.7021064 -1.7712234 -1.4568248 7 0.12830116 -0.019241478 0.9915486 4.3448596e-05
-1.7073543 -1.7661653 -1.4568248 7 0.12830392 -0.01915908 0.99154979 4.6216759e-05
-1.7134789 -1.7626239 -1.4578449 7 0.1283531 -0.019086584 0.99154478 4.3899727e-05
-1.7190076 -1.7572325 -1.4578449 7 0.12836418 -0.019008769 0.9915449 4.5826313e-05
-1.7227017 -1.7511989 -1.4568248 8 0.12835847 -0.018924156 0.99154729 5.0549206e-05
-1.7215363 -1.7402664 -1.4517238 8 0.12838055 -0.018822944 0.99154633 4.9652506e-05
-1.7306358 -1.7385074 -1.4547844 8 0.12846929 -0.018702753 0.99153709 4.5824519e-05
-1.7342669 -1.7324518 -1.4537642 7 0.12849133 -0.018569753 0.99153674 3.8370643e-05
-1.7329961 -1.7215402 -1.4486632 6 0.12849028 -0.018489311 0.99153841 3.6165377e-05
-1.7429924 -1.7212254 -1.452744 7 0.12859833 -0.01841649 0.99152571 3.4381625e-05
-1.7468637 -1.7148416 -1.4517238 7 0.12859829 -0.018304199 0.99152786 3.2478867e-05
-1.7488856 -1.707859 -1.4496835 7 0.12861983 -0.018203743 0.9915269 3.0471401e-05
-1.7517737 -1.6999596 -1.447643 7 0.12860304 -0.018099701 0.99153095 3.0095136e-05
-1.7586933 -1.6977576 -1.4496835 7 0.12867171 -0.018021403 0.99152344 3.0109159e-05
-1.7627771 -1.6910331 -1.4486632 7 0.12868585 -0.017916046 0.99152356 3.2202748e-05
-1.7615622 -1.6798595 -1.4435624 6 0.1287318 -0.017794518 0.99151981 3.1804386e-05
-1.7734418 -1.6823457 -1.4496835 7 0.12878688 -0.017723562 0.99151391 2.7806174e-05
-1.7737118 -1.6720456 -1.4456027 7 0.12883878 -0.017621899 0.99150896 2.9951012e-05
-1.7793376 -1.6685733 -1.446623 7 0.12886211 -0.01755996 0.99150699 3.2036478e-05
-1.783022 -1.6621139 -1.4456027 7 0.12893374 -0.017456714 0.99149954 3.3684173e-05
-1.781637 -1.65097 -1.4405018 6 0.12889929 -0.017356563 0.9915058 3.3377029e-05
-1.7852622 -1.6445106 -1.4394815 6 0.12899837 -0.017255092 0.99149466 3.0273754e-05
-1.7911164 -1.6406809 -1.4405018 6 0.12899978 -0.017168446 0.99149603 2.9064007e-05
-1.7934324 -1.6330434 -1.4384614 6 0.12904429 -0.017026104 0.99149269 2.8927738e-05
-1.8018112 -1.6314924 -1.441522 7 0.12911072 -0.016935004 0.9914856 2.9508736e-05
-1.8063604 -1.6264542 -1.441522 7 0.12915933 -0.01687197 0.99148023 2.8998429e-05
-1.8150235 -1.6245291 -1.4445825 7 0.12915951 -0.016744731 0.99148244 2.7081787e-05
-1.8149765 -1.6142466 -1.4405018 7 0.12919097 -0.016615191 0.99148047 2.297259e-05
-1.8204848 -1.6106292 -1.441522 7 0.12924425 -0.016562432 0.99147451 2.0384048e-05
-1.8213806 -1.6018125 -1.4384614 8 0.12929195 -0.01644917 0.9914701 2.3756515e-05
-1.8284364 -1.5989847 -1.4405018 7 0.12935309 -0.016367469 0.99146348 2.460129e-05
-1.8334504 -1.593233 -1.4405018 7 0.12938398 -0.016244194 0.99146146 2.3624014e-05
-1.8378925 -1.5881066 -1.4405018 7 0.12940465 -0.016167969 0.99146003 2.509982e-05
-1.8412914 -1.5815254 -1.4394815 7 0.12944548 -0.016051097 0.99145663 2.6732387e-05
-1.8430848 -1.5741429 -1.4374412 7 0.12946717 -0.015929772 0.99145573 2.9345645e-05
-1.8461623 -1.5678763 -1.436421 7 0.12950802 -0.015841525 0.99145186 3.0139649e-05
-1.8484491 -1.5598501 -1.4343807 7 0.12952685 -0.015746906 0.99145091 3.2203505e-05
-1.8525262 -1.5550059 -1.4343807 7 0.12955256 -0.015667588 0.99144876 3.2874977e-05
-1.8547605 -1.5469742 -1.4323403 6 0.12957972 -0.015586436 0.9914465 3.4537603e-05
-1.86437 -1.5461811 -1.436421 7 0.1296685 -0.015461671 0.9914369 3.6037127e-05
-1.8662943 -1.5384544 -1.4343807 6 0.12966964 -0.015348202 0.99143851 3.6549769e-05
-1.8716457 -1.5346544 -1.4354008 7 0.12971821 -0.015249445 0.99143362 3.8967359e-05
-1.8737909 -1.5265932 -1.4333605 7 0.12976925 -0.015130124 0.99142873 3.7222115e-05
-1.8753729 -1.5191894 -1.4313202 7 0.12977323 -0.015030867 0.99142975 3.8557038e-05
-1.8812121 -1.5146971 -1.4323403 7 0.12983024 -0.01492324 0.9914239 3.9011698e-05
-1.8824859 -1.507616 -1.4302999 8 0.12982105 -0.014799085 0.991427 3.9972601e-05
-1.8869505 -1.5020243 -1.4302999 7 0.12983315 -0.014698079 0.99142694 4.1970245e-05
-1.8913989 -1.496419 -1.4302999 7 0.12983285 -0.014598076 0.99142843 4.6286474e-05
-1.8944781 -1.4897369 -1.4292797 7 0.12984237 -0.0145245 0.99142826 4.9865783e-05
-1.899986 -1.4855007 -1.4302999 7 0.12984444 -0.014409689 0.99142963 4.8255239e-05
-1.9060023 -1.4805791 -1.4313202 7 0.12983537 -0.01435242 0.99143171 4.8571095e-05
-1.903322 -1.4699936 -1.4262192 8 0.12990785 -0.014190178 0.99142456 4.2793385e-05
-1.9060552 -1.4636251 -1.425199 7 0.12992248 -0.01406978 0.99142432 4.2726573e-05
-1.9131242 -1.4600507 -1.4272393 7 0.12989007 -0.013997991 0.99142957 4.1438438e-05
-1.9117126 -1.4505434 -1.4231586 6 0.12999579 -0.013809239 0.99141842 4.0018807e-05
-1.9160081 -1.4448647 -1.4231586 6 0.12996572 -0.013698322 0.99142385 4.0804633e-05
-1.9257928 -1.4432999 -1.4272393 7 0.12999648 -0.013619279 0.99142087 3.955112e-05
-1.9256771 -1.4348332 -1.4241787 7 0.13003334 -0.01343221 0.99141866 3.3373002e-05
-1.9266629 -1.4277383 -1.4221385 7 0.13001201 -0.013325396 0.99142289 3.3587134e-05
-1.9311389 -1.4216784 -1.4221385 8 0.13010263 -0.013090287 0.99141413 2.5891095e-05
-1.9364898 -1.4172961 -1.4231586 7 0.13012908 -0.012999661 0.99141186 2.5387644e-05
-1.9392953 -1.4105321 -1.4221385 7 0.13019241 -0.012810171 0.99140596 2.7720125e-05
-1.9351066 -1.398726 -1.4160173 7 0.13020097 -0.012648012 0.99140698 2.9722965e-05
-1.9459901 -1.3983357 -1.4211183 7 0.13026732 -0.012534655 0.99139971 2.647005e-05
-1.9484873 -1.3918964 -1.4200981 7 0.13030057 -0.012426503 0.99139673 2.8280972e-05
-1.9469978 -1.3821259 -1.4160173 8 0.13026674 -0.01226998 0.99140298 3.2097785e-05
-1.955307 -1.3793175 -1.4190779 7 0.13038744 -0.012114196 0.99138916 3.063367e-05
-1.9523479 -1.3685726 -1.4139769 7 0.13034377 -0.012008245 0.99139619 2.933523e-05
-1.9618076 -1.3670498 -1.4180578 7 0.13042367 -0.011880781 0.99138719 3.2971471e-05
-1.9585469 -1.3566682 -1.4129568 7 0.13038133 -0.011733941 0.99139446 3.0729476e-05
-1.9627994 -1.3505086 -1.4129568 6 0.13046287 -0.011580417 0.99138558 2.9607338e-05
-1.9694026 -1.3469646 -1.4149972 7 0.13047777 -0.011420725 0.9913854 2.9226812e-05
-1.974579 -1.3424268 -1.4160173 7 0.13051805 -0.011230102 0.9913823 2.6020014e-05
-1.977361 -1.3352541 -1.4149972 7 0.13053213 -0.011077492 0.99138218 2.6433525e-05
-1.9765656 -1.3271958 -1.4119366 6 0.13052107 -0.010912379 0.99138552 2.7748156e-05
-1.9833564 -1.3232349 -1.4139769 7 0.13048834 -0.010858466 0.99139035 3.1238276e-05
-1.9832022 -1.3141465 -1.4109163 7 0.13055114 -0.010646091 0.99138439 3.6767982e-05
-1.9835343 -1.3074034 -1.4088761 6 0.1306003 -0.01045743 0.99137998 3.3059157e-05
-1.9905107 -1.30305 -1.4109163 7 0.1306344 -0.010365563 0.9913764 3.7640304e-05
-1.9929259 -1.2962006 -1.4098963 7 0.1306766 -0.01013957 0.99137324 3.6375568e-05
-1.9977571 -1.2919128 -1.4109163 7 0.13063203 -0.010021896 0.99138027 3.7795035e-05
-2.0030286 -1.2869093 -1.4119366 7 0.13064352 -0.0098895095 0.99138016 3.7613518e-05
-2.0027111 -1.2778347 -1.4088761 7 0.13073152 -0.0096926736 0.99137038 3.5584071e-05
-2.0060499 -1.2725866 -1.4088761 7 0.1307386 -0.0095134843 0.99137121 4.0615654e-05
-2.006906 -1.2647951 -1.4068357 7 0.13076542 -0.0093590384 0.99136919 3.9927669e-05
-2.0094113 -1.2575711 -1.4058155 8 0.1308033 -0.00916648 0.99136597 3.9574938e-05
-2.0110178 -1.2517488 -1.4047953 7 0.13084508 -0.008971191 0.99136221 3.8267772e-05
-2.0193305 -1.2481376 -1.4078559 7 0.13083121 -0.0088874595 0.99136484 4.1922423e-05
-2.0127628 -1.2358403 -1.4007145 6 0.13088839 -0.0085728047 0.99136013 4.1309311e-05
-2.0277376 -1.2377371 -1.4088761 7 0.13088797 -0.0085024228 0.9913606 4.4443714e-05
-2.0242608 -1.2269018 -1.4037751 7 0.13092242 -0.0082511315 0.99135822 3.8064456e-05
-2.0278921 -1.2208906 -1.4037751 7 0.13096425 -0.0080825221 0.99135411 3.996164e-05
-2.0325577 -1.2164607 -1.4047953 7 0.13101579 -0.0079490039 0.99134839 4.2165677e-05
-2.0374253 -1.2116592 -1.4058155 7 0.13102664 -0.0077637737 0.99134851 4.1517458e-05
-2.036778 -1.2026285 -1.402755 7 0.13103041 -0.0075160763 0.99134976 3.8188959e-05
-2.0401282 -1.1969364 -1.402755 7 0.13105701 -0.0073474422 0.99134761 3.8272978e-05
-2.0421844 -1.1900117 -1.4017347 7 0.13115425 -0.0071434001 0.99133623 3.9142542e-05
-2.0471952 -1.1848087 -1.402755 7 0.13115281 -0.0069376882 0.9913379 3.8122518e-05
-2.0502899 -1.1794456 -1.402755 7 0.13117193 -0.0068070004 0.99133623 4.0082694e-05
-2.0478055 -1.1699435 -1.3986741 7 0.13120723 -0.006534758 0.99133343 4.3891785e-05
-2.0557566 -1.1664089 -1.4017347 7 0.13120401 -0.0064126188 0.99133462 4.8292666e-05
-2.0590057 -1.1606635 -1.4017347 7 0.13121882 -0.0061907219 0.99133408 5.0718027e-05
-2.0611405 -1.1533496 -1.4007145 7 0.13124579 -0.0059338589 0.99133211 5.698554e-05
-2.0613461 -1.1459175 -1.3986741 7 0.13124906 -0.0056917411 0.99133313 6.0441373e-05
-2.0660443 -1.1409882 -1.3996944 7 0.13124189 -0.005552453 0.99133486 6.5418615e-05
-2.0681098 -1.1336653 -1.3986741 8 0.13122819 -0.0053574601 0.99133772 6.7960085e-05
-2.0710707 -1.128247 -1.3986741 7 0.131238 -0.005116994 0.99133772 7.1068105e-05
-2.0698702 -1.1196417 -1.3956136 8 0.13125893 -0.004876846 0.99133611 7.5906624e-05
-2.0807605 -1.1175649 -1.4007145 7 0.13124321 -0.0047405674 0.99133891 7.5018062e-05
-2.0732489 -1.1060817 -1.3935733 7 0.13124281 -0.0044994797 0.99134004 8.2302307e-05
-2.0824099 -1.1035098 -1.3976541 7 0.13122086 -0.0043027573 0.9913438 8.3273699e-05
-2.0843437 -1.0961618 -1.3966339 7 0.13125314 -0.0040845 0.99134046 8.3286315e-05
-2.0887311 -1.0914979 -1.3976541 7 0.1312193 -0.0038797047 0.99134576 8.3669816e-05
-2.0827982 -1.0805424 -1.3915329 6 0.13129228 -0.003552153 0.9913373 8.7043903e-05
-2.0936418 -1.0782965 -1.3966339 7 0.13124357 -0.0033996792 0.99134427 8.5629988e-05
-2.0966446 -1.0724456 -1.3966339 7 0.1312377 -0.0031596129 0.99134588 8.5571744e-05
-2.0890808 -1.0607681 -1.3894925 6 0.13125652 -0.0028586832 0.99134427 8.5497741e-05
-2.1014357 -1.0592105 -1.3956136 7 0.13122712 -0.0026476698 0.9913488 8.7368833e-05
-2.1059239 -1.054108 -1.3966339 7 0.13122207 -0.0024265433 0.99135005 8.5558691e-05
-2.1059608 -1.0463245 -1.3945935 7 0.13123752 -0.0022494055 0.99134839 8.5041254e-05
-2.1090562 -1.0400712 -1.3945935 7 0.1312321 -0.0019604503 0.99134976 8.6920831e-05
-2.1102266 -1.0337896 -1.3935733 7 0.13118386 -0.0016817874 0.99135667 9.2113274e-05
-2.1115584 -1.0271401 -1.392553 7 0.13119972 -0.00150961 0.99135476 9.2201073e-05
-2.1163239 -1.0212494 -1.3935733 7 0.13119121 -0.0012449126 0.99135631 8.8225512e-05
-2.1176164 -1.0145922 -1.392553 7 0.13120595 -0.0010384237 0.99135458 8.7063461e-05
-2.1112962 -1.0038724 -1.3864319 6 0.13129576 -0.0007022841 0.99134302 8.6145177e-05
-2.1220438 -1.0012743 -1.3915329 7 0.13120565 -0.00053115707 0.991355 9.0084068e-05
-2.1263895 -0.9960742 -1.392553 7 0.13113117 -0.0002999955 0.99136502 9.1904658e-05
-2.1182442 -0.98505461 -1.3854117 6 0.13120735 8.1637088e-05 0.99135488 9.0317772e-05
-2.1289675 -0.98236889 -1.3905127 7 0.13110739 0.00024631916 0.99136817 8.7315304e-05
-2.1287446 -0.97461545 -1.3884723 7 0.13112934 0.00061422627 0.99136513 9.0232701e-05
-2.1331933 -0.96900696 -1.3894925 7 0.13108116 0.00079387904 0.99137127 9.1179434e-05
-2.1390274 -0.96446013 -1.3915329 8 0.13103764 0.00099697872 0.99137688 9.3903029e-05
-2.1401422 -0.9577803 -1.3905127 8 0.13103291 0.0012613236 0.99137723 9.3710085e-05
-2.1428084 -0.95179999 -1.3905127 7 0.13098207 0.0015727693 0.99138349 9.2670962e-05
-2.1394906 -0.94229037 -1.3864319 6 0.13105005 0.0018502307 0.99137402 9.6596617e-05
-2.1452661 -0.9376899 -1.3884723 7 0.13104038 0.0021043359 0.99137479 9.7343669e-05
-2.1497798 -0.93162972 -1.3894925 7 0.13097505 0.002415776 0.99138266 0.00010273445
-2.1522117 -0.92599821 -1.3894925 7 0.13091414 0.0026239702 0.99139023 0.00010282479
-2.150203 -0.91758269 -1.3864319 7 0.13093808 0.0029010994 0.99138635 0.0001075256
-2.1546593 -0.91149372 -1.3874521 7 0.13089843 0.0031714686 0.99139071 0.00011142249
-2.1568799 -0.90622652 -1.3874521 7 0.13084371 0.0033634799 0.99139732 0.0001088951
-2.1613045 -0.90010667 -1.3884723 7 0.1308611 0.0036517591 0.99139392 0.00010539004
-2.1639655 -0.89369041 -1.3884723 7 0.13083421 0.0039115273 0.99139655 0.00010553323
-2.1647062 -0.88736945 -1.3874521 7 0.13078398 0.0041771214 0.99140209 0.00010858109
-2.1625485 -0.87899995 -1.3843917 6 0.13080055 0.0044019921 0.99139893 0.00010769867
-2.1700864 -0.8741293 -1.3874521 7 0.13079545 0.0047045765 0.99139816 0.00010627132
-2.1675756 -0.86652976 -1.3843917 7 0.13081996 0.0050105825 0.99139345 0.00010532326
-2.1733351 -0.8613627 -1.3864319 7 0.13079321 0.0052970769 0.99139553 0.00010018486
-2.1758816 -0.85490978 -1.3864319 7 0.13078909 0.0055462955 0.99139476 9.6938085e-05
-2.1749067 -0.84796107 -1.3843917 7 0.13083141 0.0058448599 0.99138743 9.5608309e-05
-2.1806223 -0.84274435 -1.3864319 7 0.13078764 0.006062536 0.99139196 9.3730669e-05
-2.1768329 -0.83342916 -1.3823512 7 0.13082232 0.0064843297 0.99138463 9.5273026e-05
-2.1806157 -0.82833803 -1.3833714 6 0.1307386 0.006760784 0.9913938 9.6250711e-05
-2.1813104 -0.82163888 -1.3823512 6 0.13075833 0.0070767296 0.99138904 9.5735326e-05
-2.1856349 -0.81500179 -1.3833714 7 0.13071264 0.0073102256 0.99139339 9.6588112e-05
-2.1861477 -0.80868059 -1.3823512 8 0.13073067 0.0075569185 0.9913891 9.3856084e-05
-2.1883974 -0.80257243 -1.3823512 8 0.13065436 0.0079161609 0.99139643 9.9646655e-05
-2.1925247 -0.79628104 -1.3833714 7 0.13064601 0.0081316074 0.99139571 9.8047232e-05
-2.1994574 -0.79228711 -1.3864319 7 0.13062389 0.0084921392 0.99139559 0.00010093406
-2.1954544 -0.78306168 -1.3823512 7 0.13064565 0.0087586045 0.99139047 9.9084886e-05
-2.1993899 -0.77711773 -1.3833714 7 0.13059655 0.0090900688 0.99139392 9.8034143e-05
-2.2014172 -0.77135628 -1.3833714 7 0.13068907 0.0092925709 0.99137986 9.8149132e-05
-2.203696 -0.76482159 -1.3833714 7 0.13060504 0.0096077295 0.9913879 9.7289507e-05
-2.2043288 -0.75772041 -1.3823512 7 0.13061862 0.0099324863 0.9913829 9.8866039e-05
-2.1999228 -0.74934304 -1.3782705 7 0.13059689 0.010300338 0.99138206 9.9532699e-05
-2.2087862 -0.74462664 -1.3823512 7 0.13051178 0.010593857 0.99139011 0.00010196781
-2.2092257 -0.73791057 -1.3813311 7 0.13054569 0.01081649 0.99138325 0.00010034539
-2.2080114 -0.7306574 -1.3792907 7 0.13051665 0.011161434 0.99138331 0.00010374471
-2.2116776 -0.72502482 -1.3803108 7 0.13046256 0.011422246 0.99138743 0.00010527307
-2.213819 -0.71845984 -1.3803108 7 0.13041462 0.011738474 0.99138999 0.00010302534
-2.214179 -0.71174836 -1.3792907 7 0.13044272 0.01210353 0.99138194 9.7358286e-05
-2.2196829 -0.70583075 -1.3813311 7 0.13034387 0.012387517 0.99139142 9.7461736e-05
-2.2133195 -0.69743252 -1.3762301 6 0.13030584 0.012674087 0.99139285 9.931509e-05
-2.2186635 -0.69188654 -1.3782705 6 0.13022807 0.013023273 0.99139857 9.8370918e-05
-2.2272816 -0.68733001 -1.3823512 7 0.13018921 0.013304737 0.99139994 0.00010252318
-2.2276659 -0.68021601 -1.3813311 7 0.13009672 0.013632264 0.99140757 0.00010543741
-2.2262638 -0.67299688 -1.3792907 7 0.13000834 0.013869598 0.99141592 0.00010923128
-2.2282505 -0.66638887 -1.3792907 7 0.12998787 0.014197054 0.99141389 0.00010792922
-2.2299876 -0.66055232 -1.3792907 7 0.12989537 0.014401463 0.99142319 0.00010967279
-2.2304006 -0.65306038 -1.3782705 8 0.12982891 0.01477486 0.99142641 0.00011122348
-2.2306762 -0.64596117 -1.3772502 7 0.12977345 0.015130405 0.99142826 0.00011198427
-2.2342367 -0.63981378 -1.3782705 7 0.1297235 0.015363366 0.99143124 0.00011258072
-2.2342491 -0.63349235 -1.3772502 7 0.12969977 0.015727557 0.99142867 0.00011162585
-2.2328062 -0.62593216 -1.3752099 7 0.12968898 0.01600845 0.99142551 0.00010995486
-2.2378607 -0.62061387 -1.3772502 7 0.1295754 0.016318278 0.99143523 0.00011206776
-2.2413514 -0.6144259 -1.3782705 7 0.12951396 0.016582888 0.99143898 0.00011407516
-2.2381833 -0.6064238 -1.3752099 7 0.12951367 0.017042037 0.99143112 0.00011036581
-2.2416344 -0.60022515 -1.3762301 7 0.12949467 0.017418439 0.99142718 0.00010484657
-2.2466278 -0.59484339 -1.3782705 7 0.12942003 0.017612021 0.99143344 0.00010820033
-2.2433903 -0.5868687 -1.3752099 7 0.12935163 0.018078538 0.99143398 0.00011187825
-2.2482495 -0.58185583 -1.3772502 7 0.12925211 0.018239925 0.99144405 0.00011240019
-2.2483997 -0.57436407 -1.3762301 7 0.12928309 0.018658718 0.99143219 0.00011119201
-2.2483273 -0.56766182 -1.3752099 6 0.12911974 0.018951852 0.99144787 0.00011346958
-2.2499034 -0.56138146 -1.3752099 7 0.12904912 0.019162681 0.99145305 0.00011713857
-2.2533262 -0.55472153 -1.3762301 7 0.12898077 0.01959835 0.99145341 0.00011994745
-2.2515237 -0.54761368 -1.3741897 7 0.12892336 0.019943375 0.99145401 0.00012065618
-2.2581565 -0.54213548 -1.3772502 7 0.12870863 0.020098627 0.99147874 0.0001207654
-2.2529664 -0.53423959 -1.3731695 6 0.12866826 0.020484639 0.99147606 0.00012296705
-2.2577071 -0.52912492 -1.3752099 7 0.12860647 0.020813273 0.99147737 0.00012481722
-2.2627103 -0.5228045 -1.3772502 7 0.12844938 0.02108293 0.99149197 0.00012680609
-2.2642515 -0.51608795 -1.3772502 7 0.12845694 0.021396203 0.99148422 0.00012509289
-2.2605605 -0.50902504 -1.3741897 7 0.12849469 0.021701967 0.99147266 0.00012597913
-2.2621484 -0.5019207 -1.3741897 6 0.12843087 0.02210734 0.99147195 0.00012987218
-2.265135 -0.49636474 -1.3752099 7 0.12835889 0.022426028 0.99147421 0.0001316065
-2.2632349 -0.48891515 -1.3731695 7 0.12828447 0.022679178 0.99147803 0.00013396512
-2.2663581 -0.48255652 -1.3741897 7 0.12822782 0.022993647 0.99147815 0.00013222017
-2.2694635 -0.47618309 -1.3752099 7 0.12812321 0.023316545 0.99148417 0.00013466757
-2.2657306 -0.46879789 -1.3721493 7 0.12811491 0.023690276 0.9914763 0.00013829835
-2.2738538 -0.46344787 -1.3762301 7 0.12788989 0.024031885 0.99149716 0.00013707817
-2.2734528 -0.45675728 -1.3752099 7 0.12788072 0.024246948 0.99149311 0.00013395134
-2.2730319 -0.45007259 -1.3741897 7 0.12784939 0.024654407 0.99148709 0.00013321968
-2.2710576 -0.44227162 -1.3721493 6 0.12780371 0.024983771 0.99148476 0.00013561285
-2.2739732 -0.43625188 -1.3731695 7 0.1277144 0.025248447 0.99148953 0.00013584243
-2.2768731 -0.43021929 -1.3741897 7 0.12762162 0.025561089 0.99149352 0.00013479941
-2.2797568 -0.42417499 -1.3752099 7 0.12762208 0.02591004 0.99148434 0.000136239
-2.2776208 -0.4167895 -1.3731695 7 0.12755588 0.026241096 0.99148422 0.00013569764
-2.2856197 -0.4112477 -1.3772502 7 0.1273821 0.026568506 0.99149787 0.00013608208
-2.2868297 -0.40446472 -1.3772502 7 0.12737468 0.02691336 0.99148947 0.00013755093
-2.2845609 -0.39748779 -1.3752099 7 0.12726808 0.027210355 0.99149507 0.000139107
-2.2857304 -0.39070693 -1.3752099 6 0.12719209 0.027523298 0.99149615 0.00013982947
-2.281656 -0.38386571 -1.3721493 6 0.12724859 0.027813584 0.99148089 0.00014203425
-2.2862453 -0.37725583 -1.3741897 7 0.12716441 0.028188679 0.99148101 0.00014309312
-2.2906859 -0.37142101 -1.3762301 7 0.12702237 0.028541677 0.99148911 0.00014445664
-2.2867446 -0.36341214 -1.3731695 7 0.12705268 0.028844809 0.99147654 0.00014765417
-2.2911501 -0.35755581 -1.3752099 7 0.12691724 0.029211165 0.99148315 0.00014762559
-2.2938399 -0.35141668 -1.3762301 7 0.12689483 0.029524403 0.99147666 0.00015094269
-2.2965133 -0.34526527 -1.3772502 7 0.12685756 0.029812641 0.99147284 0.0001530923
-2.2839127 -0.33644465 -1.3690888 6 0.12690091 0.030111821 0.99145824 0.00015773995
-2.2985218 -0.33163178 -1.3772502 7 0.12659262 0.030525111 0.99148506 0.00015677289
-2.2944424 -0.32368812 -1.3741897 7 0.12668215 0.030835519 0.99146396 0.00015718988
-2.3003383 -0.31878901 -1.3772502 7 0.12656513 0.031209478 0.99146718 0.0001562925
-2.297919 -0.31109959 -1.3752099 7 0.12648912 0.031481031 0.99146831 0.0001540363
-2.2987256 -0.30508241 -1.3752099 6 0.12647 0.031844664 0.99145919 0.00015609732
-2.3030324 -0.29870299 -1.3772502 7 0.12635091 0.032100119 0.9914661 0.00015698167
-2.3056152 -0.29208449 -1.3782705 7 0.12627059 0.032403987 0.99146652 0.00015376258
-2.3031068 -0.28441852 -1.3762301 7 0.12629245 0.032837309 0.99144936 0.00015156495
-2.3089674 -0.27900696 -1.3792907 7 0.12615676 0.033139322 0.99145669 0.00015050756
-2.3063679 -0.27175215 -1.3772502 7 0.12610662 0.033421345 0.99145353 0.00014987134
-2.3071179 -0.26531035 -1.3772502 7 0.12601152 0.033806249 0.99145257 0.00015168125
-2.3045208 -0.25767916 -1.3752099 7 0.12601332 0.034136366 0.99144107 0.0001493327
-2.3120279 -0.25239214 -1.3792907 7 0.12583482 0.034457672 0.99145257 0.00014744108
-2.3128095 -0.24512683 -1.3792907 8 0.12581591 0.034826417 0.99144214 0.00014579268
-2.3065987 -0.2383641 -1.3752099 7 0.12571967 0.0350383 0.99144679 0.00014965325
-2.3158538 -0.23237787 -1.3803108 7 0.1255641 0.035442661 0.99145222 0.00014787399
-2.3147819 -0.22574276 -1.3792907 7 0.12557538 0.035734508 0.99144036 0.00015042782
-2.3154795 -0.21846944 -1.3792907 7 0.12538844 0.036154777 0.99144864 0.00015336428
-2.3160806 -0.21200295 -1.3792907 7 0.12532164 0.036428813 0.99144715 0.0001507251
-2.3149858 -0.2049782 -1.3782705 7 0.12523237 0.036667857 0.99144953 0.00015239652
-2.3172286 -0.19906396 -1.3792907 7 0.12517245 0.03695165 0.99144667 0.00015348806
-2.3195567 -0.19192548 -1.3803108 7 0.12507366 0.037264615 0.99144733 0.00015298909
-2.3149717 -0.18463139 -1.3772502 7 0.12510461 0.037640776 0.99142933 0.0001503259
-2.3206236 -0.17856237 -1.3803108 7 0.12492773 0.037994381 0.99143815 0.00015048313
-2.3211432 -0.17167659 -1.3803108 7 0.12493316 0.038212359 0.99142909 0.00015257667
-2.3267612 -0.16556019 -1.3833714 7 0.12480576 0.038575292 0.99143112 0.00014849543
-2.3238099 -0.1584217 -1.3813311 7 0.12483028 0.038847942 0.99141729 0.00014300659
-2.319067 -0.15199971 -1.3782705 7 0.12485445 0.039051965 0.99140626 0.00013650696
-2.3143823 -0.14439252 -1.3752099 6 0.1248368 0.039424714 0.99139369 0.00012910411
-2.3267968 -0.13864507 -1.3823512 7 0.12455621 0.039758593 0.99141562 0.00012983673
-2.3237629 -0.13154614 -1.3803108 7 0.12450065 0.040053777 0.99141079 0.00012561107
-2.3258173 -0.12555464 -1.3813311 7 0.1244152 0.040320281 0.99141067 0.00012884174
-2.3262002 -0.11824714 -1.3813311 7 0.1242547 0.040710129 0.9914149 0.00013004566
-2.3299577 -0.11191616 -1.3833714 7 0.12422879 0.040944178 0.99140853 0.00012947702
-2.3251059 -0.1051759 -1.3803108 7 0.12409832 0.041226264 0.99141312 0.00013149522
-2.3305635 -0.098494492 -1.3833714 7 0.12395787 0.041528944 0.99141812 0.00013002352
-2.3256891 -0.091376401 -1.3803108 6 0.12394607 0.041816525 0.99140745 0.00012945631
-2.3310773 -0.085476927 -1.3833714 7 0.12380299 0.04207195 0.99141455 0.00012709005
-2.3313344 -0.078153111 -1.3833714 7 0.12366528 0.042352315 0.99141979 0.00012924414
-2.3315434 -0.071642891 -1.3833714 7 0.12354498 0.042624466 0.99142313 0.00012792298
-2.3334544 -0.065179601 -1.3843917 7 0.12341987 0.042923566 0.99142575 0.00013126958
-2.3284883 -0.05772052 -1.3813311 7 0.12336217 0.043303311 0.99141651 0.00013003284
-2.3372483 -0.050999008 -1.3864319 7 0.12321951 0.043567546 0.99142259 0.00012762833
-2.335654 -0.044847284 -1.3854117 7 0.12315082 0.043830991 0.99141961 0.00012704192
-2.3323367 -0.037861086 -1.3833714 7 0.12301847 0.044046681 0.99142647 0.00012973354
-2.3341591 -0.030963428 -1.3843917 7 0.12294184 0.044373732 0.99142128 0.0001273566
-2.3308043 -0.023595367 -1.3823512 7 0.122903 0.044603448 0.99141592 0.00012583016
-2.3360188 -0.017532364 -1.3854117 7 0.1227701 0.044831924 0.991422 0.00012635994
-2.3360605 -0.01060105 -1.3854117 7 0.12270167 0.045135472 0.99141663 0.00012572146
-2.3395207 -0.0044916454 -1.3874521 7 0.12253817 0.045291271 0.99142981 0.00012429414
-2.3378029 0.0028556413 -1.3864319 7 0.1224433 0.045626972 0.99142617 0.00011983897
-2.3395045 0.009799364 -1.3874521 7 0.12233305 0.045944791 0.9914251 0.00011872168
-2.337745 0.016728591 -1.3864319 7 0.1221691 0.046248298 0.99143118 0.00011552587
-2.335969 0.023239784 -1.3854117 7 0.12205146 0.046472773 0.99143511 0.00011409228
-2.337615 0.02978502 -1.3864319 7 0.12198398 0.0467804 0.99142909 0.00011005604
-2.3392363 0.036747321 -1.3874521 7 0.12187001 0.04699941 0.99143267 0.00011087442
-2.3391321 0.042871483 -1.3874521 7 0.12181971 0.047156442 0.99143142 0.0001109477
-2.3389859 0.050219979 -1.3874521 7 0.12162077 0.047483742 0.99144024 0.00010972314
-2.3388364 0.056751616 -1.3874521 7 0.12142111 0.047709264 0.99145383 0.00010877177
-2.3386579 0.063690409 -1.3874521 8 0.12131882 0.047910705 0.99145669 0.00010909193
-2.3402026 0.069864288 -1.3884723 7 0.12117606 0.04814722 0.99146259 0.00010614727
-2.339958 0.077624388 -1.3884723 7 0.12096354 0.048456836 0.99147344 0.00010562018
-2.3431852 0.083873376 -1.3905127 7 0.12082265 0.048685633 0.99147952 9.8787204e-05
-2.334347 0.090084374 -1.3854117 7 0.12072981 0.048851173 0.99148268 0.00010189228
-2.3409276 0.097704552 -1.3894925 7 0.12055605 0.049202763 0.99148643 0.00010056871
-2.3440826 0.10439449 -1.3915329 7 0.12042605 0.049417019 0.99149162 9.8481927e-05
-2.3420637 0.11085826 -1.3905127 7 0.12038716 0.049603611 0.99148697 9.5737203e-05
-2.3451605 0.1179798 -1.392553 7 0.12018629 0.049909636 0.99149597 9.9339399e-05
-2.3465395 0.12461965 -1.3935733 7 0.12002774 0.050139967 0.99150366 9.6091302e-05
-2.3495948 0.13177365 -1.3956136 7 0.11988131 0.050391398 0.99150848 9.5958363e-05
-2.3457589 0.13854174 -1.3935733 7 0.11981001 0.050628692 0.99150515 9.6205949e-05
-2.3453374 0.14550182 -1.3935733 8 0.119666 0.05087645 0.99150974 9.5462026e-05
-2.3432319 0.15153003 -1.392553 7 0.11962257 0.051084485 0.99150437 9.4375071e-05
-2.3393116 0.15865751 -1.3905127 6 0.11953588 0.051283021 0.99150449 9.2485199e-05
-2.3422914 0.16543202 -1.392553 6 0.11940307 0.051503353 0.99150908 8.8719782e-05
-2.3452516 0.17222442 -1.3945935 7 0.11928909 0.051742148 0.99151033 9.2692433e-05
-2.3447304 0.17918229 -1.3945935 7 0.11915268 0.051930003 0.99151701 9.4398762e-05
-2.3425057 0.18559358 -1.3935733 7 0.11909202 0.052058529 0.99151754 9.3089518e-05
-2.3470883 0.19296555 -1.3966339 7 0.11890854 0.052391805 0.99152201 8.7970904e-05
-2.3396492 0.19934462 -1.392553 7 0.11881828 0.052571423 0.99152327 8.9392997e-05
-2.3476517 0.20663169 -1.3976541 7 0.1186773 0.052759502 0.99153018 8.3653067e-05
-2.3487411 0.21375185 -1.3986741 7 0.11856243 0.052961048 0.99153316 7.9496218e-05
-2.3463843 0.22055894 -1.3976541 7 0.11846785 0.053136628 0.99153507 8.3311854e-05
-2.344007 0.22735386 -1.3966339 7 0.11835575 0.053382192 0.99153531 8.5316147e-05
-2.3451157 0.23366043 -1.3976541 7 0.11826765 0.053531595 0.99153775 8.2777973e-05
-2.346081 0.24120212 -1.3986741 7 0.11819004 0.053755332 0.99153489 8.1924554e-05
-2.3453984 0.24775283 -1.3986741 7 0.11812079 0.053910036 0.99153471 7.5067939e-05
-2.3395224 0.25415349 -1.3956136 6 0.11807094 0.054082051 0.99153125 7.7525801e-05
-2.3438869 0.261666 -1.3986741 7 0.11791357 0.054354586 0.99153519 7.1275907e-05
-2.3414383 0.26801491 -1.3976541 7 0.11779867 0.054509811 0.99154031 6.8687012e-05
-2.3406806 0.27455252 -1.3976541 7 0.11769074 0.054666296 0.99154454 7.0069953e-05
-2.3415141 0.28211048 -1.3986741 7 0.11752372 0.054855604 0.99155384 6.2914885e-05
-2.3442328 0.2882506 -1.4007145 7 0.11745539 0.054987594 0.99155462 5.9970007e-05
-2.3484356 0.29626033 -1.4037751 7 0.11736324 0.055224124 0.99155241 5.2684827e-05
-2.3441343 0.30278581 -1.4017347 7 0.11731236 0.05530826 0.99155378 5.1148127e-05
-2.3365119 0.30802202 -1.3976541 6 0.11723534 0.05541477 0.99155688 4.7642174e-05
-2.3389421 0.31582192 -1.3996944 7 0.11710179 0.055615723 0.99156147 4.5553308e-05
-2.3397551 0.3225868 -1.4007145 7 0.11704692 0.055759367 0.99155986 4.0491224e-05
-2.3422523 0.32959893 -1.402755 7 0.11697843 0.0558891 0.99156064 3.9636143e-05
-2.3378582 0.33605713 -1.4007145 8 0.11686613 0.056048937 0.99156481 3.8951377e-05
-2.3419566 0.34374174 -1.4037751 7 0.1167881 0.056208044 0.99156505 3.461857e-05
-2.3427503 0.3501263 -1.4047953 7 0.11673307 0.056331046 0.99156451 3.1348227e-05
-2.338238 0.35696486 -1.402755 5 0.11658946 0.056442712 0.99157506 2.9770752e-05
-2.3389313 0.36375752 -1.4037751 7 0.11649591 0.056591127 0.99157763 3.1288604e-05
-2.344703 0.37136424 -1.4078559 7 0.11642951 0.056718074 0.99157816 3.263052e-05
-2.338496 0.37749717 -1.4047953 7 0.11632994 0.056848496 0.99158233 3.1258456e-05
-2.3441551 0.3855508 -1.4088761 7 0.11627868 0.056978874 0.9915809 3.064183e-05
-2.341373 0.3918117 -1.4078559 8 0.11617992 0.057133693 0.99158359 3.2846674e-05
-2.3435917 0.3993344 -1.4098963 7 0.11610438 0.057243999 0.99158603 3.5694196e-05
-2.3423965 0.40628636 -1.4098963 7 0.11598865 0.05734209 0.99159396 3.6931113e-05
-2.3428748 0.41353321 -1.4109163 7 0.11589609 0.057495873 0.9915958 3.5516518e-05
-2.3417108 0.42007428 -1.4109163 7 0.11590008 0.057594351 0.99158967 3.3522723e-05
-2.3387618 0.4267118 -1.4098963 8 0.11582547 0.05767436 0.99159366 3.0553958e-05
-2.340868 0.43427685 -1.4119366 7 0.11573458 0.057841938 0.99159455 3.3622986e-05
-2.3380327 0.44008514 -1.4109163 7 0.11566834 0.057880629 0.99159998 3.4651963e-05
-2.340096 0.44766748 -1.4129568 7 0.11561862 0.058005631 0.99159861 3.3234242e-05
-2.3387573 0.45460826 -1.4129568 7 0.11555926 0.058123499 0.99159855 2.8455644e-05
-2.3373981 0.46154565 -1.4129568 8 0.115499 0.05820778 0.99160063 2.5482188e-05
-2.3394735 0.46874714 -1.4149972 8 0.11544676 0.058319081 0.99160016 2.5911891e-05
-2.3381555 0.47527793 -1.4149972 8 0.11540396 0.058412492 0.99159962 1.8269026e-05
-2.3401885 0.48250031 -1.4170375 7 0.1153803 0.058541369 0.99159485 1.7156781e-05
-2.3403451 0.4902027 -1.4180578 7 0.1153219 0.058627144 0.99159646 1.8232455e-05
-2.3356016 0.49602109 -1.4160173 7 0.11524001 0.058717906 0.99160069 1.6632397e-05
-2.3340318 0.50335622 -1.4160173 8 0.11521041 0.058820926 0.99159807 1.4227959e-05
-2.3344755 0.50942481 -1.4170375 7 0.11521148 0.058902524 0.99159306 1.6448099e-05
-2.3311841 0.51638377 -1.4160173 8 0.11513033 0.058957398 0.99159926 1.8461245e-05
-2.3329072 0.52445966 -1.4180578 8 0.11509103 0.059061382 0.99159765 1.9714726e-05
-2.3316188 0.53015864 -1.4180578 8 0.11508979 0.059141945 0.99159294 1.6877622e-05
-2.3316176 0.53786719 -1.4190779 8 0.1150206 0.059233539 0.99159551 1.5248695e-05
-2.3283367 0.54439139 -1.4180578 7 0.11501386 0.05931443 0.99159139 1.2769238e-05
-2.328481 0.55128765 -1.4190779 7 0.1149421 0.059378341 0.99159598 1.4372198e-05
-2.3336241 0.55939204 -1.4231586 8 0.11494792 0.059460647 0.99159038 1.327154e-05
-2.3335266 0.56712633 -1.4241787 8 0.11494261 0.059554189 0.99158531 1.0548186e-05
-2.3303635 0.57282311 -1.4231586 8 0.11494739 0.059596162 0.99158227 6.9196039e-06
-2.3286538 0.5797351 -1.4231586 8 0.1148897 0.059669871 0.99158454 1.0070559e-05
-2.3302593 0.58748293 -1.425199 8 0.11492411 0.059752986 0.99157548 4.4316766e-06
-2.3270462 0.59315675 -1.4241787 8 0.1148827 0.059803072 0.99157733 3.360115e-06
-2.3235061 0.60003394 -1.4231586 8 0.11488435 0.059889726 0.99157184 8.6002829e-06
-2.3267081 0.60823065 -1.4262192 7 0.11486262 0.059974317 0.99156928 5.6598915e-06
-2.3251078 0.61432004 -1.4262192 8 0.11484572 0.060008295 0.99156916 1.3805172e-05
-2.3199511 0.62032747 -1.4241787 8 0.11484808 0.060087875 0.9915641 1.5349176e-05
-2.326293 0.6298601 -1.4292797 7 0.11483361 0.060165789 0.99156106 1.2984804e-05
-2.3262956 0.63640237 -1.4302999 7 0.11486609 0.060246393 0.99155235 1.6150458e-05
-2.3228512 0.6424371 -1.4292797 7 0.11477417 0.060292609 0.99156022 1.953444e-05
-2.3224781 0.6501959 -1.4302999 7 0.11480442 0.060330309 0.99155438 2.1836411e-05
-2.3191125 0.65580535 -1.4292797 7 0.11478965 0.060415726 0.99155104 2.0076959e-05
-2.3186948 0.66356128 -1.4302999 8 0.11480366 0.060470022 0.99154598 2.4147677e-05
-2.3200204 0.67139459 -1.4323403 8 0.11485572 0.060540222 0.99153566 2.6076747e-05
-2.3166039 0.67698318 -1.4313202 7 0.11483392 0.060618084 0.99153346 2.6275658e-05
-2.3144655 0.68425775 -1.4313202 7 0.11480858 0.060656719 0.99153405 2.2891163e-05
-2.319139 0.69268715 -1.4354008 7 0.11488578 0.060691014 0.99152303 2.2749493e-05
-2.3139019 0.69816703 -1.4333605 7 0.11487065 0.06076616 0.99152017 2.2884118e-05
-2.3166327 0.70693982 -1.436421 7 0.11492536 0.060805913 0.99151134 2.2047758e-05
-2.3097181 0.71188545 -1.4333605 6 0.11484741 0.060887434 0.9915154 2.1397809e-05
-2.3126485 0.71986645 -1.436421 7 0.11488483 0.060939737 0.99150789 1.8613593e-05
-2.3105025 0.72672522 -1.436421 7 0.11486424 0.060996737 0.9915067 1.9004974e-05
-2.3132544 0.73514056 -1.4394815 7 0.11491264 0.06102711 0.99149925 1.827079e-05
-2.3095546 0.74107212 -1.4384614 8 0.1148895 0.061050285 0.9915005 1.9216086e-05
-2.3089819 0.74845135 -1.4394815 7 0.11486694 0.061117139 0.99149901 2.4430286e-05
-2.3053796 0.75395983 -1.4384614 7 0.11480188 0.06118989 0.99150205 2.6895234e-05
-2.3046327 0.76173794 -1.4394815 7 0.11483098 0.061242376 0.99149549 2.5414667e-05
-2.3024964 0.76817089 -1.4394815 8 0.114734 0.061302394 0.991503 2.7975537e-05
-2.3019729 0.77514684 -1.4405018 7 0.11473147 0.061366249 0.99149925 2.6829181e-05
-2.2978976 0.78182036 -1.4394815 7 0.11465804 0.061422512 0.99150431 2.5967009e-05
-2.2940786 0.78767586 -1.4384614 8 0.11459739 0.061455444 0.99150932 2.5944439e-05
-2.2983718 0.79633182 -1.4425421 7 0.11470407 0.061512195 0.9914934 2.7059645e-05
-2.2991059 0.80468452 -1.4445825 7 0.11475499 0.061570469 0.99148393 2.6869255e-05
-2.2937469 0.80955648 -1.4425421 7 0.11462566 0.061625596 0.99149555 2.4300089e-05
-2.2961965 0.81809026 -1.4456027 7 0.11476367 0.061679769 0.99147618 2.0097161e-05
-2.2905216 0.82373548 -1.4435624 6 0.11468481 0.061732151 0.99148202 2.2794718e-05
-2.2898293 0.83071536 -1.4445825 7 0.11467824 0.061747801 0.99148172 2.3983961e-05
-2.2842698 0.83592379 -1.4425421 7 0.11466731 0.06178996 0.99148035 2.6531858e-05
-2.2914619 0.84627312 -1.4486632 8 0.11468788 0.061841331 0.99147481 2.6155438e-05
-2.2873287 0.85246813 -1.447643 7 0.11468935 0.061863985 0.99147326 2.8595903e-05
-2.2865498 0.85945714 -1.4486632 7 0.11472442 0.061904337 0.9914667 3.1863849e-05
-2.285598 0.86684781 -1.4496835 7 0.11469121 0.061949819 0.99146771 3.3657067e-05
-2.2815619 0.87261218 -1.4486632 7 0.11467336 0.061989713 0.99146724 3.7221609e-05
-2.2805674 0.87999731 -1.4496835 8 0.11466394 0.06202383 0.99146622 4.2255066e-05
-2.2747402 0.88551193 -1.447643 8 0.11466384 0.062038273 0.99146533 4.1662461e-05
-2.2722583 0.89186096 -1.447643 7 0.11469088 0.062042393 0.99146199 3.9282837e-05
-2.2745576 0.9001019 -1.4507036 7 0.1146926 0.062053926 0.99146098 3.9066115e-05
-2.2701213 0.90660477 -1.4496835 8 0.11469353 0.062077869 0.99145943 4.0326009e-05
-2.2706122 0.91462249 -1.4517238 7 0.11468602 0.062106777 0.99145842 4.136487e-05
-2.2713983 0.92185736 -1.4537642 7 0.11472972 0.062133774 0.99145174 3.5667188e-05
-2.2716749 0.93029195 -1.4558046 7 0.11472894 0.062157061 0.99145031 3.2983204e-05
-2.2693949 0.93584013 -1.4558046 7 0.11472618 0.062192522 0.99144846 3.0102259e-05
-2.2632673 0.9416436 -1.4537642 8 0.11475779 0.062197801 0.99144453 3.0964358e-05
-2.2618842 0.94941449 -1.4547844 8 0.11478154 0.062236063 0.99143928 3.3226715e-05
-2.2623925 0.95706767 -1.4568248 8 0.11479782 0.062251631 0.99143642 3.2254771e-05
-2.2628758 0.96473128 -1.4588652 7 0.11480244 0.062263064 0.99143517 2.5445917e-05
-2.2552621 0.96940321 -1.4558046 7 0.11478034 0.062285189 0.99143636 2.9388681e-05
-2.2558739 0.97667068 -1.4578449 8 0.11483469 0.062293638 0.99142945 3.0257243e-05
-2.2498128 0.98198408 -1.4558046 8 0.11484617 0.062302396 0.99142766 3.1014966e-05
-2.2482913 0.98973989 -1.4568248 8 0.11487903 0.062358532 0.99142039 3.055486e-05
-2.2535555 0.9991082 -1.4619257 7 0.11492144 0.06238614 0.99141365 3.5183679e-05
-2.2427282 1.0022815 -1.4568248 7 0.11489189 0.062426556 0.99141449 3.6305359e-05
-2.2489786 1.0135627 -1.4629458 7 0.11496459 0.062466092 0.99140364 4.1800282e-05
-2.2433619 1.0176339 -1.4609054 8 0.11497483 0.062469341 0.99140215 4.1069929e-05
-2.2448471 1.0268234 -1.463966 8 0.11501736 0.062469393 0.99139726 4.5150962e-05
-2.2417905 1.0334796 -1.463966 7 0.11506779 0.06247618 0.99139094 4.0632149e-05
-2.2390773 1.0393448 -1.463966 7 0.11507723 0.062497288 0.99138856 4.2340627e-05
-2.237359 1.0471032 -1.4649863 8 0.11513556 0.062493246 0.99138206 4.0934985e-05
-2.2359824 1.05408 -1.4660064 8 0.11515363 0.062506437 0.99137914 4.0317984e-05
-2.2283683 1.0581064 -1.4629458 8 0.11518171 0.062497593 0.9913764 3.9008064e-05
-2.231426 1.0676836 -1.4670266 7 0.11523201 0.062491547 0.99137098 3.6232119e-05
-2.2251492 1.0728056 -1.4649863 6 0.11522655 0.062508583 0.99137056 3.3571301e-05
-2.2298818 1.0827724 -1.4700872 7 0.11531471 0.06249943 0.9913609 3.3572309e-05
-2.2235689 1.0878714 -1.4680468 7 0.11535237 0.062508538 0.9913559 3.143476e-05
-2.2218745 1.0952249 -1.469067 7 0.11540803 0.062521063 0.99134862 3.1204498e-05
-2.2220814 1.1025673 -1.4711074 7 0.11545801 0.062538534 0.99134177 2.7868544e-05
-2.2155297 1.1080035 -1.469067 8 0.11552104 0.062564351 0.99133271 3.0169742e-05
-2.2154996 1.1157336 -1.4711074 8 0.11556403 0.062554099 0.99132836 3.2942269e-05
-2.2139094 1.1226943 -1.4721276 7 0.11565242 0.06259729 0.99131536 3.1285574e-05
-2.2088394 1.1288612 -1.4711074 7 0.11565828 0.062623069 0.99131304 3.7582158e-05
-2.2133265 1.1389608 -1.4762082 7 0.1157824 0.062567651 0.99130201 3.8522758e-05
-2.2070825 1.1435546 -1.4741679 7 0.11582972 0.062570378 0.99129635 4.1318333e-05
-2.205004 1.1512784 -1.4751881 8 0.11591387 0.062570482 0.99128646 4.1240743e-05
-2.2017806 1.1574316 -1.4751881 8 0.11599379 0.062506445 0.99128115 3.4861514e-05
-2.1970193 1.1627711 -1.4741679 7 0.11608463 0.062465351 0.99127316 3.2213426e-05
-2.1981137 1.1717118 -1.4772285 7 0.11622985 0.062325362 0.99126494 2.8485967e-05
-2.1920068 1.1758363 -1.4751881 8 0.11638629 0.062197194 0.99125469 3.0082088e-05
-2.1941485 1.1863716 -1.4792688 7 0.11680662 0.061504427 0.99124849 3.8542861e-05
-2.189316 1.191672 -1.4782487 8 0.11697295 0.061236825 0.99124539 4.0537117e-05
-2.18468 1.1965728 -1.4772285 8 0.1170491 0.061091434 0.99124533 4.6785211e-05
-2.1841331 1.2047108 -1.4792688 7 0.11709175 0.06093191 0.99125016 4.9056423e-05
-2.1820526 1.2120215 -1.480289 8 0.11722925 0.06080531 0.99124163 4.8845774e-05
-2.1816623 1.2197893 -1.4823294 8 0.11730927 0.060638525 0.99124241 5.3505675e-05
-2.1750355 1.2245692 -1.480289 8 0.11733905 0.06059929 0.99124122 5.23206e-05
-2.1758823 1.2335621 -1.4833496 8 0.11760037 0.060319565 0.99122739 5.9685466e-05
-2.173923 1.2404861 -1.4843698 7 0.11779105 0.06011533 0.99121714 6.9189606e-05
-2.1717246 1.247788 -1.4853899 7 0.11853287 0.059527278 0.99116421 8.0731457e-05
-2.1697204 1.2547091 -1.48641 8 0.11908832 0.058946103 0.99113232 9.5911731e-05
-2.1676948 1.2616285 -1.4874303 7 0.11918452 0.058914799 0.99112266 9.1839109e-05
-2.1622369 1.2675619 -1.48641 8 0.11923563 0.058723398 0.99112785 9.4210161e-05
-2.157207 1.2727212 -1.4853899 8 0.119303 0.058702324 0.99112099 9.2117407e-05
-2.1551237 1.2796186 -1.48641 8 0.11935624 0.058553942 0.99112338 9.5787145e-05
-2.1527939 1.2868901 -1.4874303 8 0.11954636 0.058351412 0.99111241 0.00010547771
-2.1491916 1.292897 -1.4874303 8 0.11975785 0.058105327 0.99110126 0.00010885589
-2.1497607 1.3019412 -1.4904909 8 0.11984699 0.057953566 0.99109942 0.00010816154
-2.1444194 1.3074185 -1.4894706 7 0.11996932 0.057939146 0.99108547 0.0001100003
-2.1436925 1.315201 -1.491511 8 0.12006325 0.057869393 0.99107814 0.00010365888
-2.1412446 1.3224592 -1.4925312 8 0.12006734 0.0577938 0.99108213 0.00010300292
-2.1358504 1.3278985 -1.491511 7 0.12008548 0.057696361 0.99108559 0.00010334153
-2.1335921 1.3347702 -1.4925312 8 0.12011928 0.057624016 0.99108565 0.00010269605
-2.1342239 1.3434725 -1.4955918 7 0.12016729 0.057572041 0.99108291 0.00010359089
-2.129993 1.3501704 -1.4955918 8 0.12017187 0.05748944 0.99108714 0.00010921894
-2.1276648 1.3570384 -1.4966121 8 0.1202172 0.057422638 0.99108547 0.00011029
-2.1253142 1.3639038 -1.4976321 7 0.12034664 0.057301089 0.99107689 0.00011041242
-2.1210191 1.3705736 -1.4976321 8 0.12039446 0.057216737 0.99107593 0.00011238278
-2.1147788 1.373878 -1.4955918 8 0.12039239 0.057160188 0.99107939 0.00011582366
-2.1147711 1.3833402 -1.4986523 7 0.12040757 0.057154484 0.9910779 0.0001213271
-2.1147246 1.3928158 -1.5017129 8 0.12043352 0.05703548 0.99108166 0.00012567067
-2.1084464 1.3960792 -1.4996725 8 0.12039557 0.057049565 0.99108535 0.00012826576
-2.1069126 1.4046053 -1.5017129 8 0.1204288 0.057108305 0.99107796 0.00013205467
-2.0998788 1.408933 -1.4996725 8 0.1204614 0.057089701 0.99107504 0.00013240163
-2.0990355 1.4163498 -1.5017129 8 0.12041787 0.057198532 0.99107403 0.00014217407
-2.0931518 1.421971 -1.5006927 8 0.12045462 0.057177152 0.99107093 0.00014422952
-2.0946043 1.4320583 -1.5047734 7 0.12042933 0.057363197 0.99106318 0.00015186399
-2.0894303 1.4365627 -1.5037533 8 0.12050526 0.057335604 0.99105555 0.00014588251
-2.0894029 1.4456919 -1.5068139 7 0.12023623 0.057794809 0.99106157 0.00016575368
-2.0822806 1.449919 -1.5047734 8 0.12031891 0.057790931 0.99105185 0.00016799878
-2.0827048 1.4583255 -1.507834 7 0.12012559 0.058222942 0.99104995 0.00018741631
-2.0809257 1.4668432 -1.5098743 8 0.11999157 0.058582462 0.99104494 0.00019944826
-2.0765643 1.4730111 -1.5098743 8 0.12007391 0.058596533 0.99103415 0.0001989633
-2.0727007 1.4784427 -1.5098743 8 0.12020454 0.058767367 0.99100822 0.00020451972
-2.0713596 1.4862304 -1.5119148 8 0.11987051 0.059491526 0.99100548 0.00022457814
-2.0650253 1.4920835 -1.5108945 8 0.11980075 0.059707683 0.99100089 0.00022796202
-2.0638947 1.4995077 -1.5129349 8 0.11969973 0.060139023 0.990987 0.00025170471
-2.0569222 1.5032345 -1.5108945 8 0.11991578 0.060589857 0.99093348 0.00026751426
-2.0563462 1.5127478 -1.5139551 8 0.1199109 0.060735527 0.99092513 0.00026977505
-2.0523789 1.5181258 -1.5139551 8 0.12004066 0.060894571 0.99089962 0.00027554311
-2.0478656 1.5242087 -1.5139551 8 0.12017917 0.061135132 0.99086809 0.00028534734
-2.0458202 1.5326977 -1.5159955 8 0.11997055 0.061836764 0.99084979 0.00030674369
-2.0431752 1.5390831 -1.5170157 8 0.120128 0.062233742 0.99080586 0.00032525504
-2.0383294 1.5454949 -1.5170157 8 0.12033703 0.062868103 0.99074036 0.00034237324
-2.0367413 1.5532675 -1.5190561 8 0.12035782 0.063641198 0.99068856 0.00037200822
-2.0323963 1.5589482 -1.5190561 8 0.12038922 0.063864931 0.99067032 0.00037484334
-2.0293968 1.5656685 -1.5200763 8 0.1204191 0.064632751 0.99061692 0.00040536196
-2.0271852 1.5741471 -1.5221167 8 0.12051267 0.065064795 0.99057716 0.00042148601
