# .PCD v0.7 - Point Cloud Data file format
VERSION 0.7
FIELDS x y z intensity normal_x normal_y normal_z curvature
SIZE 4 4 4 4 4 4 4 4
TYPE F F F F F F F F
COUNT 1 1 1 1 1 1 1 1
WIDTH 188
HEIGHT 1
VIEWPOINT 0 0 0 1 0 0 0
POINTS 188
DATA ascii
3.1533539 3.5893879 -2.2615159 14 0.10016764 0.069519371 0.99253893 0.00096904347
3.1592026 3.5745969 -2.2580934 11 0.10028766 0.069447979 0.99253184 0.00096071669
3.1649878 3.5598059 -2.2546706 13 0.099906482 0.069429792 0.99257147 0.00096040202
3.1875882 3.5638723 -2.2632272 13 0.10128204 0.069619216 0.99241883 0.00090492604
3.2011559 3.5589881 -2.2657943 16 0.10198905 0.06962537 0.99234593 0.00087671983
3.2153378 3.553498 -2.2683611 17 0.10242525 0.069255419 0.99232692 0.00086883956
3.2209816 3.5410552 -2.2657943 21 0.10297517 0.068969429 0.9922899 0.00086139038
3.2516205 3.5522528 -2.2794847 15 0.10301014 0.068838418 0.99229538 0.00084779767
3.260303 3.5418291 -2.2786291 17 0.10295073 0.069185965 0.99227738 0.00082156277
3.2855358 3.5480573 -2.288897 21 0.10326331 0.068289191 0.99230701 0.00083840021
3.299746 3.5422604 -2.2914641 28 0.10363065 0.067807347 0.99230176 0.00082123943
3.3120959 3.535671 -2.2931752 38 0.10397322 0.067220084 0.99230599 0.00082548294
3.3157582 3.5198298 -2.288897 35 0.10404059 0.068071291 0.99224085 0.000784937
3.3305469 3.5158067 -2.2923198 36 0.10388764 0.068118021 0.99225366 0.00074481696
3.3465657 3.5105588 -2.2957423 29 0.10374808 0.068162851 0.99226516 0.00068546837
3.3613594 3.5064199 -2.299165 22 0.10403556 0.0678894 0.99225384 0.00067569799
3.3748696 3.4984438 -2.3008764 24 0.10470287 0.067612298 0.99220252 0.00066359394
3.3834074 3.4901874 -2.3008764 19 0.10492493 0.067913905 0.99215847 0.00064993149
3.3930926 3.4782481 -2.3000207 19 0.10553329 0.067533657 0.99211991 0.00063175109
3.4040575 3.4700496 -2.3008764 28 0.10572278 0.067119114 0.99212784 0.00062327896
3.41307 3.4586473 -2.3000207 36 0.10609242 0.06691508 0.99210215 0.00060630235
3.4201691 3.4465349 -2.2983093 35 0.10707021 0.066641964 0.99201554 0.00056859193
3.4373662 3.4421699 -2.3025877 22 0.10625758 0.066880807 0.99208683 0.0004976698
3.4469645 3.4325581 -2.3025877 17 0.10625439 0.066858977 0.99208868 0.00049387669
3.4603913 3.4267337 -2.3051548 18 0.10641422 0.066586688 0.99208981 0.00049493165
3.4724274 3.4171143 -2.3060102 19 0.10638886 0.066997588 0.99206489 0.00049281411
3.4768929 3.404824 -2.3034434 18 0.10601705 0.067312963 0.99208337 0.00045734845
3.4914582 3.3976667 -2.3060102 16 0.10544258 0.067484334 0.9921329 0.00043881871
3.4963262 3.3822658 -2.3025877 16 0.10589205 0.067202121 0.99210417 0.00042050218
3.5077748 3.3756063 -2.3042989 26 0.10636625 0.066808835 0.99208003 0.00041743246
3.5190811 3.3664341 -2.3051548 14 0.10646193 0.066756174 0.99207336 0.00040969474
3.5290549 3.3559771 -2.3051548 14 0.10651377 0.066651724 0.99207479 0.00041509463
3.5370984 3.3448672 -2.3042989 17 0.10659614 0.066626497 0.99206764 0.00040775616
3.5470068 3.3343585 -2.3042989 16 0.10706336 0.066288091 0.99203998 0.00039721184
3.5574639 3.3231995 -2.3042989 16 0.10709952 0.066028431 0.99205339 0.00039819634
3.5648289 3.3126433 -2.3034434 16 0.10688251 0.066170312 0.99206734 0.00038906795
3.577297 3.3045053 -2.3051548 17 0.10695348 0.066053607 0.99206752 0.00038424169
3.5857553 3.2926528 -2.3042989 16 0.10703202 0.065976746 0.99206412 0.0003735814
3.598367 3.2869124 -2.3068659 17 0.10608789 0.06698554 0.99209797 0.00022123347
3.6086745 3.2755923 -2.3068659 17 0.10597136 0.066761918 0.99212545 0.0002200837
3.6231763 3.2703459 -2.3102884 14 0.10600965 0.066721469 0.99212408 0.00022698358
3.6349847 3.2626309 -2.312 12 0.10601516 0.066523455 0.99213678 0.00022775546
3.645216 3.2511959 -2.312 7 0.1058327 0.066071607 0.99218649 0.0002261824
3.6556342 3.2422023 -2.3128555 7 0.10570209 0.065874293 0.99221349 0.00021788616
3.6630888 3.228312 -2.3111444 7 0.10568439 0.065531172 0.9922381 0.00021054212
3.6693702 3.215688 -2.309433 9 0.105843 0.065218769 0.99224174 0.00020987465
3.6865141 3.2125535 -2.3145669 7 0.10518202 0.065485902 0.99229449 0.00020093829
3.6960306 3.2016001 -2.3145669 6 0.10506617 0.065475225 0.99230748 0.00019701186
3.7016599 3.1895533 -2.3128555 6 0.10499191 0.065499313 0.99231374 0.0001920372
3.7157807 3.1814363 -2.3154225 7 0.10497607 0.065351389 0.99232513 0.00018861027
3.7218974 3.1687047 -2.3137114 7 0.10501021 0.064980567 0.99234587 0.00018194778
3.7326624 3.1588159 -2.3145669 7 0.10496975 0.065347545 0.99232608 0.00015553228
3.7423029 3.1501958 -2.3154225 7 0.10509767 0.065144114 0.99232596 0.00015345165
3.7507939 3.137265 -2.3145669 6 0.10543369 0.064448476 0.99233574 0.00014757247
3.7553713 3.1233094 -2.312 6 0.10555458 0.06432505 0.99233085 0.00014408791
3.7682576 3.116267 -2.3145669 6 0.10560158 0.064196005 0.99233425 0.00014413414
3.7802794 3.1073689 -2.3162782 6 0.10581523 0.064070977 0.99231958 0.00014361661
3.7900221 3.0954783 -2.3162782 6 0.10600233 0.063655473 0.99232632 0.00014289291
3.7995174 3.0866842 -2.3171339 6 0.10629919 0.06314186 0.99232733 0.00014128943
3.8058453 3.0731261 -2.3154225 5 0.10655999 0.063181698 0.99229681 0.00013116472
3.8158228 3.0636168 -2.3162782 6 0.10677144 0.062881149 0.99229318 0.0001290666
3.8240147 3.0504875 -2.3154225 6 0.10696299 0.062501095 0.99229664 0.00012657647
3.8381832 3.044291 -2.318845 5 0.10713988 0.062926441 0.99225068 0.00011402666
3.8471997 3.0328882 -2.318845 5 0.10741772 0.063070394 0.99221146 0.00010961144
3.8576043 3.0225761 -2.319701 6 0.10769629 0.062638119 0.9922086 9.9668032e-05
3.864079 3.0113537 -2.318845 5 0.1079313 0.062154826 0.99221349 9.8956683e-05
3.8735197 2.9992001 -2.318845 4 0.10817268 0.061555278 0.99222457 9.3388735e-05
3.8842225 2.991256 -2.3205566 5 0.10845385 0.061097223 0.99222219 8.5502972e-05
3.8939967 2.9814954 -2.3214121 5 0.10876142 0.060525719 0.99222356 8.2127161e-05
3.9053009 2.969661 -2.322268 5 0.10900275 0.059995569 0.99222928 7.3685325e-05
3.9101791 2.9572446 -2.3205566 4 0.10910966 0.059663177 0.99223757 7.0894246e-05
3.9184217 2.9463143 -2.3205566 4 0.1091739 0.059368119 0.99224818 6.8555768e-05
3.9262097 2.9329088 -2.319701 7 0.10926399 0.058755543 0.9922747 6.1086539e-05
3.9324226 2.9215422 -2.318845 4 0.10919625 0.058844667 0.99227697 5.5110169e-05
3.9444916 2.91132 -2.3205566 4 0.10919937 0.058750588 0.99228221 5.5417931e-05
3.9501963 2.8974657 -2.318845 4 0.1092673 0.058816396 0.99227077 5.1951731e-05
3.9621494 2.890311 -2.3214121 3 0.10925431 0.058631051 0.99228317 5.3158295e-05
3.9677813 2.8764193 -2.319701 3 0.10936732 0.058410451 0.99228376 4.4790952e-05
3.9777644 2.8656914 -2.3205566 3 0.10938853 0.058152523 0.99229652 4.6581979e-05
3.9930999 2.8598359 -2.3248351 3 0.10938022 0.05796526 0.99230838 4.1283609e-05
4.0020666 2.8472741 -2.3248351 3 0.10952377 0.057722792 0.99230671 4.7758422e-05
4.0021276 2.8315668 -2.3205566 3 0.10949938 0.05728006 0.99233502 5.0444432e-05
4.0149474 2.8227997 -2.3231235 3 0.10963685 0.057179455 0.99232566 4.8351369e-05
4.0218229 2.80984 -2.322268 3 0.10962014 0.057075903 0.99233347 5.1104649e-05
4.0326242 2.8006592 -2.3239791 3 0.10971066 0.056883786 0.99233454 4.9963826e-05
4.0443778 2.7900302 -2.3256905 3 0.10981632 0.056614842 0.99233818 4.8353144e-05
4.0506639 2.7777021 -2.3248351 3 0.10983122 0.056468707 0.99234492 4.7104546e-05
4.0594149 2.7681067 -2.3256905 3 0.10989362 0.056337722 0.99234539 4.4460339e-05
4.0646167 2.7540226 -2.3239791 3 0.10986414 0.05629997 0.99235082 4.3235654e-05
4.0837474 2.7483037 -2.3299687 3 0.11009835 0.056420844 0.99231797 4.874323e-05
4.0864205 2.7345877 -2.3274019 3 0.11013175 0.05639096 0.99231601 4.8941161e-05
4.0945172 2.7224498 -2.3274019 3 0.11020243 0.056146152 0.99232203 5.3291518e-05
4.0995584 2.7082989 -2.3256905 3 0.11025738 0.056046881 0.99232155 5.1542556e-05
4.1086173 2.6978312 -2.3265462 3 0.11056953 0.055993136 0.99228984 4.8313013e-05
4.1170721 2.684911 -2.3265462 3 0.11078931 0.055783879 0.99227709 4.5090044e-05
4.1286368 2.6770744 -2.3291132 3 0.11083596 0.055700522 0.99227661 4.5127959e-05
4.1330581 2.6635749 -2.3274019 3 0.11094771 0.055532482 0.99227357 4.1271051e-05
4.139884 2.6496017 -2.3265462 3 0.11104236 0.055432629 0.9922685 3.6728678e-05
4.1503162 2.6399741 -2.3282576 3 0.11106686 0.055296388 0.99227333 3.1438714e-05
4.1592007 2.6293383 -2.3291132 3 0.11111768 0.055140231 0.99227643 3.5096844e-05
4.1654539 2.6160238 -2.3282576 3 0.11119411 0.054881364 0.99228221 3.6443394e-05
4.1727428 2.604382 -2.3282576 3 0.11123832 0.054819725 0.99228066 3.8395268e-05
4.1835232 2.5938957 -2.3299687 3 0.11128001 0.054645825 0.99228555 3.8278384e-05
4.1927419 2.5824184 -2.3308246 3 0.11131687 0.054495282 0.99228966 3.7963666e-05
4.1977487 2.567348 -2.3291132 3 0.11133129 0.054384623 0.99229413 4.3063726e-05
4.2090893 2.5591679 -2.3316801 3 0.11135211 0.054266974 0.99229819 4.4046697e-05
4.2151175 2.545732 -2.3308246 3 0.11135877 0.054149371 0.99230391 4.5962144e-05
4.2191091 2.5320916 -2.3291132 3 0.11143185 0.053963203 0.99230582 4.252552e-05
4.22927 2.5221503 -2.3308246 3 0.11141402 0.053814773 0.99231589 4.1358202e-05
4.2356162 2.507931 -2.3299687 3 0.1114691 0.053575404 0.99232268 3.9137991e-05
4.2477131 2.4981024 -2.3325357 3 0.11152925 0.053447202 0.99232286 4.4072396e-05
4.2515512 2.4844077 -2.3308246 3 0.11158548 0.053261291 0.9923265 4.5679313e-05
4.2584729 2.4725242 -2.3308246 3 0.11158711 0.053170606 0.99233121 3.9296618e-05
4.2673559 2.4607821 -2.3316801 3 0.11163095 0.052964952 0.99233723 4.2124899e-05
4.2710743 2.4470568 -2.3299687 2 0.11178844 0.052554235 0.99234134 4.1427986e-05
4.275598 2.4318404 -2.3282576 2 0.11181446 0.052315887 0.992351 4.9606184e-05
4.2862477 2.4240563 -2.3308246 2 0.11176077 0.05234253 0.9923557 4.7346013e-05
4.2954187 2.4114623 -2.3316801 2 0.1118363 0.052013334 0.99236453 4.9362388e-05
4.2974 2.3968148 -2.3291132 2 0.11183557 0.051680561 0.99238199 4.9592538e-05
4.3056564 2.3856838 -2.3299687 2 0.11183433 0.051596984 0.9923864 4.5936904e-05
4.3127165 2.3728967 -2.3299687 2 0.11182887 0.051479395 0.99239314 4.1284849e-05
4.3181524 2.3592224 -2.3291132 2 0.11177214 0.051374137 0.99240506 4.421897e-05
4.3263111 2.3480196 -2.3299687 2 0.11179768 0.051243205 0.99240887 4.1593332e-05
4.3348513 2.3360293 -2.3308246 2 0.11174248 0.051141005 0.99242038 4.3394684e-05
4.341764 2.3231559 -2.3308246 2 0.11172835 0.051007789 0.9924289 4.2463453e-05
4.3502326 2.3111145 -2.3316801 2 0.11168579 0.0509126 0.9924385 4.1118565e-05
4.350275 2.2955816 -2.3282576 2 0.11169662 0.050789163 0.99244362 4.7294485e-05
4.3570681 2.2826624 -2.3282576 2 0.11167519 0.050654031 0.99245286 4.5465444e-05
4.3630285 2.2712486 -2.3282576 2 0.11166809 0.050472815 0.99246299 4.3702181e-05
4.3765659 2.26085 -2.3316801 2 0.11162912 0.050361637 0.99247295 4.5637978e-05
4.3748207 2.2444921 -2.3274019 2 0.1115851 0.050128601 0.9924897 4.673544e-05
4.386683 2.2331984 -2.3299687 2 0.11158979 0.049995445 0.99249595 4.192593e-05
4.3892884 2.2200756 -2.3282576 2 0.11157782 0.049847692 0.99250472 4.7061589e-05
4.3974719 2.2078521 -2.3291132 2 0.11158573 0.049614497 0.99251544 4.5489411e-05
4.3971491 2.1923378 -2.3256905 2 0.11153433 0.049298171 0.99253708 4.7762671e-05
4.4064946 2.181653 -2.3274019 2 0.1115717 0.049177308 0.99253887 4.7475434e-05
4.4165711 2.1693935 -2.3291132 2 0.11168415 0.048936069 0.99253815 5.0462229e-05
4.4161129 2.1538827 -2.3256905 2 0.11162218 0.048628941 0.99256015 5.1232244e-05
4.4273653 2.1431341 -2.3282576 2 0.11160744 0.048534267 0.99256653 5.2131003e-05
4.432075 2.1292043 -2.3274019 2 0.11159742 0.048244912 0.99258167 4.8500002e-05
4.4318461 2.1129336 -2.3239791 1 0.11161462 0.047823474 0.99260014 5.0676994e-05
4.441896 2.1044209 -2.3265462 2 0.11167433 0.047688525 0.9925999 4.9275808e-05
4.4501224 2.0912232 -2.3274019 2 0.11175209 0.047412347 0.99260443 4.7786194e-05
4.4526677 2.0772605 -2.3256905 1 0.1117183 0.046908032 0.99263215 5.0509745e-05
4.4640937 2.0655401 -2.3282576 1 0.11173069 0.046635099 0.99264365 4.8989346e-05
4.4665589 2.0515554 -2.3265462 1 0.11173972 0.046293616 0.99265862 4.8487538e-05
4.4689808 2.0375755 -2.3248351 1 0.11179224 0.046046522 0.99266422 4.7955673e-05
4.4763007 2.0258315 -2.3256905 1 0.11190633 0.045703549 0.9926672 4.7247977e-05
4.4819403 2.0133243 -2.3256905 1 0.11188892 0.045556158 0.9926759 4.6253113e-05
4.4964991 2.0029125 -2.3299687 1 0.11204627 0.045263357 0.99267161 4.5856581e-05
4.4938087 1.9866921 -2.3256905 1 0.11191379 0.044814322 0.99270689 4.7725949e-05
4.4993386 1.974136 -2.3256905 1 0.11202373 0.044335596 0.99271601 4.9394486e-05
4.5154643 1.9643189 -2.3308246 1 0.11212894 0.043875445 0.99272454 5.4327436e-05
4.5073147 1.9467572 -2.3239791 1 0.11202785 0.043538347 0.99275082 5.5930399e-05
4.524703 1.9383566 -2.3299687 1 0.11194741 0.043593168 0.9927575 5.5845401e-05
4.5320978 1.9256309 -2.3308246 1 0.11191145 0.043456122 0.99276751 5.5506283e-05
4.5397916 1.9120837 -2.3316801 1 0.11183237 0.043162365 0.99278927 5.8533733e-05
4.5497851 1.9022847 -2.3342471 1 0.11182915 0.043123666 0.9927913 5.9636928e-05
4.5537391 1.8880854 -2.3333917 1 0.11172632 0.042898811 0.99281269 5.7267396e-05
4.5556507 1.8739848 -2.3316801 0 0.1116178 0.042475592 0.99284309 5.703502e-05
4.557518 1.8598902 -2.3299687 0 0.1115619 0.042132284 0.99286395 6.0158411e-05
4.5747471 1.8511047 -2.3359585 0 0.11151935 0.042206082 0.99286556 5.8478541e-05
4.5687947 1.832015 -2.3299687 0 0.11144114 0.041605685 0.99289972 6.2047773e-05
4.5890112 1.8252609 -2.3376698 0 0.11126962 0.041723292 0.99291408 5.703944e-05
4.5890455 1.8104495 -2.3351028 0 0.11119793 0.041522827 0.99293041 5.9409911e-05
4.5930262 1.7953664 -2.3342471 0 0.11106136 0.041141897 0.99296159 5.240718e-05
4.6010809 1.7846438 -2.3359585 0 0.1109466 0.040875003 0.99298549 5.6928136e-05
4.6080441 1.7716317 -2.3368142 0 0.11083801 0.040859163 0.99299824 5.766614e-05
4.6099014 1.7566651 -2.3351028 0 0.11073681 0.040422902 0.99302739 5.8510483e-05
4.6198616 1.7457026 -2.3376698 0 0.1107124 0.040418357 0.99303025 5.8882666e-05
4.6264119 1.7334275 -2.3385253 0 0.11056077 0.040198106 0.99305606 6.034422e-05
4.621666 1.715112 -2.3333917 0 0.1103619 0.039634209 0.99310088 6.305772e-05
4.6414075 1.7086278 -2.3410923 0 0.11035835 0.039785374 0.99309522 5.8947295e-05
4.6447587 1.6942282 -2.3402369 0 0.11023466 0.039378911 0.9931252 6.0901595e-05
4.636457 1.6747159 -2.3333917 0 0.11007304 0.038666867 0.99317104 6.3472449e-05
4.6476321 1.6650113 -2.3368142 0 0.11009758 0.038505416 0.99317467 6.3570886e-05
4.6505599 1.6514198 -2.3359585 0 0.10999064 0.038233694 0.9931969 6.403304e-05
4.677896 1.6445943 -2.3470819 0 0.11013043 0.038174041 0.99318379 6.5792759e-05
4.6841769 1.6321229 -2.3479378 0 0.11004627 0.037925653 0.99320263 7.1855291e-05
4.673902 1.6120905 -2.3402369 0 0.10983105 0.037248828 0.9932521 7.6322125e-05
4.6900792 1.6039439 -2.3462265 0 0.11000922 0.037095707 0.99323815 7.1569899e-05
4.7031002 1.5937424 -2.3505049 0 0.10992521 0.036508963 0.99326909 7.15571e-05
4.7115116 1.5801098 -2.352216 0 0.109891 0.035885293 0.99329561 7.3417235e-05
4.7224941 1.5700494 -2.3556385 0 0.11014426 0.035566397 0.99327898 7.6840683e-05
4.7168288 1.5526402 -2.3505049 0 0.10991663 0.035224326 0.99331641 7.5945463e-05
4.7079329 1.5333343 -2.3436594 0 0.10961737 0.034382481 0.993379 7.7857607e-05
4.7552066 1.5340575 -2.365051 0 0.1104499 0.034399215 0.99328619 7.5802396e-05
4.7456961 1.5163715 -2.3582056 0 0.11011922 0.033547275 0.99335206 8.1280057e-05
