# .PCD v0.7 - Point Cloud Data file format
VERSION 0.7
FIELDS x y z intensity normal_x normal_y normal_z curvature
SIZE 4 4 4 4 4 4 4 4
TYPE F F F F F F F F
COUNT 1 1 1 1 1 1 1 1
WIDTH 344
HEIGHT 1
VIEWPOINT 0 0 0 1 0 0 0
POINTS 344
DATA ascii
-4.4461832 -3.9795375 -1.1242436 42 0.12550946 -0.022764545 0.99183124 0.0010815421
-4.4821601 -3.9864495 -1.1301684 42 0.12546419 -0.022446603 0.99184412 0.001080681
-4.4969974 -3.9786081 -1.1312793 42 0.12525737 -0.022247225 0.99187481 0.0010924827
-4.5117345 -3.9678433 -1.13202 25 0.12546746 -0.021424614 0.99186635 0.0010695847
-4.5094819 -3.9435842 -1.1286873 20 0.12428296 -0.022105627 0.99200052 0.0010553919
-4.5129471 -3.9216635 -1.1264654 15 0.12363946 -0.021418799 0.99209601 0.0010171328
-4.5149584 -3.9013352 -1.1242436 15 0.12356762 -0.021571737 0.99210167 0.0010164584
-4.5205498 -3.8827991 -1.1227623 15 0.12268882 -0.020825921 0.99222666 0.00097460416
-4.5239034 -3.8637781 -1.1209109 15 0.12244367 -0.020276647 0.99226832 0.0009463983
-4.5316792 -3.8485849 -1.1201702 15 0.1223735 -0.020597087 0.99227035 0.00092356582
-4.5377383 -3.8292599 -1.1186891 15 0.12365108 -0.020628752 0.99211133 0.00083052833
-4.5447364 -3.8148406 -1.1179484 15 0.12388087 -0.020627471 0.99208272 0.00084411545
-4.5446248 -3.7904718 -1.1149859 15 0.12158424 -0.021211717 0.99235439 0.00077250402
-4.5551925 -3.7777658 -1.1149859 15 0.12151092 -0.020948965 0.992369 0.00076159945
-4.5587978 -3.7579832 -1.1131344 14 0.12180484 -0.020424806 0.9923439 0.00076725171
-4.562541 -3.7410517 -1.1116532 14 0.1212793 -0.019329051 0.99243021 0.00074484915
-4.5727482 -3.7254567 -1.1112829 15 0.12175196 -0.019184953 0.99237514 0.00072828983
-4.572443 -3.7040138 -1.1086909 14 0.12228646 -0.018230792 0.99232739 0.00070994231
-4.5635123 -3.6744068 -1.1038768 19 0.12276965 -0.017664965 0.99227792 0.0006896875
-4.5731163 -3.6624463 -1.1038768 25 0.12273438 -0.01700988 0.99229378 0.00068411772
-4.5778112 -3.6439662 -1.1023957 25 0.12298657 -0.017402243 0.99225569 0.00068261399
-4.5839791 -3.6267092 -1.1012847 23 0.12308909 -0.01696782 0.99225056 0.0006667932
-4.5869946 -3.6070173 -1.0994332 23 0.12311666 -0.016172159 0.9922604 0.00065630738
-4.5939522 -3.5917735 -1.0986927 20 0.12291031 -0.015802367 0.99229199 0.0006446747
-4.6083188 -3.5797334 -1.0994332 14 0.12268433 -0.015377067 0.99232662 0.00063185109
-4.6167417 -3.5656502 -1.0990629 14 0.12291119 -0.014515197 0.99231154 0.0006177391
-4.618886 -3.5467584 -1.0972114 11 0.12342832 -0.013784587 0.99225771 0.00060389331
-4.6247015 -3.5294619 -1.0961004 12 0.12338803 -0.012311853 0.99228215 0.00057201035
-4.6298432 -3.5129695 -1.0949897 12 0.12427037 -0.012443169 0.99217033 0.00051114487
-4.6355386 -3.4956667 -1.0938786 12 0.12396877 -0.011035681 0.99222475 0.00047557143
-4.6427441 -3.4795396 -1.0931381 11 0.12424418 -0.010649404 0.99219453 0.00043064557
-4.6429858 -3.4595156 -1.0909162 12 0.12413847 -0.0098449094 0.99221611 0.00041403653
-4.6488695 -3.445008 -1.0901756 11 0.12435027 -0.0095052235 0.99219286 0.00040310956
-4.6565037 -3.4280553 -1.089435 11 0.12439725 -0.0089273816 0.99219239 0.0003970665
-4.6628866 -3.4127166 -1.0886943 12 0.12526149 -0.0092431242 0.99208075 0.00036897315
-4.6666341 -3.394242 -1.0872132 11 0.12582472 -0.0093864584 0.99200809 0.00033998286
-4.6734986 -3.3780794 -1.0864726 11 0.12606706 -0.0096884947 0.99197441 0.00031811977
-4.6813178 -3.363868 -1.0861022 11 0.1259028 -0.0097809257 0.99199432 0.00031352986
-4.6826959 -3.3450706 -1.0842508 11 0.12690611 -0.010565806 0.99185848 0.00027392706
-4.689395 -3.3288863 -1.0835102 10 0.1270735 -0.010773404 0.99183476 0.00025636074
-4.6944337 -3.311559 -1.0823992 10 0.12744987 -0.011171791 0.99178207 0.00023885549
-4.7026296 -3.2964876 -1.082029 9 0.12746212 -0.011247354 0.99177963 0.00023717449
-4.7037535 -3.2777247 -1.0801773 9 0.12778486 -0.011432383 0.99173599 0.00022827179
-4.7145042 -3.2656958 -1.0805477 9 0.12809376 -0.011640869 0.99169368 0.00021859551
-4.719883 -3.2475262 -1.0794368 9 0.12825464 -0.01205699 0.99166793 0.00021280276
-4.7224436 -3.2298956 -1.0779556 11 0.12856682 -0.012682312 0.99161971 0.00020321258
-4.7298198 -3.21559 -1.0775852 12 0.12852836 -0.013732215 0.99161071 0.0001621416
-4.7301254 -3.1941154 -1.0753634 11 0.12873033 -0.013924334 0.99158192 0.00015787128
-4.7401037 -3.1828163 -1.0757338 10 0.12915108 -0.014747878 0.99151522 0.0001294269
-4.7446208 -3.1654665 -1.0746229 9 0.12944122 -0.015301098 0.99146903 0.00010888335
-4.7479897 -3.1462016 -1.0731417 9 0.12967944 -0.015725233 0.99143124 9.6116069e-05
-4.7523804 -3.1324277 -1.072401 9 0.12968412 -0.015658207 0.99143171 9.6033473e-05
-4.7589087 -3.1153293 -1.0716604 9 0.13006009 -0.016644176 0.99136633 6.8053327e-05
-4.7664833 -3.1001248 -1.0712901 10 0.13006657 -0.016538974 0.99136728 6.8128975e-05
-4.7663312 -3.082299 -1.0694386 9 0.13023193 -0.017028382 0.9913373 5.3982421e-05
-4.7721486 -3.0660183 -1.0686979 8 0.13040163 -0.017410947 0.99130833 4.0559175e-05
-4.7767863 -3.0478404 -1.067587 8 0.13072743 -0.01809201 0.99125326 1.856637e-05
-4.7864094 -3.0363755 -1.0679573 8 0.13090947 -0.018710658 0.99121773 7.9574947e-06
-4.7920718 -3.0200658 -1.0672168 8 0.13091092 -0.018606324 0.99121952 6.4095825e-06
-4.7965379 -3.0018678 -1.0661058 8 0.13094208 -0.018480329 0.99121785 6.8387285e-06
-4.8005209 -2.9880624 -1.0653652 9 0.13101242 -0.018410584 0.99120975 7.1039958e-06
-4.8082132 -2.9719315 -1.0649949 8 0.13106351 -0.018336337 0.99120438 4.5610059e-06
-4.8086348 -2.9525113 -1.0631434 8 0.1310858 -0.018271908 0.99120259 5.4531588e-06
-4.8129926 -2.937865 -1.0624028 8 0.13112128 -0.018135658 0.99120045 4.8155139e-06
-4.8137956 -2.917635 -1.0605513 8 0.13122055 -0.018009685 0.9911896 3.914804e-06
-4.8224306 -2.9033401 -1.0605513 8 0.13118818 -0.017925862 0.99119538 3.9608258e-06
-4.8283286 -2.8896952 -1.060181 8 0.13118745 -0.0178048 0.99119765 5.5618716e-06
-4.8330007 -2.8741913 -1.0594404 8 0.13121934 -0.017727742 0.9911949 7.0187325e-06
-4.8335447 -2.8539972 -1.0575888 9 0.13126713 -0.017690359 0.99118912 6.3956145e-06
-4.8364096 -2.8375051 -1.0564779 7 0.13129011 -0.017661473 0.99118668 6.0662119e-06
-4.8482037 -2.8251214 -1.0572184 8 0.13128382 -0.017651722 0.99118763 7.898876e-06
-4.8531628 -2.8087549 -1.0564779 9 0.13129586 -0.017595401 0.9911871 7.466896e-06
-4.8502774 -2.7901607 -1.0542561 8 0.13131709 -0.01756721 0.99118477 6.2474001e-06
-4.8602409 -2.776732 -1.0546263 8 0.13132113 -0.017593123 0.99118376 7.6247779e-06
-4.8633304 -2.7593889 -1.0535154 8 0.13133551 -0.017566342 0.99118233 6.0280686e-06
-4.8573203 -2.738076 -1.0505531 7 0.13135436 -0.017534649 0.99118036 7.0996475e-06
-4.869328 -2.7247233 -1.0512937 8 0.13137223 -0.017462486 0.99117935 7.2767593e-06
-4.8751998 -2.7101593 -1.0509233 7 0.13137005 -0.017572058 0.99117762 7.63561e-06
-4.8810291 -2.6955845 -1.0505531 8 0.13138364 -0.01755536 0.99117613 6.1340934e-06
-4.8791323 -2.6745694 -1.0483313 7 0.13135554 -0.017606555 0.99117899 6.9275234e-06
-4.8878431 -2.6627262 -1.0487015 8 0.13138252 -0.017651957 0.99117458 6.9417879e-06
-4.8905368 -2.6454067 -1.0475906 8 0.13143216 -0.017717164 0.99116689 5.8770747e-06
-4.8966322 -2.6299541 -1.0472203 8 0.13148956 -0.01775793 0.99115849 6.3810712e-06
-4.8952875 -2.611644 -1.0453688 8 0.13157369 -0.017759591 0.99114734 5.4814832e-06
-4.900825 -2.597043 -1.0449984 7 0.13160336 -0.017795553 0.99114263 4.6136806e-06
-4.9072194 -2.5807199 -1.0446281 8 0.13165183 -0.017764335 0.99113691 5.9541708e-06
-4.9087338 -2.5651329 -1.0435172 7 0.13166854 -0.017760003 0.99113476 6.5384279e-06
-4.9145784 -2.5496516 -1.043147 8 0.13171406 -0.017767724 0.9911285 5.3874737e-06
-4.9133849 -2.53056 -1.0412954 8 0.1317379 -0.017769011 0.99112529 5.8302312e-06
-4.9204321 -2.516829 -1.0412954 9 0.131716 -0.017753901 0.9911285 7.6921078e-06
-4.9226208 -2.4995487 -1.0401845 7 0.13173188 -0.017759662 0.9911263 6.9154462e-06
-4.9282608 -2.4840472 -1.0398142 8 0.13170537 -0.017757246 0.99112993 6.7619917e-06
-4.9281483 -2.4667561 -1.0383331 7 0.13169773 -0.01774752 0.99113107 9.142972e-06
-4.9336853 -2.4512494 -1.0379628 8 0.1317279 -0.017728079 0.99112743 8.2211154e-06
-4.9374108 -2.4348612 -1.0372221 8 0.13169034 -0.017679023 0.99113321 9.6471003e-06
-4.9384732 -2.4193337 -1.0361112 8 0.13172445 -0.017619548 0.99112982 8.0780155e-06
-4.939908 -2.4029539 -1.0350002 8 0.13174173 -0.017603118 0.99112779 1.0020124e-05
-4.945662 -2.3865697 -1.0346299 8 0.13171847 -0.017577898 0.99113131 1.189226e-05
-4.9505353 -2.3719001 -1.0342597 8 0.13185459 -0.017518556 0.99111432 1.0854506e-05
-4.9522262 -2.3546686 -1.0331488 8 0.13178664 -0.017493969 0.9911238 1.237076e-05
-4.9520798 -2.3366108 -1.0316675 9 0.13177006 -0.017484628 0.99112606 1.0903738e-05
-4.9621458 -2.3244402 -1.0324081 8 0.13202931 -0.017440742 0.99109232 9.9386652e-06
-4.9650531 -2.3089161 -1.0316675 8 0.13200343 -0.017433966 0.9910959 1.0134924e-05
-4.9700975 -2.2933509 -1.0312972 9 0.13210663 -0.017367421 0.99108332 1.003493e-05
-4.9697328 -2.2753212 -1.029816 8 0.13206741 -0.017323416 0.99108934 1.0155748e-05
-4.9693036 -2.2573152 -1.0283349 8 0.13207875 -0.017281592 0.99108857 1.0084632e-05
-4.9737959 -2.2426212 -1.0279645 8 0.13216391 -0.017201977 0.99107867 8.133974e-06
-4.9746575 -2.2263143 -1.0268537 8 0.13228691 -0.01712767 0.99106354 9.2045866e-06
-4.9808555 -2.2124133 -1.0268537 8 0.13236848 -0.017112462 0.99105287 9.7044458e-06
-4.9823852 -2.1943791 -1.0257427 7 0.13243112 -0.01702641 0.99104595 9.4321358e-06
-4.9848914 -2.1788824 -1.0250021 7 0.13241358 -0.016903087 0.99105036 8.5799838e-06
-4.9881053 -2.1616478 -1.0242615 8 0.13241902 -0.016814394 0.9910512 8.6035243e-06
-4.9901371 -2.1470275 -1.0235208 7 0.13242735 -0.01669899 0.99105203 9.8193104e-06
-4.9946775 -2.1314404 -1.0231506 8 0.13242659 -0.016622534 0.9910534 1.0303822e-05
-4.9959188 -2.1134427 -1.0220397 7 0.13238439 -0.016436214 0.99106222 9.4549669e-06
-4.9974432 -2.0997069 -1.021299 7 0.13234748 -0.016291477 0.9910695 1.0709882e-05
-5.0003867 -2.0824838 -1.0205584 7 0.13237588 -0.01607826 0.9910692 1.1439561e-05
-5.0047264 -2.0668888 -1.0201881 7 0.13238584 -0.015951263 0.99106991 1.1166554e-05
-5.0064836 -2.0522881 -1.0194474 7 0.13241988 -0.015728638 0.9910689 9.8282171e-06
-5.0143714 -2.0381658 -1.0198178 8 0.13239869 -0.015547219 0.99107462 1.0450349e-05
-5.0134583 -2.0194638 -1.0183367 7 0.13232514 -0.015295484 0.99108839 1.024107e-05
-5.0169024 -2.0056028 -1.0179663 7 0.13228151 -0.01504321 0.99109805 1.1175663e-05
-5.0173488 -1.988537 -1.0168554 8 0.13226864 -0.014819355 0.99110311 1.2349891e-05
-5.021399 -1.9729213 -1.0164851 8 0.13226432 -0.01458406 0.99110717 1.2714894e-05
-5.0247149 -1.9590553 -1.0161148 8 0.13224454 -0.01438183 0.99111277 1.3576708e-05
-5.0231729 -1.941304 -1.0146335 8 0.13225029 -0.013988686 0.9911176 1.4956969e-05
-5.0310822 -1.9262161 -1.0150039 8 0.1322456 -0.013744866 0.99112165 1.5406331e-05
-5.0324335 -1.9116417 -1.0142633 8 0.13224369 -0.013442076 0.99112612 1.5448672e-05
-5.0377522 -1.8975809 -1.0142633 7 0.13220347 -0.01310925 0.9911359 1.6386766e-05
-5.0384922 -1.8788042 -1.0131524 8 0.13215551 -0.012767568 0.99114674 1.6700711e-05
-5.0433931 -1.8656079 -1.0131524 8 0.13208954 -0.012482887 0.99115914 1.8360544e-05
-5.0448928 -1.8501631 -1.0124117 7 0.13208491 -0.012141466 0.99116403 1.7157907e-05
-5.0432906 -1.831622 -1.0109304 8 0.13199979 -0.011597602 0.99118191 1.8815452e-05
-5.0480685 -1.8184121 -1.0109304 8 0.13196725 -0.011196128 0.99119085 2.0964962e-05
-5.0519056 -1.8018837 -1.0105602 7 0.1319005 -0.010783371 0.99120432 2.4423394e-05
-5.0535235 -1.785578 -1.0098196 8 0.13174097 -0.010282112 0.99123091 2.6126678e-05
-5.0600357 -1.77299 -1.0101899 8 0.13179468 -0.0099159507 0.99122745 2.6248796e-05
-5.0597034 -1.7560365 -1.009079 7 0.13185087 -0.0095814057 0.99122328 2.9034389e-05
-5.057457 -1.7384604 -1.0075978 8 0.13170364 -0.0089939712 0.99124831 3.0444482e-05
-5.0604315 -1.7236965 -1.0072274 8 0.13172808 -0.008507072 0.99124944 3.2546614e-05
-5.0620966 -1.7065355 -1.0064869 8 0.13160707 -0.0078576775 0.99127084 3.7469174e-05
-5.0668426 -1.6923925 -1.0064869 7 0.13154094 -0.0074364152 0.99128288 3.8334791e-05
-5.0659509 -1.6763837 -1.005376 7 0.13148491 -0.0068959584 0.99129415 4.3980202e-05
-5.0668769 -1.6610068 -1.0046353 7 0.13138013 -0.0063164057 0.99131197 4.6980673e-05
-5.0699134 -1.64536 -1.0042651 7 0.13127583 -0.0057047526 0.99132949 5.0402738e-05
-5.0688748 -1.629391 -1.0031542 8 0.13114944 -0.0052147885 0.99134886 5.3899927e-05
-5.0758424 -1.6140528 -1.0035244 7 0.13130088 -0.0045932489 0.99133193 5.7732257e-05
-5.0763016 -1.5995783 -1.0027838 7 0.13113205 -0.0041119857 0.99135643 6.1373677e-05
-5.0810251 -1.5845093 -1.0027838 7 0.13108961 -0.0035115173 0.9913643 6.3934604e-05
-5.0800695 -1.5676888 -1.0016729 7 0.13097349 -0.0027183094 0.99138212 6.7033739e-05
-5.0828195 -1.5520347 -1.0013026 7 0.13092971 -0.002176607 0.99138921 6.8816953e-05
-5.0890145 -1.5384032 -1.0016729 7 0.13082804 -0.0015248706 0.99140394 6.9067217e-05
-5.0860243 -1.5210453 -1.0001917 7 0.13068087 -0.00085135183 0.99142408 7.2258605e-05
-5.0975275 -1.5099561 -1.0016729 7 0.1306299 -0.00031123779 0.99143112 7.5266544e-05
-5.0965872 -1.4922786 -1.000562 7 0.13060708 0.00040579861 0.9914341 7.8219826e-05
-5.0953293 -1.4755098 -0.9994511 7 0.13045402 0.0010096526 0.99145389 8.2331557e-05
-5.1034627 -1.4614682 -1.0001917 7 0.13029043 0.0019355901 0.99147403 8.4461863e-05
-5.1034904 -1.4470285 -0.9994511 7 0.13022269 0.0023691517 0.9914819 8.7613254e-05
-5.1001911 -1.4297585 -0.99796987 7 0.12985389 0.0032760184 0.99152774 9.0234396e-05
-5.1041641 -1.4155104 -0.99796987 7 0.12988067 0.0040327054 0.99152142 9.1501097e-05
-5.1083417 -1.4003594 -0.99796987 7 0.1299113 0.0047478848 0.99151427 9.3262577e-05
-5.1010914 -1.3821135 -0.99574804 7 0.12892477 0.005281982 0.99164027 9.5578733e-05
-5.1127644 -1.3690053 -0.99722922 7 0.12956759 0.0061787572 0.99155134 0.0001000404
-5.1127677 -1.3537161 -0.99648869 7 0.12937087 0.0068411655 0.99157268 0.00010182727
-5.1148596 -1.3380423 -0.99611831 7 0.12907423 0.0075192619 0.99160641 0.00010614903
-5.112637 -1.3231707 -0.9950074 7 0.12863573 0.0083740298 0.99165654 0.00010877226
-5.1167688 -1.3071021 -0.9950074 8 0.12854405 0.009264864 0.99166048 0.00011115904
-5.1242108 -1.2937702 -0.99574804 8 0.1289226 0.010155432 0.99160266 0.00011320391
-5.1220822 -1.2780291 -0.99463713 7 0.12853126 0.010591347 0.99164891 0.0001139602
-5.1279802 -1.2624009 -0.9950074 7 0.12856825 0.011784822 0.99163067 0.00011939406
-5.1257563 -1.246682 -0.99389648 7 0.12792341 0.012397175 0.99170661 0.00012145045
-5.1294327 -1.231468 -0.99389648 7 0.12798052 0.013315144 0.9916873 0.00012558089
-5.1309395 -1.2166853 -0.99352622 7 0.12765819 0.013862398 0.99172133 0.00012668689
-5.1341071 -1.2032491 -0.99352622 7 0.12761377 0.014716343 0.99171478 0.0001278217
-5.1397762 -1.1875573 -0.99389648 7 0.12788607 0.015623138 0.99166584 0.00013051054
-5.1413617 -1.1718639 -0.99352622 7 0.12760071 0.016462972 0.99168897 0.00013083425
-5.1463289 -1.1588323 -0.99389648 7 0.12768728 0.017350497 0.99166268 0.00013331509
-5.1499443 -1.1426587 -0.99389648 7 0.12756468 0.017989257 0.99166709 0.00013245645
-5.1529179 -1.1291718 -0.99389648 7 0.1273281 0.018703599 0.99168432 0.00013488255
-5.1524038 -1.1130476 -0.9931559 7 0.12681659 0.019531753 0.99173385 0.00013766429
-5.155683 -1.0977561 -0.9931559 7 0.12692511 0.02055735 0.99169928 0.00013590105
-5.1589179 -1.0824538 -0.9931559 7 0.12667739 0.021303214 0.99171519 0.00013796333
-5.159996 -1.0676447 -0.99278563 7 0.12625046 0.022262339 0.99174857 0.0001394627
-5.1669927 -1.053116 -0.99352622 7 0.12666503 0.023053104 0.99167758 0.00013616683
-5.1699133 -1.0386825 -0.99352622 7 0.12639654 0.023864765 0.99169266 0.00013805143
-5.1727939 -1.024241 -0.99352622 7 0.12611242 0.024728835 0.99170768 0.0001389622
-5.1701984 -1.0068578 -0.99241525 7 0.12492695 0.02555003 0.99183685 0.00013801058
-5.1787806 -0.99352658 -0.99352622 7 0.12562335 0.026819687 0.99171543 0.00013548115
-5.1796041 -0.97869551 -0.9931559 7 0.12514485 0.027159145 0.99176669 0.00013567183
-5.1861806 -0.96494865 -0.99389648 8 0.12535688 0.028339943 0.99170685 0.0001319313
-5.1832213 -0.94849515 -0.99278563 7 0.12406316 0.02893492 0.99185234 0.00013152466
-5.1898818 -0.9338066 -0.99352622 7 0.12454862 0.029893495 0.99176306 0.00012843707
-5.1964998 -0.91908938 -0.99426681 7 0.12473659 0.030689968 0.99171519 0.00012543972
-5.1990461 -0.90457535 -0.99426681 7 0.12448783 0.031490389 0.99172127 0.00012332169
-5.1997695 -0.88881266 -0.99389648 8 0.12401519 0.032360479 0.99175251 0.00012040381
-5.2020788 -0.87519753 -0.99389648 7 0.12372328 0.032980785 0.99176854 0.00011651807
-5.2067423 -0.8591702 -0.99426681 7 0.12372755 0.033907946 0.99173671 0.00011056128
-5.2091212 -0.8446278 -0.99426681 8 0.12355733 0.034635376 0.99173284 0.00010889639
-5.2136898 -0.82856566 -0.99463713 7 0.12344081 0.03543761 0.99171895 0.00010511494
-5.2159834 -0.81400394 -0.99463713 7 0.1232866 0.036102977 0.99171418 0.00010245369
-5.210465 -0.79824412 -0.9931559 10 0.12233788 0.036430933 0.99181968 9.9945486e-05
-5.2185049 -0.78456694 -0.99426681 10 0.1225978 0.037408981 0.99175119 9.4645882e-05
-5.2266431 -0.76994008 -0.99537778 7 0.12293524 0.038138933 0.99168158 9.1744638e-05
-5.2308497 -0.75470942 -0.99574804 7 0.12289245 0.038729701 0.99166399 8.9341935e-05
-5.2370872 -0.73882133 -0.99648869 8 0.12278251 0.039729726 0.991638 8.4590574e-05
-5.2447176 -0.7268315 -0.9975996 7 0.12267844 0.039996833 0.99164015 8.2334023e-05
-5.2411318 -0.70956111 -0.99648869 7 0.12237898 0.0408164 0.99164379 7.6696859e-05
-5.2507648 -0.69687134 -0.99796987 7 0.12241521 0.041256152 0.99162114 7.6512551e-05
-5.2547584 -0.68154138 -0.99834013 7 0.12229526 0.041910496 0.99160844 7.0117239e-05
-5.2567573 -0.6659469 -0.99834013 7 0.12215299 0.042476013 0.99160194 6.7837493e-05
-5.2568731 -0.64918917 -0.99796987 8 0.12202068 0.043027561 0.99159443 6.5635635e-05
-5.2644086 -0.63613141 -0.99908078 7 0.12193081 0.043538198 0.99158323 5.9999642e-05
-5.2682247 -0.62073851 -0.9994511 7 0.12179606 0.044155363 0.99157256 5.6038509e-05
-5.2640796 -0.60535043 -0.99834013 7 0.1215181 0.044628907 0.99158537 5.4191736e-05
-5.2698622 -0.5892477 -0.99908078 7 0.12152328 0.045177162 0.99155992 5.0880171e-05
-5.2772479 -0.57608992 -1.0001917 7 0.12136866 0.045645487 0.99155748 4.5760571e-05
-5.2790318 -0.55950665 -1.0001917 8 0.12122188 0.046104543 0.99155414 4.3450669e-05
-5.2804785 -0.54568505 -1.0001917 7 0.12109667 0.046608366 0.99154592 4.0295905e-05
-5.282074 -0.53001493 -1.0001917 7 0.12097053 0.047044348 0.99154067 3.7722912e-05
-5.291358 -0.51602525 -1.0016729 7 0.12093428 0.047512282 0.99152279 3.5902085e-05
-5.2968664 -0.49976835 -1.0024135 7 0.12085955 0.04793293 0.9915117 3.3913369e-05
-5.2962842 -0.48479658 -1.0020432 7 0.12075929 0.04818115 0.99151182 3.2740292e-05
-5.2996569 -0.46925303 -1.0024135 7 0.1207397 0.048653822 0.9914912 2.956635e-05
-5.3067422 -0.45588127 -1.0035244 7 0.12060994 0.04904044 0.99148792 2.7456195e-05
-5.3042307 -0.43888432 -1.0027838 7 0.12056483 0.049251147 0.99148297 2.5702793e-05
-5.3113875 -0.42361161 -1.0038948 7 0.12046997 0.049615063 0.99147636 2.1843483e-05
-5.3145094 -0.40892947 -1.0042651 8 0.12043368 0.049933404 0.99146479 2.0853244e-05
-5.321579 -0.39359507 -1.005376 8 0.1203773 0.050177976 0.99145925 1.904232e-05
-5.3246183 -0.37887204 -1.0057462 8 0.12029834 0.050426148 0.99145627 1.7258753e-05
-5.3296409 -0.36333898 -1.0064869 7 0.12022832 0.050738867 0.99144882 1.7051647e-05
-5.334496 -0.34964144 -1.0072274 7 0.12017886 0.05088013 0.99144757 1.5477613e-05
-5.3394914 -0.33312672 -1.0079681 8 0.12011892 0.051061869 0.99144548 1.5243436e-05
-5.3423624 -0.31833127 -1.0083383 8 0.12010853 0.051266182 0.99143618 1.5061052e-05
-5.347208 -0.30270064 -1.009079 7 0.12006409 0.051520079 0.99142843 1.1994203e-05
-5.3460202 -0.28859431 -1.0087087 8 0.12002595 0.051582329 0.99142981 1.201881e-05
-5.3469005 -0.27179763 -1.0087087 8 0.12000445 0.051785689 0.99142182 1.1109068e-05
-5.3515639 -0.25705469 -1.0094492 8 0.11999764 0.051924977 0.99141532 1.0607967e-05
-5.3601151 -0.2424642 -1.0109304 8 0.12002332 0.05210935 0.99140257 1.0952408e-05
-5.364738 -0.22672504 -1.0116711 8 0.12003342 0.05223253 0.99139488 1.1404904e-05
-5.3634233 -0.21072909 -1.0113008 8 0.11997616 0.052307837 0.9913978 9.5996393e-06
-5.3737769 -0.19704792 -1.0131524 8 0.11998814 0.052349888 0.9913941 1.0374109e-05
-5.3724055 -0.18009865 -1.012782 8 0.1199801 0.052433353 0.99139071 1.0654747e-05
-5.3768167 -0.16521703 -1.0135226 8 0.11999843 0.052475754 0.99138629 1.0767944e-05
-5.381186 -0.15031087 -1.0142633 8 0.12003815 0.052526787 0.99137872 9.4386533e-06
-5.3777027 -0.133307 -1.0135226 8 0.12008962 0.052616347 0.99136776 9.2292703e-06
-5.3820038 -0.11743589 -1.0142633 8 0.12011256 0.052636005 0.99136394 9.5009236e-06
-5.3862233 -0.10342177 -1.0150039 8 0.12012571 0.052622076 0.99136305 1.2133237e-05
-5.3884711 -0.087471664 -1.0153742 8 0.12016483 0.052647255 0.99135697 1.0847996e-05
-5.3946033 -0.071561277 -1.0164851 8 0.12021475 0.052667685 0.99134988 9.8601886e-06
-5.3967662 -0.054632936 -1.0168554 8 0.12025312 0.052693609 0.9913438 1.0969987e-05
-5.3988566 -0.040519673 -1.0172257 8 0.12027757 0.052754588 0.99133766 9.4495372e-06
-5.4028835 -0.024518304 -1.0179663 8 0.12029145 0.052751075 0.99133611 9.8749906e-06
-5.4088254 -0.010384402 -1.0190772 7 0.12038375 0.052718855 0.99132669 1.1649341e-05
-5.4049006 0.0066021206 -1.0183367 8 0.12047186 0.052743334 0.99131459 1.0846539e-05
-5.4107533 0.022663746 -1.0194474 8 0.1205659 0.052791722 0.99130064 1.0855108e-05
-5.4086967 0.038703915 -1.0190772 9 0.12064269 0.052759834 0.99129301 1.1875046e-05
-5.4124985 0.05384716 -1.0198178 8 0.12079929 0.052727148 0.99127567 1.2655861e-05
-5.4182224 0.069036976 -1.0209287 8 0.12085135 0.052665792 0.99127251 1.2736799e-05
-5.4219241 0.085173607 -1.0216693 8 0.12096052 0.052624255 0.99126142 1.095587e-05
-5.4177527 0.099296272 -1.0209287 8 0.12102229 0.052605275 0.99125493 1.0581075e-05
-5.4193788 0.11635859 -1.021299 10 0.12117039 0.052533131 0.99124062 1.2156474e-05
-5.4209976 0.13153991 -1.0216693 8 0.12125479 0.052425265 0.99123603 1.1252417e-05
-5.4245129 0.14772978 -1.0224099 9 0.12133849 0.05231791 0.99123144 9.9608851e-06
-5.4241076 0.16193104 -1.0224099 9 0.121475 0.052268084 0.99121737 1.1804264e-05
-5.4294338 0.18011285 -1.0235208 8 0.12156849 0.052160028 0.99121159 1.0956336e-05
-5.4289436 0.19432688 -1.0235208 8 0.12169846 0.052075904 0.99120009 1.14343e-05
-5.4323077 0.20963722 -1.0242615 8 0.12177425 0.05199223 0.99119514 1.3398299e-05
-5.4355502 0.22686647 -1.0250021 9 0.12190643 0.051889189 0.99118435 1.1399655e-05
-5.4348955 0.24204487 -1.0250021 8 0.12210026 0.051842622 0.9911629 1.1701081e-05
-5.436161 0.25731298 -1.0253724 9 0.12216429 0.051829223 0.99115574 1.0496613e-05
-5.4392996 0.27363905 -1.026113 9 0.12229057 0.051698755 0.99114698 1.0402981e-05
-5.4424396 0.28903624 -1.0268537 9 0.12231343 0.051682752 0.99114501 9.5379473e-06
-5.4415584 0.30518201 -1.0268537 9 0.12256323 0.05158972 0.99111891 7.7790573e-06
-5.4524007 0.32202163 -1.0290754 9 0.1225007 0.051450558 0.99113393 8.8958977e-06
-5.4494596 0.33807772 -1.0287051 9 0.12270564 0.051371094 0.99111265 1.0346987e-05
-5.4544396 0.35272285 -1.029816 9 0.12275551 0.051272776 0.99111164 1.0877116e-05
-5.4611483 0.37038764 -1.0312972 9 0.12280959 0.051152177 0.9911111 8.7103062e-06
-5.456172 0.38536006 -1.0305567 10 0.12311566 0.051048163 0.9910785 1.1455057e-05
-5.4609542 0.4010272 -1.0316675 9 0.12318294 0.05084059 0.99108082 1.1153214e-05
-5.4597406 0.41722873 -1.0316675 9 0.12344401 0.050643947 0.99105835 1.4188113e-05
-5.4605141 0.43262917 -1.0320379 9 0.12357909 0.050368357 0.99105567 1.785635e-05
-5.4670415 0.4494721 -1.033519 9 0.12383825 0.049900003 0.99104691 2.3609748e-05
-5.4676418 0.46585831 -1.0338893 9 0.12403293 0.049704559 0.99103242 2.3941133e-05
-5.4682779 0.48129776 -1.0342597 8 0.12412481 0.049666252 0.99102288 2.1623016e-05
-5.466826 0.49751934 -1.0342597 8 0.12424736 0.049610768 0.99101031 2.1989532e-05
-5.4751091 0.5146575 -1.0361112 9 0.12412686 0.049557794 0.99102801 2.1991504e-05
-5.4735579 0.53090048 -1.0361112 9 0.12426884 0.048513331 0.99106193 6.0632523e-05
-5.4741054 0.54542375 -1.0364815 9 0.1243367 0.048506819 0.9910537 6.0460065e-05
-5.4762745 0.56301934 -1.0372221 9 0.12420925 0.047100049 0.99113756 0.00013050385
-5.4766355 0.57851666 -1.0375924 8 0.12415503 0.047093567 0.9911446 0.00013185111
-5.474895 0.59476393 -1.0375924 7 0.12412462 0.046321012 0.99118489 0.00016240792
-5.4770131 0.61144084 -1.0383331 7 0.12422902 0.043953754 0.99127954 0.0003849307
-5.4830947 0.62762755 -1.0398142 10 0.12428734 0.042043038 0.99135518 0.00059964025
-5.4832726 0.64316607 -1.0401845 10 0.12446543 0.039868057 0.99142259 0.00081147312
-5.4851274 0.66085953 -1.0409251 10 0.1241646 0.039909553 0.99145865 0.00082009082
-5.4873981 0.67473924 -1.0416658 8 0.12423684 0.039615687 0.9914614 0.00082916417
-5.4852509 0.69197655 -1.0416658 9 0.12433836 0.039375782 0.99145836 0.00083528791
-5.4890223 0.70900291 -1.0427767 10 0.12450354 0.039237428 0.99144298 0.00085306412
-5.4871473 0.72336984 -1.0427767 10 0.12445763 0.038611438 0.99147344 0.00086140935
-5.4887424 0.7411322 -1.0435172 10 0.12399756 0.039399572 0.99149996 0.0009008692
-5.4885988 0.75672436 -1.0438876 10 0.12318335 0.040882878 0.99154139 0.00095264975
-5.4923029 0.7728703 -1.0449984 10 0.12313474 0.041732427 0.99151206 0.00098127779
-5.491931 0.78944159 -1.0453688 9 0.1222585 0.043076806 0.99156302 0.0010298358
-5.4992867 0.80716032 -1.0472203 10 0.1224191 0.043522403 0.99152374 0.0010641435
-5.4932675 0.82097411 -1.0464797 10 0.12146093 0.044591911 0.99159402 0.0010941378
-5.4964905 0.83911645 -1.0475906 10 0.12058632 0.046185717 0.99162787 0.0011477128
-5.4999514 0.85536867 -1.0487015 10 0.1209593 0.04711302 0.99153882 0.0011877817
-5.4975414 0.87072444 -1.0487015 10 0.12065119 0.048446253 0.99151206 0.0012217934
-5.4988146 0.88765895 -1.0494422 10 0.1209556 0.049401861 0.9914279 0.0012578082
-5.498096 0.90428966 -1.0498124 10 0.12100688 0.049965482 0.99139333 0.0012835946
-5.5052414 0.92126203 -1.051664 10 0.12040845 0.05172414 0.99137598 0.0013215839
-5.5063591 0.93825161 -1.0524046 10 0.11952177 0.053150885 0.99140781 0.0013603978
-5.5093603 0.95559311 -1.0535154 10 0.1193261 0.053917561 0.99138999 0.0013850455
-5.5084362 0.97227621 -1.0538858 10 0.11894348 0.055195834 0.99136567 0.0014101021
-5.5115037 0.98869634 -1.0549967 10 0.11733522 0.056749567 0.99146962 0.0014458077
-5.5085459 1.0050453 -1.0549967 10 0.11689048 0.057505321 0.99147856 0.0014615424
-5.5074716 1.0217438 -1.055367 10 0.11631405 0.059107773 0.99145216 0.0014774723
-5.5086412 1.036885 -1.0561076 11 0.11616305 0.060440257 0.99138957 0.0015192929
-5.5113311 1.0543344 -1.0572184 19 0.11600443 0.061492935 0.99134332 0.0015225017
-5.5043201 1.0699311 -1.0564779 23 0.11522356 0.062811717 0.99135166 0.0015419713
-5.506906 1.0874007 -1.0575888 23 0.11516684 0.064156272 0.99127215 0.0015557481
-5.5077019 1.1035472 -1.0583295 23 0.11458223 0.065742083 0.99123603 0.0015726346
-5.5045991 1.1189224 -1.0583295 25 0.11455885 0.067200072 0.99114102 0.0015880812
-5.5053029 1.1350839 -1.0590701 21 0.11442157 0.067766786 0.99111819 0.0016062722
-5.5017099 1.152374 -1.0590701 17 0.11425628 0.068858653 0.99106205 0.0016220959
-5.519618 1.1722234 -1.0631434 12 0.11495903 0.070318162 0.99087828 0.0016288998
-5.5216722 1.1908014 -1.0642543 15 0.11504181 0.071679793 0.99077111 0.0016723935
-5.5245066 1.2055473 -1.0653652 13 0.11460771 0.072141968 0.99078786 0.0016984066
-5.5302868 1.2250214 -1.0672168 14 0.11471093 0.073271781 0.99069303 0.0017106917
-5.5302458 1.2432516 -1.0679573 14 0.11483891 0.075134739 0.99053866 0.001707169
-5.5310245 1.257633 -1.0686979 15 0.11446458 0.076209135 0.99049985 0.0017158767
-5.5308766 1.2758855 -1.0694386 15 0.11414934 0.07701496 0.99047393 0.0017249386
-5.5194111 1.2905005 -1.0679573 18 0.11318883 0.077774458 0.99052483 0.0017427797
-5.5176988 1.306362 -1.0683277 25 0.11254691 0.078128971 0.99057013 0.0017542997
-5.5063834 1.3199329 -1.0668464 25 0.11239108 0.078640506 0.99054736 0.001764512
-5.5022101 1.3372241 -1.0668464 20 0.11270865 0.079726607 0.99042434 0.001759146
-5.5101418 1.3544396 -1.0690682 16 0.11253305 0.08084856 0.99035341 0.0017647895
-5.5118203 1.3722073 -1.0701792 27 0.11302385 0.081491306 0.99024481 0.0017645038
-5.5020075 1.387114 -1.0690682 27 0.11278064 0.082184926 0.99021518 0.0017782433
-5.4983573 1.4015141 -1.0690682 23 0.11301282 0.082608141 0.99015349 0.0017776032
-5.4787035 1.4148481 -1.0661058 19 0.11299649 0.083360426 0.99009234 0.001775092
-5.4649734 1.4286125 -1.0642543 21 0.11340744 0.083622344 0.99002326 0.0017628731
-5.4536142 1.4409071 -1.0627731 23 0.11302794 0.084312677 0.99000812 0.0017602326
-5.4569092 1.459113 -1.0642543 25 0.11306127 0.085075252 0.98993903 0.00177887
