# .PCD v0.7 - Point Cloud Data file format
VERSION 0.7
FIELDS x y z intensity normal_x normal_y normal_z curvature
SIZE 4 4 4 4 4 4 4 4
TYPE F F F F F F F F
COUNT 1 1 1 1 1 1 1 1
WIDTH 535
HEIGHT 1
VIEWPOINT 0 0 0 1 0 0 0
POINTS 535
DATA ascii
-2.1063666 -3.6322126 -1.4187584 39 0.20037086 0.06262596 0.97771651 0.065131545
-2.1075809 -3.6095841 -1.4123561 39 0.19897977 0.067816079 0.97765428 0.06498757
-2.1363878 -3.6124356 -1.4181182 27 0.19497305 0.069174528 0.9783662 0.065943405
-2.1428781 -3.5975664 -1.414917 30 0.192895 0.070191324 0.97870559 0.065154955
-2.145123 -3.5785673 -1.4097952 40 0.18959452 0.071779259 0.97923529 0.063954055
-2.1511924 -3.5660739 -1.4072343 40 0.1880694 0.074683979 0.97931206 0.063285761
-2.1470113 -3.5353827 -1.3976307 43 0.18483238 0.076905258 0.97975636 0.058663726
-2.14662 -3.511214 -1.3905882 43 0.18419245 0.080208614 0.97961199 0.057352304
-2.140532 -3.4793849 -1.3803444 48 0.19297256 0.09332601 0.97675574 0.067253061
-2.1671555 -3.4762692 -1.3841859 51 0.18512693 0.090702727 0.97851986 0.063725777
-2.1903412 -3.4930573 -1.3931491 51 0.17651159 0.083067127 0.98078722 0.059043802
-2.1348836 -3.4472449 -1.3701007 48 0.19133276 0.093902551 0.97702307 0.065342568
-2.1962459 -3.478148 -1.3899479 43 0.17505307 0.083091609 0.98104644 0.058108665
-2.2065554 -3.4716167 -1.3899479 40 0.1730969 0.08372996 0.98133928 0.057800662
-2.2172627 -3.4670374 -1.3905882 43 0.1714243 0.084924623 0.98153025 0.057936512
-2.2275398 -3.4604433 -1.3905882 43 0.1694373 0.086887218 0.9817034 0.058313884
-2.239255 -3.4573898 -1.3918686 43 0.16749084 0.087404795 0.98199147 0.05878178
-2.2484682 -3.4491439 -1.3912284 40 0.16529074 0.089084953 0.9822132 0.058311496
-2.2585294 -3.4448299 -1.3918686 48 0.16377297 0.090332888 0.98235351 0.058423389
-2.2703846 -3.4392986 -1.392509 40 0.16010617 0.091094479 0.98288745 0.058620013
-2.2831242 -3.4376807 -1.3944297 38 0.15721713 0.091597468 0.983307 0.05888826
-2.3023384 -3.4430914 -1.3995514 28 0.15398309 0.09120518 0.98385513 0.06092371
-2.3119447 -3.4366484 -1.3995514 16 0.15014276 0.092065766 0.98436832 0.060627516
-2.3225949 -3.4317479 -1.4001917 15 0.14754194 0.093328297 0.98464262 0.06071147
-2.3321693 -3.4252486 -1.4001917 15 0.14447261 0.094326101 0.98500264 0.060228348
-2.3438663 -3.4218493 -1.4014722 16 0.14274685 0.095470525 0.98514396 0.05963314
-2.3492267 -3.4066696 -1.398271 15 0.14196962 0.098298319 0.9849782 0.058982268
-2.3620787 -3.4023852 -1.3995514 15 0.13925651 0.099002145 0.985295 0.059117589
-2.3666389 -3.3899758 -1.3969905 15 0.13799754 0.1055331 0.98479408 0.059158605
-2.3777764 -3.3844893 -1.3976307 15 0.13368365 0.10882003 0.98503137 0.059287101
-2.3856201 -3.3743248 -1.3963503 26 0.13254507 0.11176804 0.98485518 0.058474094
-2.3977389 -3.3727009 -1.398271 16 0.12848623 0.1094601 0.98565197 0.058030307
-2.4039121 -3.358988 -1.39571 18 0.12506185 0.11432252 0.98554039 0.058087531
-2.412761 -3.3503029 -1.3950698 23 0.12385552 0.11652537 0.98543477 0.057422277
-2.4215238 -3.3439748 -1.3950698 16 0.12228164 0.11770431 0.98549122 0.057153188
-2.426971 -3.3306506 -1.392509 15 0.12146351 0.11962657 0.98536092 0.056388855
-2.4362626 -3.3238599 -1.392509 15 0.11941306 0.122635 0.98524171 0.056091234
-2.4432867 -3.3139935 -1.3912284 18 0.11919618 0.12820898 0.98455817 0.05577419
-2.4525559 -3.30478 -1.3905882 16 0.1174726 0.12921461 0.9846338 0.055224594
-2.4617753 -3.2979181 -1.3905882 18 0.11572218 0.12687904 0.98514473 0.053922433
-2.4675627 -3.2864854 -1.3886675 18 0.11300089 0.13232541 0.98474401 0.052779853
-2.4750187 -3.2761254 -1.3873869 18 0.11217166 0.13281839 0.98477244 0.051721126
-2.483582 -3.2672591 -1.3867468 16 0.11133774 0.13264821 0.98489004 0.051387347
-2.4938462 -3.2618163 -1.3873869 16 0.10987169 0.13027646 0.98537111 0.04979334
-2.5023582 -3.2529008 -1.3867468 16 0.10811491 0.12831448 0.9858228 0.04806038
-2.5096793 -3.2424645 -1.3854662 21 0.10671089 0.12730396 0.98610669 0.046152554
-2.5158329 -3.232893 -1.3841859 21 0.10590181 0.12863967 0.98602062 0.044748388
-2.5213025 -3.2190063 -1.3816248 23 0.10456578 0.12716545 0.98635435 0.042993002
-2.5284965 -3.2085359 -1.3803444 45 0.10332348 0.12588009 0.98665011 0.041514728
-2.5362699 -3.1999774 -1.3797042 32 0.10250637 0.12657379 0.98664659 0.040942132
-2.5374839 -3.1820679 -1.3752224 40 0.10096776 0.12580499 0.98690355 0.039951816
-2.5439894 -3.1720133 -1.3739421 38 0.099682488 0.12695639 0.98688674 0.038943361
-2.5515616 -3.1610563 -1.3726616 40 0.098273695 0.12677118 0.9870519 0.03825476
-2.5604725 -3.1562839 -1.373302 35 0.096841268 0.12706316 0.98715585 0.038451102
-2.5679781 -3.1452889 -1.3720214 35 0.095519163 0.12721476 0.98726517 0.037835505
-2.5743468 -3.1351769 -1.3707409 38 0.09543556 0.12646195 0.98736995 0.037330378
-2.5794725 -3.1235924 -1.3688202 38 0.095665343 0.12305996 0.98777753 0.036024243
-2.5868502 -3.1125596 -1.3675398 38 0.09522377 0.12026905 0.98816389 0.03482309
-2.594317 -3.1038697 -1.3668995 32 0.094576083 0.12051015 0.98819667 0.034586739
-2.6066325 -3.1009641 -1.3688202 22 0.09312018 0.1193163 0.98847973 0.03395145
-2.6128347 -3.0907793 -1.3675398 15 0.093226962 0.11725906 0.98871589 0.032733191
-2.621305 -3.0811114 -1.3668995 16 0.092302591 0.11702973 0.98882973 0.031661406
-2.6248093 -3.0656655 -1.3636984 15 0.093124747 0.11071908 0.98947918 0.029074911
-2.6285841 -3.0549343 -1.3617777 14 0.093909331 0.10791174 0.98971522 0.027701357
-2.6369295 -3.045228 -1.3611375 13 0.093886398 0.1067369 0.98984474 0.027058151
-2.6436481 -3.0368855 -1.3604971 14 0.093693376 0.10618488 0.9899224 0.026405392
-2.6501508 -3.0261772 -1.3592167 13 0.094023839 0.10361359 0.99016351 0.02532791
-2.6566122 -3.0154579 -1.3579363 14 0.094992608 0.10013974 0.99042845 0.024096534
-2.6648164 -3.0056784 -1.357296 15 0.096006386 0.095569357 0.99078214 0.022709457
-2.6694169 -2.9939823 -1.3553753 15 0.096791454 0.091901742 0.99105275 0.021574697
-2.6790309 -2.9879279 -1.3560154 14 0.098254159 0.086549386 0.99139059 0.019755684
-2.6828091 -2.9743373 -1.3534546 12 0.099500008 0.080807485 0.99175096 0.01825886
-2.6905863 -2.967304 -1.3534546 12 0.10014074 0.078093588 0.9919039 0.017129011
-2.6973405 -2.956037 -1.352174 13 0.10144561 0.072794355 0.99217427 0.015698215
-2.703537 -2.9452293 -1.3508937 12 0.10207063 0.070403576 0.99228269 0.015188062
-2.7138085 -2.9409256 -1.352174 13 0.10234493 0.068362884 0.99239707 0.014671568
-2.7142782 -2.9250028 -1.3483328 13 0.10408763 0.064255036 0.99249035 0.013448566
-2.7252562 -2.9173703 -1.3489729 12 0.10526501 0.059898578 0.99263865 0.012265097
-2.7289929 -2.9060822 -1.3470522 13 0.10597102 0.057870474 0.99268383 0.011666737
-2.7363017 -2.8965955 -1.3464121 13 0.10804845 0.0529604 0.99273396 0.010180687
-2.7435789 -2.8870904 -1.3457717 13 0.10925474 0.048951108 0.99280775 0.0092229247
-2.7498193 -2.8785274 -1.3451315 13 0.11016366 0.046480667 0.99282598 0.0087027317
-2.7544096 -2.8662572 -1.3432108 12 0.1114624 0.042644247 0.99285328 0.0079584029
-2.7589512 -2.8539851 -1.3412901 12 0.11186787 0.041034795 0.99287546 0.0075592231
-2.7682314 -2.8476281 -1.3419305 12 0.11311784 0.038106836 0.99285054 0.0069623264
-2.7731881 -2.8348546 -1.3400097 12 0.11496662 0.032773081 0.99282855 0.0058392244
-2.7797649 -2.8257482 -1.3393694 12 0.11576285 0.030328389 0.99281383 0.0052971309
-2.7876453 -2.8179746 -1.3393694 12 0.11707049 0.027195709 0.99275112 0.0047204983
-2.7911372 -2.8038323 -1.3368084 12 0.11859685 0.023278574 0.99266958 0.0040840781
-2.7989562 -2.7960267 -1.3368084 12 0.11952393 0.020985799 0.9926095 0.0037299262
-2.8000326 -2.7815228 -1.3336074 12 0.12102155 0.016459733 0.99251336 0.0029995164
-2.8109694 -2.7758651 -1.3348877 12 0.12224213 0.012665141 0.99241954 0.0024769283
-2.8164885 -2.7648587 -1.3336074 12 0.12313619 0.010685347 0.99233228 0.0022498039
-2.8196499 -2.7535048 -1.3316867 12 0.12468995 0.0073228604 0.99216872 0.0018075884
-2.8310065 -2.7472708 -1.332967 12 0.12576385 0.004784774 0.99204868 0.0015231182
-2.832736 -2.7345865 -1.3304062 11 0.12637696 0.0036232653 0.99197572 0.0014129792
-2.8385787 -2.7230504 -1.3291258 12 0.1270619 0.002149635 0.9918924 0.0013067212
-2.8466458 -2.7146161 -1.3291258 13 0.12761973 0.0010541512 0.9918226 0.0012096425
-2.8496184 -2.7032428 -1.3272051 12 0.1281918 0.00014356857 0.99174941 0.0011090147
-2.8567185 -2.6929762 -1.3265647 12 0.12866357 -0.0006115163 0.99168813 0.0010114978
-2.8596125 -2.6816003 -1.324644 12 0.12895356 -0.0015660139 0.99164939 0.00096453627
-2.8661699 -2.6718125 -1.3240038 12 0.12986982 -0.0031550538 0.99152607 0.00078810682
-2.8754745 -2.6645844 -1.324644 10 0.13041075 -0.0043261182 0.99145061 0.00069522008
-2.8805809 -2.6534734 -1.3233637 12 0.13088648 -0.0054600327 0.9913823 0.00059410481
-2.8921714 -2.6492584 -1.3252844 10 0.13126345 -0.0069405255 0.99132323 0.00048958784
-2.8930135 -2.6342874 -1.3220831 10 0.13205598 -0.0096927416 0.99119484 0.00029374834
-2.8933363 -2.6198392 -1.318882 15 0.13273621 -0.012237935 0.99107581 0.00010816174
-2.9006412 -2.6117492 -1.318882 13 0.13293217 -0.013334336 0.99103546 6.3947715e-05
-2.9097896 -2.6043947 -1.3195223 10 0.13296884 -0.013351823 0.99103028 6.2923689e-05
-2.9151249 -2.5927227 -1.3182417 10 0.13301134 -0.013654672 0.9910205 5.5261811e-05
-2.919065 -2.582571 -1.3169613 11 0.13305654 -0.013941614 0.99101037 4.5778554e-05
-2.9224465 -2.5701444 -1.3150406 9 0.13309497 -0.014378648 0.99099898 3.1804182e-05
-2.9324646 -2.5644677 -1.316321 10 0.13317344 -0.014781838 0.99098253 1.9404244e-05
-2.9376462 -2.5527575 -1.3150406 10 0.1332151 -0.015324743 0.99096864 1.0223019e-05
-2.9447634 -2.544544 -1.3150406 10 0.13327038 -0.015485536 0.99095875 8.343889e-06
-2.9465511 -2.5308571 -1.3124797 9 0.13329153 -0.01574338 0.99095184 3.7227298e-06
-2.9536073 -2.5226188 -1.3124797 9 0.13331038 -0.016033828 0.99094462 2.8455304e-06
-2.9606404 -2.5143607 -1.3124797 11 0.13335817 -0.016282989 0.99093413 7.1403031e-07
-2.9656281 -2.5026035 -1.3111992 10 0.13334383 -0.016448161 0.9909333 0
-2.9678156 -2.4911771 -1.3092785 9 0.13339183 -0.016495217 0.99092609 0
-2.9756279 -2.4818404 -1.3092785 10 0.13343157 -0.016564365 0.99091959 0
-2.97963 -2.4711015 -1.3079979 10 0.13341837 -0.016653426 0.99091989 2.0906583e-07
-2.9884107 -2.4634557 -1.3086382 10 0.13342611 -0.01676647 0.99091691 0
-2.9875231 -2.4496171 -1.305437 10 0.13338184 -0.016865507 0.9909212 2.2099512e-06
-2.998143 -2.4426124 -1.3067175 10 0.13339287 -0.016864948 0.99091971 4.5137072e-06
-3.004952 -2.434231 -1.3067175 10 0.13340271 -0.016940411 0.99091709 5.441294e-06
-3.006258 -2.4205511 -1.3041567 9 0.13341033 -0.016983813 0.99091536 5.6351987e-06
-3.006669 -2.4079342 -1.3015956 9 0.1334282 -0.017003285 0.99091262 5.5481787e-06
-3.0123172 -2.3978233 -1.3009554 10 0.13342488 -0.017043358 0.99091232 5.3860149e-06
-3.0209045 -2.3900506 -1.3015956 10 0.13342768 -0.017054986 0.99091184 3.8190046e-06
-3.0324509 -2.3845904 -1.3035163 10 0.1334506 -0.017051853 0.99090874 4.1729745e-06
-3.0226784 -2.3632758 -1.2964737 10 0.13343847 -0.01711105 0.99090934 4.4707649e-06
-3.0330813 -2.356092 -1.2977543 10 0.13342898 -0.017081242 0.99091119 5.5303381e-06
-3.0381489 -2.3464551 -1.297114 10 0.13342389 -0.017111594 0.9909113 5.1753764e-06
-3.0476954 -2.3402698 -1.2983944 10 0.13345394 -0.017124504 0.99090701 7.9980018e-06
-3.045588 -2.3243201 -1.294553 10 0.13341337 -0.017146356 0.99091208 9.8560577e-06
-3.0550861 -2.3180966 -1.2958336 10 0.13343607 -0.01718029 0.9909085 1.2261238e-05
-3.0589249 -2.30674 -1.294553 10 0.13345405 -0.017208131 0.99090558 1.1583624e-05
-3.0657558 -2.2976537 -1.294553 10 0.13343559 -0.017245071 0.99090743 1.240359e-05
-3.0706403 -2.2879519 -1.2939129 10 0.13344462 -0.017257527 0.990906 1.0110781e-05
-3.0659635 -2.2720082 -1.2894312 8 0.13341928 -0.017334586 0.99090809 1.2209674e-05
-3.0791895 -2.2668581 -1.2919922 10 0.13347279 -0.017348049 0.99090064 1.366175e-05
-3.0793922 -2.2537742 -1.2894312 9 0.1334513 -0.017394926 0.99090272 1.3308288e-05
-3.0875981 -2.2457418 -1.2900715 9 0.13343705 -0.017364334 0.99090517 1.2070274e-05
-3.091176 -2.2343514 -1.2887909 9 0.13341162 -0.017392049 0.99090809 1.1562005e-05
-3.0912488 -2.2212875 -1.28623 9 0.13340035 -0.017386988 0.99090976 1.2629923e-05
-3.0943561 -2.2104445 -1.2849497 9 0.1333952 -0.017337723 0.99091125 1.4083466e-05
-3.1024461 -2.2023501 -1.2855898 9 0.13336633 -0.0173348 0.99091524 1.4619744e-05
-3.1089671 -2.1931353 -1.2855898 10 0.13335642 -0.01729946 0.99091715 1.4087931e-05
-3.1170118 -2.1849883 -1.28623 10 0.13337226 -0.017264985 0.9909156 1.344873e-05
-3.1137738 -2.1697764 -1.2823886 9 0.13334487 -0.017249675 0.99091959 1.4511164e-05
-3.1229362 -2.1632304 -1.2836691 9 0.13333176 -0.017228564 0.99092168 1.2245782e-05
-3.1265948 -2.1512606 -1.2823886 9 0.13334607 -0.017203527 0.99092025 1.3112931e-05
-3.1357176 -2.1446609 -1.2836691 9 0.13332689 -0.017173983 0.99092329 1.5689786e-05
-3.1338599 -2.1305692 -1.2804679 9 0.13329972 -0.017123559 0.99092782 1.6147938e-05
-3.1389675 -2.119653 -1.2798277 8 0.13330129 -0.017097076 0.99092805 1.7805545e-05
-3.1460793 -2.112484 -1.2804679 9 0.13331032 -0.017093441 0.99092692 1.9067113e-05
-3.1507566 -2.1020889 -1.2798277 8 0.13329041 -0.01703608 0.99093056 1.7758501e-05
-3.1557665 -2.0911329 -1.2791874 8 0.13329577 -0.016988566 0.99093068 1.8426063e-05
-3.1592841 -2.0823731 -1.2785473 7 0.1332961 -0.016955461 0.99093127 1.9375682e-05
-3.1594696 -2.0682867 -1.2759863 8 0.13326743 -0.016893949 0.9909361 1.8723289e-05
-3.1671803 -2.0599368 -1.2766265 7 0.13327299 -0.016845167 0.99093622 1.9922882e-05
-3.1725626 -2.0516379 -1.2766265 8 0.13325112 -0.016782854 0.99094015 2.0617585e-05
-3.1754477 -2.0401671 -1.275346 8 0.1332231 -0.016712693 0.99094516 1.971581e-05
-3.1786466 -2.0281434 -1.2740656 8 0.13322289 -0.01665486 0.99094617 1.904284e-05
-3.1839459 -2.0198138 -1.2740656 8 0.13322133 -0.016616175 0.99094701 1.827459e-05
-3.1883214 -2.0093484 -1.2734253 8 0.13320605 -0.016526258 0.99095058 1.9974921e-05
-3.1897998 -1.9963061 -1.2715046 7 0.13314962 -0.016405404 0.99096012 2.095645e-05
-3.1930594 -1.9875053 -1.2708645 7 0.13316073 -0.016352117 0.99095953 2.2050175e-05
-3.194453 -1.9744747 -1.2689438 8 0.13314061 -0.016224837 0.99096429 2.1367385e-05
-3.2002969 -1.9649886 -1.2689438 7 0.13313229 -0.016164355 0.99096644 2.3944998e-05
-3.20543 -1.956604 -1.2689438 7 0.13310398 -0.016097307 0.99097139 2.6471305e-05
-3.2083209 -1.9445589 -1.2676632 7 0.13309626 -0.016005171 0.99097389 2.8451956e-05
-3.2124527 -1.9340544 -1.267023 8 0.13308328 -0.015902726 0.99097729 2.764994e-05
-3.2175052 -1.9256372 -1.267023 9 0.13308488 -0.015847137 0.990978 2.9018698e-05
-3.2196131 -1.9147078 -1.2657425 9 0.13305838 -0.015733872 0.99098331 3.132526e-05
-3.2190859 -1.9007298 -1.2631816 8 0.13304354 -0.015626283 0.990987 3.2985961e-05
-3.2260153 -1.8926924 -1.2638218 8 0.13303822 -0.015536599 0.99098915 3.1952954e-05
-3.2267058 -1.8802502 -1.2619011 8 0.13301986 -0.01539922 0.99099374 3.2179549e-05
-3.2306309 -1.8697189 -1.261261 7 0.13302873 -0.015252991 0.99099487 3.2245662e-05
-3.2355144 -1.8612554 -1.261261 7 0.13301814 -0.015193139 0.99099714 3.2772117e-05
-3.2393773 -1.8507071 -1.2606207 8 0.13302349 -0.015065212 0.99099839 3.581855e-05
-3.2415583 -1.8392172 -1.2593403 8 0.13305466 -0.0149255 0.9909963 3.6072852e-05
-3.2466819 -1.8301576 -1.2593403 7 0.1330293 -0.014813992 0.99100137 3.5519253e-05
-3.245801 -1.8162485 -1.2567792 8 0.13308959 -0.014669584 0.99099541 3.4295463e-05
-3.2574849 -1.8108598 -1.2593403 8 0.13299088 -0.014652664 0.99100894 3.762565e-05
-3.2558944 -1.7980919 -1.2567792 7 0.13304813 -0.014463854 0.99100405 3.7602502e-05
-3.2582042 -1.7860334 -1.2554988 8 0.13306446 -0.014297047 0.99100423 3.9711922e-05
-3.2628689 -1.7774971 -1.2554988 8 0.13302773 -0.014235821 0.99101007 4.1178544e-05
-3.2697952 -1.7687094 -1.256139 8 0.13302802 -0.014133188 0.99101144 3.9275012e-05
-3.2716901 -1.7572066 -1.2548585 8 0.13304342 -0.013963205 0.99101186 4.007656e-05
-3.273241 -1.7462796 -1.2535781 7 0.13303894 -0.013794888 0.99101478 4.0613246e-05
-3.2814534 -1.7389063 -1.2548585 9 0.13304904 -0.013738737 0.99101418 4.2381344e-05
-3.283546 -1.7268256 -1.2535781 9 0.13303736 -0.013526453 0.99101871 3.9185346e-05
-3.2880557 -1.7182231 -1.2535781 9 0.1330422 -0.013445816 0.99101913 4.0184557e-05
-3.2880933 -1.7058418 -1.2516574 8 0.13307375 -0.013227169 0.99101782 3.9285595e-05
-3.2931399 -1.6960789 -1.2516574 7 0.13302714 -0.013081656 0.99102604 4.0838138e-05
-3.2911162 -1.6834245 -1.2490965 8 0.13300765 -0.012878473 0.99103135 4.0180188e-05
-3.2994754 -1.6753677 -1.2503769 8 0.13298942 -0.012743884 0.99103552 3.9087216e-05
-3.3095078 -1.6681288 -1.2522976 9 0.13297057 -0.012634158 0.99103945 4.244252e-05
-3.3073759 -1.6554879 -1.2497368 8 0.13295585 -0.012408415 0.99104428 3.9181756e-05
-3.3139699 -1.6465111 -1.2503769 10 0.13291961 -0.01226796 0.9910509 3.8096685e-05
-3.3171413 -1.6358329 -1.2497368 8 0.13294549 -0.012135099 0.99104905 3.6031663e-05
-3.3163078 -1.6246428 -1.247816 8 0.1329364 -0.011916527 0.99105293 3.351492e-05
-3.3174241 -1.6137178 -1.2465355 8 0.13294864 -0.011740297 0.99105334 3.1602889e-05
-3.3224769 -1.6032884 -1.2465355 7 0.13290371 -0.01153334 0.99106181 3.050835e-05
-3.3235238 -1.5923663 -1.245255 8 0.13291673 -0.011331636 0.9910624 3.0434912e-05
-3.3248117 -1.5808709 -1.2439746 8 0.13292012 -0.011089883 0.99106467 2.9369356e-05
-3.3294871 -1.5709995 -1.2439746 8 0.13290398 -0.010849497 0.9910695 2.9667663e-05
-3.3372929 -1.5633031 -1.245255 9 0.13287783 -0.010739031 0.99107426 3.2731881e-05
-3.3330553 -1.5499824 -1.2420539 7 0.13287202 -0.010426099 0.99107832 3.3721473e-05
-3.3410807 -1.541674 -1.2433344 7 0.13283983 -0.010312142 0.99108386 3.7145259e-05
-3.3421946 -1.5301762 -1.2420539 8 0.13282537 -0.010037077 0.99108863 3.3389708e-05
-3.3432693 -1.5186863 -1.2407734 8 0.13280722 -0.0098325191 0.9910931 3.2236796e-05
-3.349225 -1.5101229 -1.2414137 8 0.13277355 -0.0096225869 0.99109966 3.222558e-05
-3.3430521 -1.49612 -1.2375722 8 0.1327678 -0.0092628403 0.99110389 3.1859639e-05
-3.3541436 -1.4898549 -1.2401332 7 0.13275677 -0.0091390582 0.99110651 3.4557237e-05
-3.3605413 -1.4800745 -1.2407734 8 0.13270524 -0.0089386888 0.99111527 3.5554869e-05
-3.3611891 -1.4691665 -1.239493 7 0.13268214 -0.0086018303 0.99112135 3.4955709e-05
-3.3623111 -1.4570929 -1.2382125 7 0.13267525 -0.0082441457 0.99112529 3.384165e-05
-3.3608928 -1.4460384 -1.2362918 7 0.1326452 -0.0079737706 0.99113154 3.839429e-05
-3.3703969 -1.4382911 -1.2382125 8 0.13257161 -0.0077070519 0.99114347 3.6759855e-05
-3.3748987 -1.4276962 -1.2382125 9 0.1325424 -0.0074375658 0.99114943 3.63172e-05
-3.373136 -1.4172441 -1.2362918 8 0.13248487 -0.0071350029 0.99115932 3.8315949e-05
-3.3758233 -1.4059107 -1.2356515 7 0.13243309 -0.0068115881 0.99116856 3.9875711e-05
-3.3799794 -1.3958889 -1.2356515 8 0.13238797 -0.0064963344 0.99117666 4.0339291e-05
-3.3818693 -1.3863164 -1.2350113 7 0.13231562 -0.006246469 0.99118793 4.3182401e-05
-3.3807013 -1.3741363 -1.2330906 7 0.13233419 -0.0058771898 0.99118769 4.5326076e-05
-3.3832448 -1.3627998 -1.2324504 7 0.13225171 -0.0055664754 0.99120057 4.7612608e-05
-3.3868008 -1.3539383 -1.2324504 7 0.13218309 -0.005271425 0.99121135 5.0814149e-05
-3.3890412 -1.3431861 -1.2318102 8 0.1321312 -0.0048979283 0.99122012 5.3529453e-05
-3.3894849 -1.3317379 -1.2305297 8 0.13203758 -0.0045047114 0.99123448 5.7770907e-05
-3.3964903 -1.3242368 -1.2318102 7 0.13194838 -0.0042925747 0.9912473 5.9034101e-05
-3.3986373 -1.3134702 -1.2311699 8 0.13188469 -0.0039096884 0.99125737 6.1713246e-05
-3.4009771 -1.3021089 -1.2305297 8 0.13181677 -0.0035209015 0.99126786 6.4206506e-05
-3.4026036 -1.2925277 -1.2298895 8 0.13174532 -0.0031309011 0.99127865 6.6993227e-05
-3.4061999 -1.2830206 -1.2298895 8 0.13166568 -0.0028422582 0.99129009 6.8032918e-05
-3.4122109 -1.2723799 -1.2305297 8 0.13160217 -0.0024124486 0.99129963 7.3348674e-05
-3.4101989 -1.2614709 -1.228609 8 0.13151853 -0.0019798237 0.99131173 7.3781681e-05
-3.4137084 -1.2519428 -1.228609 7 0.13142496 -0.0016198286 0.99132478 7.1833849e-05
-3.4211867 -1.2425064 -1.2298895 9 0.13151878 -0.0011790197 0.99131298 7.5004966e-05
-3.4155147 -1.2303345 -1.2266883 8 0.13131098 -0.00074217608 0.99134099 7.6499971e-05
-3.4265013 -1.2221441 -1.2292492 9 0.13148642 -0.00038808628 0.99131787 7.9241909e-05
-3.4265392 -1.2107104 -1.2279687 8 0.13128538 8.7837179e-05 0.99134457 8.2734652e-05
-3.4279091 -1.2011079 -1.2273285 8 0.13118726 0.00038701735 0.99135751 8.2911465e-05
-3.4278777 -1.1896899 -1.226048 8 0.13102563 0.00087723538 0.99137855 8.3688108e-05
-3.4349761 -1.1807456 -1.2273285 8 0.13118827 0.0013253674 0.99135661 8.5636115e-05
-3.4310861 -1.1687049 -1.2247676 7 0.13087112 0.0017519706 0.99139786 8.713307e-05
-3.4347405 -1.1579207 -1.2247676 7 0.13083239 0.0022465659 0.99140197 8.8741675e-05
-3.4397578 -1.1489246 -1.2254077 7 0.13093796 0.0026769273 0.99138695 8.7315573e-05
-3.4429529 -1.1393143 -1.2254077 9 0.1309627 0.0031489697 0.9913823 9.0235088e-05
-3.4425197 -1.1285154 -1.2241273 8 0.13078277 0.0035753273 0.99140465 9.3517934e-05
-3.4494574 -1.1194667 -1.2254077 9 0.13081607 0.00401058 0.99139845 9.5406678e-05
-3.4489622 -1.1086696 -1.2241273 9 0.13065951 0.0045248847 0.99141699 0.00010037563
-3.4488173 -1.0966797 -1.2228469 8 0.13058074 0.0049665365 0.99142522 9.8077544e-05
-3.4552906 -1.0887864 -1.2241273 8 0.13057601 0.0053873812 0.99142367 9.5879564e-05
-3.4548883 -1.0774012 -1.2228469 8 0.13047422 0.0059554353 0.9914338 9.7019132e-05
-3.4580698 -1.0671462 -1.2228469 7 0.13039774 0.0064081689 0.99144107 9.5858864e-05
-3.4575965 -1.0557743 -1.2215664 8 0.13028109 0.0069327755 0.99145287 9.8828707e-05
-3.4641588 -1.0472112 -1.2228469 8 0.13029175 0.0073825098 0.99144816 9.9215133e-05
-3.4636199 -1.035843 -1.2215664 7 0.13021307 0.0078382809 0.99145514 9.7525277e-05
-3.4645033 -1.0262325 -1.2209262 8 0.13012508 0.0083241295 0.99146259 9.9015095e-05
-3.4695284 -1.0158765 -1.2215664 8 0.13007417 0.0088307643 0.99146491 0.00010007867
-3.4652476 -1.0034693 -1.2190055 8 0.12976292 0.0094141671 0.99150038 0.00010548037
-3.4718525 -0.99422729 -1.220286 7 0.12985629 0.0098651536 0.99148375 0.00010491179
-3.470798 -0.98409975 -1.2190055 7 0.12970124 0.010364159 0.99149901 0.00010792482
-3.4737024 -0.97379792 -1.2190055 7 0.12961374 0.010925398 0.99150443 0.00010974268
-3.4745824 -0.96358722 -1.2183652 7 0.12950797 0.011421875 0.9915126 0.00010887556
-3.4755991 -0.95277256 -1.217725 8 0.12937193 0.011944674 0.99152416 0.00010656647
-3.4784102 -0.94245666 -1.217725 8 0.12934619 0.012415474 0.99152178 0.00010767733
-3.4775307 -0.93115151 -1.2164445 8 0.1291945 0.012994372 0.99153411 0.00010844368
-3.4819493 -0.92192161 -1.2170848 8 0.1291756 0.013378638 0.99153143 0.00010825149
-3.4828362 -0.91110653 -1.2164445 8 0.12903383 0.013941942 0.99154216 0.00010843416
-3.4833751 -0.90151125 -1.2158042 8 0.12884149 0.014395964 0.9915607 0.00011267631
-3.489862 -0.89150125 -1.2170848 7 0.12893498 0.014962596 0.99154013 0.00011254668
-3.4923379 -0.88175201 -1.2170848 7 0.12879694 0.015473162 0.99155021 0.00011041624
-3.4892714 -0.87062061 -1.2151641 8 0.1286063 0.01592828 0.99156779 0.00011074369
-3.4901493 -0.85920137 -1.2145238 8 0.12845996 0.016499266 0.99157745 0.00011305581
-3.4980583 -0.85079479 -1.2164445 7 0.12858877 0.016988182 0.99155253 0.00011231533
-3.5005672 -0.8404119 -1.2164445 7 0.12851357 0.017579477 0.99155188 0.00011376996
-3.4992135 -0.82975864 -1.2151641 7 0.12832406 0.017953115 0.99156976 0.00011404146
-3.5013738 -0.82059538 -1.2151641 7 0.12825751 0.018484758 0.99156868 0.00011639723
-3.5020881 -0.80916566 -1.2145238 8 0.12809755 0.018960083 0.99158031 0.00011707504
-3.5081682 -0.79961222 -1.2158042 8 0.1281908 0.019345736 0.99156082 0.00011830507
-3.5102496 -0.79042572 -1.2158042 7 0.12805791 0.019993106 0.99156517 0.00011969915
-3.5108659 -0.77898347 -1.2151641 7 0.12790941 0.020497231 0.99157399 0.00012029305
-3.514744 -0.77019471 -1.2158042 7 0.12783846 0.020970635 0.99157333 0.00012079769
-3.5114577 -0.75856239 -1.2138836 7 0.12763563 0.021550132 0.99158704 0.0001221687
-3.5173991 -0.74893016 -1.2151641 7 0.12753889 0.022091502 0.99158746 0.00012482074
-3.5177517 -0.73810124 -1.2145238 8 0.12746421 0.022650104 0.99158454 0.00012539559
-3.519799 -0.72827476 -1.2145238 8 0.12736526 0.023202218 0.99158454 0.00012668401
-3.5219443 -0.71782869 -1.2145238 8 0.12729727 0.023745835 0.99158031 0.00012611756
-3.5276504 -0.70873696 -1.2158042 7 0.12728982 0.024312353 0.99156755 0.00012823599
-3.5240397 -0.69777888 -1.2138836 7 0.12707561 0.02475577 0.99158406 0.00012711523
-3.5280745 -0.68706638 -1.2145238 7 0.12699512 0.025376538 0.99157864 0.00012911644
-3.5243967 -0.67614019 -1.2126031 7 0.12659143 0.025793461 0.99161953 0.00012639536
-3.5262713 -0.66629535 -1.2126031 8 0.1265635 0.026259232 0.99161083 0.00012641646
-3.5355692 -0.6578334 -1.2151641 7 0.12675498 0.026967254 0.99156737 0.000129162
-3.533778 -0.64665794 -1.2138836 7 0.12650441 0.027410347 0.99158728 0.00012998075
-3.5394108 -0.63684016 -1.2151641 7 0.12653323 0.027989287 0.99156737 0.00012861598
-3.5394187 -0.62600636 -1.2145238 7 0.12637426 0.028439771 0.99157488 0.00012629578
-3.5392864 -0.61579585 -1.2138836 7 0.12629192 0.028938806 0.99157095 0.00012752881
-3.5448334 -0.60592932 -1.2151641 7 0.12623823 0.029445013 0.9915629 0.00012487906
-3.5464075 -0.59664744 -1.2151641 8 0.12616341 0.029995598 0.99155581 0.00012353489
-3.5482645 -0.58550298 -1.2151641 7 0.12606388 0.030594138 0.99155027 0.00012304235
-3.5480151 -0.57528943 -1.2145238 7 0.12595223 0.031035813 0.99155074 0.00012143032
-3.5554187 -0.56503129 -1.2164445 7 0.12594292 0.031590577 0.99153435 0.00012375989
-3.5532389 -0.55451679 -1.2151641 8 0.12580284 0.032079611 0.99153638 0.00012441275
-3.5547733 -0.54459184 -1.2151641 7 0.12564175 0.032510329 0.99154288 0.00012223073
-3.5619013 -0.5355078 -1.2170848 8 0.12567256 0.03295026 0.9915244 0.00012279417
-3.5616 -0.52466154 -1.2164445 7 0.12557304 0.033343621 0.99152392 0.00012194798
-3.5631409 -0.51409161 -1.2164445 7 0.12537462 0.033866111 0.99153131 0.00011950514
-3.5647383 -0.50289494 -1.2164445 7 0.12524523 0.034391198 0.99152952 0.00012013842
-3.5697105 -0.49470311 -1.217725 7 0.12526922 0.034817763 0.99151164 0.0001152554
-3.5693693 -0.48323256 -1.2170848 7 0.12508509 0.035331346 0.99151671 0.00011319781
-3.5743787 -0.47438461 -1.2183652 7 0.12506802 0.035831515 0.99150097 0.00011442184
-3.5757704 -0.46377692 -1.2183652 7 0.12493358 0.036301553 0.99150079 0.00011357576
-3.5752513 -0.45292699 -1.217725 7 0.12484749 0.036737494 0.99149561 0.00011422401
-3.5766563 -0.44169348 -1.217725 7 0.12473124 0.037215307 0.99149239 0.00011042658
-3.5815625 -0.43278262 -1.2190055 7 0.12467793 0.037703946 0.99148059 0.00010916303
-3.5809491 -0.4219321 -1.2183652 7 0.12455987 0.038125001 0.99147934 0.00010887481
-3.5839958 -0.41214678 -1.2190055 7 0.12452914 0.038602486 0.99146473 0.00010770094
-3.585273 -0.400886 -1.2190055 7 0.12438409 0.039116971 0.99146283 0.00010710893
-3.5881937 -0.39170459 -1.2196457 7 0.12437707 0.039545633 0.99144667 0.00010448555
-3.5894065 -0.38042903 -1.2196457 7 0.12418875 0.040037043 0.99145055 0.00010548197
-3.5903902 -0.37103122 -1.2196457 8 0.1240557 0.040371962 0.99145359 0.00010404173
-3.5914752 -0.36037651 -1.2196457 7 0.12394516 0.040844809 0.9914481 0.00010224147
-3.5943537 -0.35052949 -1.220286 7 0.1239306 0.041237026 0.99143368 0.00010126505
-3.6029823 -0.33994752 -1.2228469 7 0.12403686 0.041804992 0.99139661 9.9997102e-05
-3.5944834 -0.32902184 -1.2196457 7 0.12364247 0.042090952 0.99143374 9.8089804e-05
-3.6029932 -0.31902358 -1.2222066 7 0.12378451 0.0426233 0.99139327 9.6259675e-05
-3.6057038 -0.30975178 -1.2228469 7 0.12373251 0.043042112 0.99138165 9.4624484e-05
-3.6028826 -0.29811081 -1.2215664 7 0.12355261 0.043466602 0.99138558 9.1896516e-05
-3.6037514 -0.28741848 -1.2215664 8 0.123411 0.043918129 0.99138331 9.0980822e-05
-3.6102076 -0.27779052 -1.2234871 7 0.12345719 0.044322412 0.99135953 9.0597605e-05
-3.6166844 -0.26749751 -1.2254077 7 0.12347539 0.044786286 0.99133646 8.7175395e-05
-3.6155274 -0.25726205 -1.2247676 8 0.12334729 0.045180608 0.99133456 8.512049e-05
-3.6162751 -0.24653324 -1.2247676 8 0.12329862 0.045567095 0.99132293 8.4343643e-05
-3.6169081 -0.23706473 -1.2247676 8 0.1231693 0.045936592 0.99132198 8.5370004e-05
-3.6138527 -0.22546546 -1.2234871 7 0.12300456 0.046254668 0.99132758 8.3862818e-05
-3.6182508 -0.21559796 -1.2247676 7 0.1230127 0.046726357 0.9913044 8.2287042e-05
-3.6207664 -0.20496833 -1.2254077 7 0.12294612 0.047118623 0.99129415 7.9307909e-05
-3.6212907 -0.1954882 -1.2254077 7 0.12279052 0.047466885 0.99129683 7.8055906e-05
-3.621887 -0.18411046 -1.2254077 7 0.12275273 0.047821969 0.99128449 7.2144838e-05
-3.6280644 -0.17426886 -1.2273285 7 0.12284308 0.048170984 0.9912563 6.9038128e-05
-3.6285372 -0.16413647 -1.2273285 7 0.12268871 0.048496399 0.99125957 6.8331581e-05
-3.6309013 -0.15344948 -1.2279687 7 0.12266266 0.048813809 0.99124718 6.6547145e-05
-3.629447 -0.1426011 -1.2273285 7 0.12260998 0.049194131 0.99123502 6.6760382e-05
-3.6317017 -0.13316877 -1.2279687 8 0.12255999 0.049486127 0.99122661 6.4216416e-05
-3.6321023 -0.12175862 -1.2279687 8 0.12251865 0.049817335 0.99121517 5.9863418e-05
-3.6381097 -0.11179062 -1.2298895 7 0.12252252 0.050184429 0.99119616 5.4506127e-05
-3.6365135 -0.10157751 -1.2292492 8 0.12246343 0.050434109 0.99119079 5.249985e-05
-3.6406028 -0.090246312 -1.2305297 8 0.12245898 0.050847288 0.99117023 5.0070426e-05
-3.6389606 -0.079402506 -1.2298895 7 0.12240298 0.05106134 0.99116606 4.6385976e-05
-3.6391559 -0.069876038 -1.2298895 7 0.12235884 0.051347621 0.99115676 4.523863e-05
-3.6431363 -0.059139442 -1.2311699 7 0.12233892 0.051675241 0.99114221 4.3114404e-05
-3.6414008 -0.048304442 -1.2305297 8 0.12231773 0.051937353 0.99113107 3.8834543e-05
-3.6510079 -0.036960147 -1.2337308 8 0.12231416 0.05223231 0.99111605 3.6397803e-05
-3.6473031 -0.027373854 -1.2324504 8 0.12228563 0.052474912 0.99110681 3.5322701e-05
-3.6492627 -0.016560366 -1.2330906 8 0.12225196 0.052718163 0.99109799 3.1592259e-05
-3.6511884 -0.0070099155 -1.2337308 8 0.12223551 0.052937876 0.99108833 2.8440012e-05
-3.6530871 0.0044622696 -1.2343711 8 0.12218584 0.053187467 0.99108106 2.6696442e-05
-3.6568475 0.015317251 -1.2356515 8 0.1221666 0.053418811 0.99107099 2.474742e-05
-3.654891 0.026153913 -1.2350113 8 0.12216723 0.053596452 0.99106139 2.1235775e-05
-3.654804 0.036360435 -1.2350113 8 0.12215643 0.053827565 0.99105012 2.0510541e-05
-3.6527934 0.046542533 -1.2343711 8 0.12214826 0.054011319 0.99104118 1.7523163e-05
-3.6583228 0.057468995 -1.2362918 8 0.12213403 0.054217275 0.99103171 1.5374661e-05
-3.6619487 0.067115992 -1.2375722 7 0.12211702 0.054385666 0.99102455 1.3729307e-05
-3.6598253 0.0785795 -1.236932 9 0.1221037 0.054548725 0.99101722 1.5206841e-05
-3.6652744 0.088937484 -1.2388527 8 0.12211685 0.054714132 0.99100649 9.9110975e-06
-3.659312 0.099656761 -1.236932 8 0.12207353 0.054842982 0.99100471 1.0885159e-05
-3.6647205 0.10940638 -1.2388527 8 0.12205491 0.055030286 0.9909966 5.670498e-06
-3.6700184 0.12174703 -1.2407734 8 0.12202967 0.055201493 0.99099016 6.3395669e-06
-3.6659002 0.13121943 -1.239493 8 0.12199922 0.055322669 0.99098724 5.5958571e-06
-3.6655195 0.14145541 -1.239493 7 0.12199236 0.055448204 0.99098098 4.3462542e-06
-3.6745226 0.15336552 -1.2426941 8 0.12202967 0.05558382 0.99096882 3.1349591e-06
-3.6721869 0.16354206 -1.2420539 8 0.12201592 0.055695053 0.99096435 2.8499203e-06
-3.6773939 0.17406423 -1.2439746 8 0.12204469 0.055763531 0.9909569 3.9102028e-06
-3.6806459 0.18516511 -1.245255 9 0.12209501 0.055900563 0.99094296 2.8202028e-06
-3.6744385 0.19514151 -1.2433344 8 0.12199716 0.055968117 0.99095118 8.0738464e-06
-3.6776268 0.20625444 -1.2446148 8 0.12202816 0.056094151 0.99094027 6.6773437e-06
-3.67889 0.21727715 -1.245255 9 0.12204903 0.056206662 0.99093133 9.2823984e-06
-3.6782291 0.22819278 -1.245255 8 0.12203867 0.056265194 0.99092925 8.7230637e-06
-3.677619 0.23782098 -1.245255 8 0.12201296 0.056342114 0.99092805 1.2228415e-05
-3.6806347 0.24962912 -1.2465355 8 0.12201072 0.056423943 0.99092364 1.0286249e-05
-3.6799233 0.25990665 -1.2465355 8 0.12200773 0.056478456 0.99092096 1.0784634e-05
-3.679183 0.27018216 -1.2465355 8 0.12199207 0.056530427 0.99091989 1.2616584e-05
-3.6840329 0.28153065 -1.2484562 8 0.12201221 0.056645326 0.99091083 1.7001788e-05
-3.6870103 0.29211685 -1.2497368 9 0.12205387 0.056715831 0.99090171 1.7192358e-05
-3.6842389 0.30289924 -1.2490965 8 0.12201526 0.056776132 0.99090296 1.9143192e-05
-3.6870997 0.31415117 -1.2503769 7 0.12205588 0.056806803 0.99089622 1.8663322e-05
-3.6843207 0.32428038 -1.2497368 8 0.122023 0.056828309 0.99089903 2.036055e-05
-3.6852293 0.3353816 -1.2503769 7 0.12204973 0.056878813 0.99089289 2.0688152e-05
-3.6861043 0.34649193 -1.2510172 7 0.12207544 0.056914315 0.99088764 1.9964476e-05
-3.6850598 0.35742751 -1.2510172 7 0.12207844 0.056933921 0.99088615 2.1995873e-05
-3.6897681 0.36763763 -1.2529379 7 0.12213012 0.0569476 0.99087906 2.0064883e-05
-3.6923645 0.37961438 -1.2542183 7 0.12213193 0.056970257 0.99087751 2.2398133e-05
-3.6894057 0.38972515 -1.2535781 7 0.12216498 0.056984175 0.99087262 2.142095e-05
-3.6920002 0.40107957 -1.2548585 9 0.12216905 0.057004284 0.99087089 2.4074598e-05
-3.6926773 0.41224179 -1.2554988 9 0.12216488 0.057036046 0.99086964 2.6238178e-05
-3.6896291 0.42233682 -1.2548585 9 0.12216529 0.057021212 0.99087048 2.5708603e-05
-3.6921992 0.43308026 -1.256139 9 0.12217539 0.057063486 0.99086678 2.3906436e-05
-3.6927013 0.44490433 -1.2567792 9 0.12217367 0.057049956 0.99086773 2.5913039e-05
-3.6859615 0.45323169 -1.2548585 8 0.1221801 0.057065237 0.99086607 2.3205504e-05
-3.6863992 0.46504742 -1.2554988 8 0.12219393 0.057066634 0.99086422 2.4007393e-05
-3.6887617 0.47646791 -1.2567792 8 0.12219603 0.057046235 0.99086517 2.6192503e-05
-3.6875017 0.48612285 -1.2567792 8 0.12222125 0.057061851 0.99086124 2.5525382e-05
-3.6915891 0.49846673 -1.2587 8 0.12226779 0.05704312 0.99085653 2.6365906e-05
-3.697691 0.50980824 -1.261261 9 0.12223274 0.057019953 0.99086219 2.8029812e-05
-3.6925004 0.51960427 -1.2599804 9 0.12225468 0.057015087 0.99085975 2.8753519e-05
-3.6909423 0.53055716 -1.2599804 8 0.12229113 0.056997955 0.99085623 2.7806933e-05
-3.6912265 0.54178143 -1.2606207 9 0.12233361 0.056979891 0.99085206 2.8555844e-05
-3.6916697 0.5517236 -1.261261 8 0.12236537 0.056915641 0.99085176 2.8747574e-05
-3.688045 0.56303185 -1.2606207 8 0.12238073 0.056928538 0.99084914 2.3515231e-05
-3.6902027 0.57391125 -1.2619011 8 0.12240284 0.056890041 0.99084872 2.4090536e-05
-3.6942 0.58510345 -1.2638218 10 0.12239077 0.056850761 0.99085248 2.3066083e-05
-3.6980596 0.59696788 -1.2657425 9 0.1223767 0.056824245 0.99085569 2.3130357e-05
-3.6944022 0.60763031 -1.2651023 8 0.1223916 0.056835547 0.99085319 2.2879383e-05
-3.6889534 0.61731946 -1.2638218 8 0.12250906 0.056818899 0.9908396 1.9388948e-05
-3.6889737 0.62857968 -1.2644621 8 0.12251558 0.056782082 0.99084091 1.8758867e-05
-3.6964266 0.64114153 -1.2676632 9 0.12246991 0.056733519 0.99084932 1.8152241e-05
-3.6963739 0.65243495 -1.2683035 9 0.12249148 0.056701172 0.99084848 2.1051919e-05
-3.6926725 0.66242027 -1.2676632 8 0.12249365 0.056716457 0.99084741 2.022684e-05
-3.6944191 0.67405415 -1.2689438 9 0.12253954 0.056677438 0.99084395 2.0544032e-05
-3.6905396 0.68466729 -1.2683035 8 0.12257723 0.056678209 0.99083924 1.958358e-05
-3.6961827 0.69572812 -1.2708645 9 0.12263025 0.056651451 0.99083424 1.7427219e-05
-3.6959631 0.70704901 -1.2715046 9 0.12265125 0.056569867 0.99083626 1.8234192e-05
-3.6919892 0.71764982 -1.2708645 8 0.12266346 0.0565526 0.99083579 1.8565723e-05
-3.6917024 0.72896826 -1.2715046 8 0.12268551 0.05652228 0.99083477 2.0090025e-05
-3.6989415 0.74113607 -1.2747058 9 0.12276436 0.056426041 0.99083042 1.8588766e-05
-3.6950006 0.75108451 -1.2740656 9 0.12279864 0.056401756 0.99082762 1.7705879e-05
-3.6891773 0.76063496 -1.2727851 8 0.12281367 0.056398254 0.99082595 1.8804585e-05
-3.6923332 0.77338666 -1.2747058 9 0.12287933 0.05637186 0.99081928 1.8351573e-05
-3.6920125 0.78408754 -1.275346 9 0.1229205 0.056326807 0.99081671 1.7544973e-05
-3.6913834 0.79608208 -1.2759863 10 0.12299826 0.056289259 0.99080926 1.6446826e-05
-3.6949806 0.80631161 -1.277907 9 0.12322057 0.055925936 0.99080223 2.0766325e-05
-3.6905794 0.8175053 -1.2772667 9 0.12343848 0.055462401 0.99080116 2.9228431e-05
-3.69169 0.82992691 -1.2785473 9 0.12364741 0.054997317 0.99080104 4.1711821e-05
-3.6933463 0.83978546 -1.2798277 9 0.12371787 0.054776087 0.99080443 4.7028367e-05
-3.6906898 0.85138357 -1.2798277 9 0.12386458 0.054360222 0.99080902 6.0350958e-05
-3.6881475 0.8623305 -1.2798277 8 0.12391675 0.054201271 0.99081117 6.5110951e-05
-3.6894128 0.87349981 -1.2811083 10 0.12397968 0.054025736 0.9908129 7.2232266e-05
-3.6888013 0.88424104 -1.2817484 10 0.12407012 0.053827036 0.99081242 7.7159901e-05
-3.6878467 0.89627212 -1.2823886 11 0.12447582 0.053349253 0.99078739 8.9103502e-05
-3.6873276 0.90637636 -1.283029 10 0.12484907 0.053020608 0.99075806 9.3222174e-05
-3.684622 0.91731316 -1.283029 10 0.12497659 0.053052116 0.9907403 9.2121161e-05
-3.6855583 0.92916811 -1.2843093 10 0.12519072 0.052880313 0.99072242 9.388855e-05
-3.6904573 0.94068605 -1.2868702 10 0.12521796 0.052912325 0.99071729 9.6025527e-05
-3.6856496 0.95180076 -1.28623 10 0.1253165 0.052944478 0.99070311 9.4419687e-05
-3.6809762 0.96225327 -1.2855898 12 0.12548794 0.052960109 0.99068058 9.6578719e-05
-3.6821079 0.97285497 -1.2868702 10 0.12551412 0.052972645 0.99067652 9.5803305e-05
-3.6773746 0.9832865 -1.28623 9 0.12559056 0.053062543 0.9906621 9.7895543e-05
-3.6834126 0.99730968 -1.2894312 10 0.12562904 0.053010631 0.99065995 9.6899341e-05
-3.6789608 1.0064496 -1.2887909 9 0.12569411 0.053072281 0.99064845 9.7094788e-05
-3.6779628 1.0172238 -1.2894312 10 0.12573622 0.05280691 0.99065727 0.00010452748
-3.6802225 1.0303071 -1.2913519 11 0.12580962 0.05276696 0.99065012 0.00010478437
-3.6775129 1.0399376 -1.2913519 11 0.12582591 0.053012468 0.99063492 0.00011223078
-3.6742275 1.0514859 -1.2913519 10 0.12575936 0.053478096 0.99061835 0.00012777503
-3.6801915 1.0650167 -1.294553 13 0.12575261 0.053895336 0.99059653 0.00014575233
-3.6737535 1.0735842 -1.2932725 10 0.12577291 0.053867918 0.99059552 0.00014618874
-3.6758134 1.086732 -1.2951932 11 0.12574714 0.053914998 0.99059618 0.00015990739
-3.6691337 1.0959074 -1.2939129 12 0.12576 0.053803261 0.99060065 0.00016231123
-3.6696868 1.1072441 -1.2951932 11 0.12567595 0.054107971 0.99059469 0.00017079675
-3.6680024 1.1193216 -1.2958336 11 0.125477 0.054273978 0.9906109 0.00019257933
-3.6666732 1.1301168 -1.2964737 10 0.12545948 0.054128174 0.99062103 0.00019599212
-3.6653123 1.1409149 -1.297114 11 0.12535191 0.054446436 0.99061722 0.00020376689
-3.6637185 1.1523539 -1.2977543 10 0.12506306 0.05512007 0.99061656 0.00022645859
-3.6638947 1.1643672 -1.2990347 12 0.12501058 0.054983836 0.99063069 0.00023332066
-3.6660411 1.176331 -1.3009554 12 0.12435293 0.055895068 0.99066246 0.00027123402
-3.6625347 1.1872026 -1.3009554 10 0.12411063 0.056475386 0.99065995 0.00029021382
-3.6612146 1.1973772 -1.3015956 11 0.12412215 0.056401704 0.99066263 0.00029393297
-3.6628325 1.2106564 -1.3035163 10 0.12386876 0.057108171 0.99065387 0.00031526035
-3.664829 1.2226794 -1.305437 11 0.12379266 0.057295907 0.99065256 0.00032416993
-3.6631966 1.2335138 -1.3060774 10 0.1237413 0.057536114 0.99064511 0.00033263981
-3.6610973 1.2456256 -1.3067175 10 0.12343106 0.05822115 0.9906438 0.00035234593
-3.6611881 1.2570753 -1.3079979 10 0.12323765 0.059041928 0.9906193 0.00037374336
-3.6558733 1.2666743 -1.3073578 10 0.12327028 0.059320845 0.99059856 0.00037729816
-3.6572413 1.2800304 -1.3092785 10 0.12260094 0.060814474 0.99059105 0.00041355757
-3.6538773 1.2896018 -1.3092785 12 0.12241118 0.061103955 0.99059671 0.00042037916
-3.6518197 1.3010725 -1.3099186 12 0.12224291 0.061454304 0.99059576 0.00043331427
-3.6497266 1.3125435 -1.3105589 10 0.12210093 0.061913844 0.99058467 0.00044979682
-3.6478281 1.3233768 -1.3111992 11 0.12177462 0.062288769 0.99060136 0.00046512581
-3.6476774 1.33486 -1.3124797 11 0.12144712 0.063105777 0.99058986 0.00049326447
-3.6472554 1.346989 -1.31376 12 0.12094739 0.064605705 0.99055427 0.0005216212
-3.6414671 1.3571441 -1.3131199 11 0.120751 0.06453865 0.99058259 0.00053743273
-3.6376631 1.3673071 -1.3131199 10 0.12057622 0.065060154 0.99056983 0.00054400659
-3.6371336 1.3794383 -1.3144004 10 0.1201074 0.065623626 0.99058962 0.00056641502
-3.6403465 1.3922967 -1.3169613 10 0.1203697 0.06590087 0.99053931 0.00059537037
-3.6379669 1.4037738 -1.3176014 13 0.11989839 0.066386804 0.99056405 0.00061494985
-3.6320202 1.4138746 -1.3169613 13 0.11955704 0.06686838 0.99057293 0.00063571526
-3.6315849 1.4253963 -1.3182417 11 0.11933251 0.067376904 0.99056548 0.00065749564
-3.6275904 1.4355322 -1.3182417 13 0.11921567 0.067626573 0.99056262 0.00066624495
-3.6248226 1.4476237 -1.318882 14 0.11891128 0.068483263 0.99054033 0.00068146142
-3.6257837 1.4604974 -1.3208027 13 0.11891205 0.069174707 0.99049217 0.00070000399
-3.6184366 1.4685589 -1.3195223 14 0.11838115 0.069762453 0.99051458 0.00068716117
-3.6173122 1.4813547 -1.3208027 13 0.11800572 0.071002722 0.99047124 0.00070966652
-3.6189363 1.4923563 -1.3227233 13 0.11837041 0.07115262 0.99041694 0.00080055848
-3.6212277 1.5066298 -1.3252844 15 0.1182102 0.072394058 0.99034607 0.00081583095
-3.6094885 1.5150647 -1.3227233 21 0.11787352 0.07273066 0.99036163 0.00080722634
-3.6104784 1.5273532 -1.324644 30 0.11766982 0.073236153 0.99034852 0.00082154112
-3.606199 1.5374299 -1.324644 30 0.11748847 0.073578842 0.9903447 0.00083384709
-3.6033626 1.5488714 -1.3252844 29 0.11713152 0.074028045 0.99035347 0.00084095454
-3.6010342 1.5590519 -1.3259245 29 0.11695147 0.074511632 0.9903385 0.00085202983
-3.5981286 1.5704883 -1.3265647 30 0.11690672 0.074525222 0.99034274 0.00088434527
-3.5949118 1.5825474 -1.3272051 30 0.11670601 0.075245656 0.99031198 0.00089924596
-3.5942204 1.5934886 -1.3284855 29 0.11659583 0.075889908 0.9902758 0.00090627081
-3.5894761 1.604147 -1.3284855 30 0.11641159 0.076121546 0.99027973 0.00092156645
-3.5878742 1.6169721 -1.3297659 26 0.11616949 0.076886274 0.99024904 0.00093912048
-3.5908146 1.6288654 -1.3323269 16 0.11573515 0.077621467 0.99024254 0.00094687584
-3.5925717 1.6432909 -1.3348877 14 0.11548299 0.078441754 0.99020731 0.00096220587
-3.5894008 1.6547365 -1.3355281 14 0.11538364 0.079273731 0.99015266 0.00096419436
-3.5867753 1.6649251 -1.3361683 14 0.11514153 0.079574667 0.99015671 0.00097945647
-3.5866754 1.6785948 -1.338089 14 0.11460347 0.080444612 0.99014884 0.00098948926
-3.5819743 1.6886034 -1.338089 14 0.11429866 0.080772728 0.99015731 0.0009993905
-3.5755329 1.6977869 -1.3374487 15 0.11428074 0.080685928 0.99016654 0.001017667
-3.5756073 1.710842 -1.3393694 15 0.11382497 0.081614621 0.99014294 0.0010295117
-3.572222 1.7222667 -1.3400097 15 0.11382642 0.082288504 0.99008697 0.0010263947
-3.5725119 1.7347186 -1.3419305 15 0.11368279 0.082883812 0.99005377 0.0010268837
-3.5758591 1.7494735 -1.3451315 15 0.11280195 0.083973721 0.99006271 0.0010357468
-3.5740516 1.7617514 -1.3464121 23 0.11264734 0.084558696 0.99003047 0.0010400119
-3.5779135 1.7753133 -1.3496132 24 0.11223198 0.085464671 0.98999983 0.0010356628
-3.5706241 1.7856966 -1.3489729 24 0.11219486 0.085788727 0.98997611 0.0010376037
-3.5707004 1.7982178 -1.3508937 32 0.11209568 0.086392738 0.98993474 0.0010421947
-3.5690444 1.809896 -1.352174 48 0.11193171 0.087119728 0.98988962 0.0010396905
-3.5684023 1.8236865 -1.3540947 51 0.11175388 0.087935418 0.98983753 0.0010394688
-3.5582411 1.8310436 -1.352174 45 0.11239912 0.088087723 0.98975098 0.0010357311
-3.556479 1.8427167 -1.3534546 32 0.11253434 0.088293687 0.9897173 0.0010283447
-3.5540318 1.8556337 -1.3547351 26 0.11240972 0.08876507 0.98968929 0.0010325001
-3.5471587 1.8646698 -1.3540947 28 0.11302511 0.088699736 0.98962504 0.00103744
-3.5369134 1.8719093 -1.352174 16 0.1136384 0.088659599 0.9895584 0.0010458536
-3.5380325 1.8859599 -1.3547351 23 0.11350554 0.088991657 0.9895438 0.0010550672
-3.5464406 1.9023815 -1.359857 22 0.11223827 0.089463644 0.98964584 0.0010381786
-3.5467792 1.9177363 -1.3624178 19 0.11220085 0.089813113 0.98961842 0.0010594924
-3.5513954 1.9330686 -1.3662592 22 0.11202218 0.090069354 0.98961532 0.001079883
-3.5579553 1.9487305 -1.3707409 22 0.11163817 0.090323366 0.98963559 0.0011001765
