# .PCD v0.7 - Point Cloud Data file format
VERSION 0.7
FIELDS x y z intensity normal_x normal_y normal_z curvature
SIZE 4 4 4 4 4 4 4 4
TYPE F F F F F F F F
COUNT 1 1 1 1 1 1 1 1
WIDTH 245
HEIGHT 1
VIEWPOINT 0 0 0 1 0 0 0
POINTS 245
DATA ascii
-2.4796119 2.3770308 -1.5293299 41 0.1140828 0.095043987 0.98891443 0.00081240054
-2.4900646 2.4004307 -1.5399051 35 0.11380359 0.095351562 0.98891699 0.00079531752
-2.487287 2.4111903 -1.5423455 37 0.11404291 0.09546724 0.98887825 0.00079114398
-2.4479403 2.4148405 -1.5309567 33 0.11465915 0.09512642 0.98883981 0.0008130304
-2.4875469 2.4266477 -1.5472262 39 0.11408591 0.095256343 0.98889363 0.00079830672
-2.4850986 2.4369895 -1.5496666 39 0.11408386 0.09520863 0.98889846 0.0007925735
-2.4602187 2.4413974 -1.5431589 35 0.1147468 0.09509138 0.98883307 0.00079794356
-2.4413867 2.4499226 -1.5399051 45 0.11503028 0.095151581 0.98879433 0.00080319057
-2.4594295 2.4551406 -1.5472262 39 0.11481784 0.094997056 0.9888339 0.0007972832
-2.4349632 2.4588788 -1.5407184 43 0.11517663 0.094993465 0.98879248 0.00080906576
-2.4357791 2.47348 -1.5455993 41 0.11509719 0.094724014 0.98882765 0.00081206998
-2.4454813 2.4972422 -1.5561745 41 0.11521789 0.094814502 0.98880488 0.00081008271
-2.4508057 2.5175791 -1.5643092 37 0.11522467 0.094732806 0.98881191 0.00081302901
-2.4496775 2.5314054 -1.5683765 35 0.11517508 0.094585672 0.98883176 0.00081977854
-2.4009569 2.5098245 -1.5464128 75 0.11535431 0.094532773 0.98881596 0.00084053952
-2.4552689 2.5514002 -1.5765113 48 0.11512722 0.094470918 0.98884833 0.00081797614
-2.4115689 2.5350525 -1.5578014 61 0.11524857 0.094166681 0.98886317 0.00083000021
-2.3600986 2.4957337 -1.5293299 41 0.11488256 0.094596937 0.98886472 0.00083044945
-2.4377806 2.5932488 -1.584646 47 0.11483569 0.09365885 0.98895937 0.00084698311
-2.4405107 2.6107244 -1.5911539 41 0.11459516 0.093096629 0.98904037 0.00086280599
-2.4108188 2.5934417 -1.5765113 43 0.11488611 0.093487054 0.98896986 0.00084207777
-2.395221 2.5929501 -1.5716305 47 0.11498298 0.093141951 0.98899114 0.000846671
-2.3953872 2.6077015 -1.5765113 40 0.11470158 0.092469461 0.98908693 0.00084894814
-2.4250629 2.6548512 -1.6009154 34 0.11494535 0.091081522 0.98918742 0.00089977059
-2.4277625 2.6746328 -1.6082368 43 0.11506026 0.089907035 0.98928154 0.00091973878
-2.4146295 2.6741991 -1.6041694 38 0.11469425 0.089929365 0.98932195 0.00091134978
-2.4005823 2.6745534 -1.6001021 36 0.11429878 0.09012603 0.98934984 0.00091534469
-2.3873038 2.6766274 -1.5968481 41 0.11405317 0.089763537 0.98941112 0.00094133551
-2.3892467 2.6920176 -1.6025425 41 0.11419126 0.088228516 0.98953331 0.00098653091
-2.3795683 2.6981406 -1.601729 36 0.11410619 0.087316059 0.98962402 0.0010109756
-2.3715527 2.7051888 -1.601729 37 0.11428611 0.086895846 0.98964024 0.0010195171
-2.3567853 2.7035375 -1.5968481 36 0.11427138 0.087134846 0.98962092 0.0010253569
-2.3408492 2.7004442 -1.5911539 36 0.11445763 0.08729434 0.98958534 0.0010240538
-2.319313 2.7069442 -1.5870864 36 0.11430363 0.087095186 0.98962063 0.0010500773
-2.3136399 2.7165966 -1.5887134 43 0.11419185 0.086489365 0.98968673 0.0010639918
-2.3033617 2.737267 -1.5927807 38 0.11426879 0.085369468 0.98977506 0.0010803002
-2.2866814 2.7011368 -1.5756978 41 0.1135705 0.087199286 0.98969597 0.0010323543
-2.3032229 2.7516952 -1.5976616 36 0.11456148 0.084282659 0.98983437 0.0011119024
-2.2802832 2.7731006 -1.5984751 38 0.11390421 0.082399748 0.99006873 0.0011515392
-2.3167653 2.7856069 -1.6131176 41 0.11414719 0.082030542 0.99007142 0.0011418274
-2.2912126 2.8043032 -1.6123041 37 0.11398227 0.080854863 0.99018711 0.0011561702
-2.2454131 2.7967253 -1.5968481 41 0.11349544 0.081025384 0.99022913 0.0011557653
-2.276006 2.8166592 -1.6123041 47 0.11415503 0.07983125 0.99025029 0.0011844299
-2.2891333 2.8177807 -1.6163715 36 0.11425409 0.079332396 0.99027896 0.0011703944
-2.316453 2.8001091 -1.6179985 36 0.11401896 0.080957644 0.99017447 0.0011537597
-2.2574649 2.8268661 -1.6106772 41 0.11407305 0.07871943 0.99034876 0.0011978183
-2.260427 2.847862 -1.618812 47 0.11422997 0.076869898 0.99047589 0.00118706
-2.2571266 2.8621223 -1.6228793 52 0.11401752 0.075965211 0.99057019 0.0011849845
-2.2620287 2.883836 -1.6318275 47 0.11407775 0.07498429 0.99063796 0.0011995055
-2.2534628 2.8905344 -1.6318275 66 0.11425786 0.074853383 0.99062717 0.001196739
-2.2086627 2.8835914 -1.6171849 61 0.11484642 0.075689547 0.9904955 0.0012086378
-2.1959214 2.9024754 -1.6204388 32 0.11477706 0.075062424 0.99055129 0.0012204194
-2.2101855 2.8524351 -1.6066098 87 0.11435156 0.077295348 0.99042881 0.0011897465
-2.1884313 2.926399 -1.6269466 37 0.11491665 0.072938018 0.99069381 0.0012385746
-2.2042828 2.9304979 -1.6326411 43 0.11496887 0.072572708 0.99071455 0.0012351359
-2.1775584 2.9299474 -1.6253197 38 0.11498574 0.072863758 0.99069124 0.0012383847
-2.1626778 2.9635971 -1.6334544 40 0.11495226 0.071089402 0.99082404 0.0012323312
-2.1463673 2.9596469 -1.6277602 40 0.11471869 0.071675852 0.9908089 0.001240459
-2.1455531 2.9059064 -1.6082368 37 0.11402205 0.075704083 0.99058968 0.0012033556
-2.1396792 2.9667385 -1.6285735 41 0.11459658 0.071582645 0.99082977 0.0012441219
-2.1260924 2.9675047 -1.6253197 41 0.1143593 0.071521819 0.99086154 0.0012480755
-2.1357746 2.9085691 -1.6066098 41 0.11383856 0.075529955 0.99062407 0.0011995943
-2.1416521 3.0080323 -1.6440296 38 0.11509044 0.068375416 0.99099898 0.0012275813
-2.1379919 3.019594 -1.6472834 40 0.11532684 0.067317046 0.99104398 0.001236211
-2.1337514 3.0337679 -1.651351 40 0.1156089 0.066188663 0.99108714 0.0012403153
-2.124223 3.0382175 -1.6505374 41 0.11572282 0.066124164 0.99107814 0.0012410673
-2.1125841 3.0418746 -1.6489105 40 0.11587425 0.066171512 0.99105728 0.0012489995
-2.0931923 3.0308568 -1.6399622 47 0.11525267 0.067687035 0.99102736 0.0012528693
-2.0883245 3.0430806 -1.643216 52 0.11554227 0.066691481 0.99106121 0.0012611225
-2.0993819 3.0775778 -1.6586721 43 0.11638381 0.063866891 0.99114871 0.0012324702
-2.0943425 3.0898426 -1.6619259 41 0.11677435 0.063262068 0.99114156 0.001224817
-2.095371 3.1111984 -1.6700609 52 0.1173274 0.062368337 0.99113292 0.00123371
-2.0815933 3.1094456 -1.6659933 38 0.11739415 0.062593788 0.99111074 0.0012142506
-2.0592027 3.0958321 -1.6554182 41 0.11703479 0.064135641 0.99105471 0.0012201257
-2.0590749 3.1156464 -1.6627395 41 0.11733922 0.062838383 0.9911018 0.001220152
-2.0498223 3.1217418 -1.6627395 41 0.1175551 0.062806673 0.99107826 0.0012083618
-2.050631 3.1408672 -1.6700609 47 0.11797164 0.061610404 0.99110389 0.0012026724
-2.0452807 3.1530688 -1.6733147 47 0.11832673 0.061050862 0.99109614 0.0012036683
-2.0374584 3.1603031 -1.6741281 41 0.11848993 0.06058969 0.99110496 0.0011918329
-2.00683 3.1343758 -1.6570452 41 0.11711013 0.063150212 0.99110913 0.0011914239
-1.99906 3.1609766 -1.66518 41 0.11759584 0.061372083 0.99116331 0.001182349
-1.9980022 3.1789224 -1.6716876 47 0.11800969 0.060588621 0.9911623 0.001176396
-1.99807 3.1399674 -1.6570452 40 0.11718942 0.063356467 0.9910866 0.0011909924
-1.9978292 3.198436 -1.679009 36 0.11824714 0.058617033 0.99125254 0.001165893
-1.9682679 3.1931264 -1.6700609 41 0.11776432 0.059958313 0.99122983 0.0011683014
-1.9916241 3.2109067 -1.6822628 36 0.11858272 0.057592921 0.99127251 0.0011639493
-1.9517088 3.1861458 -1.6635529 40 0.11689822 0.061231177 0.99125451 0.0011808979
-1.9359933 3.1828949 -1.6586721 36 0.11712483 0.061561972 0.9912073 0.0011818311
-1.9106603 3.1811283 -1.6521643 43 0.11697359 0.062415868 0.99117178 0.0011585014
-1.9208702 3.219734 -1.6692473 43 0.11766509 0.059571233 0.99126494 0.0011516913
-1.9125267 3.1629374 -1.6456565 29 0.11672094 0.063412473 0.99113828 0.001148833
-1.9107463 3.2257524 -1.6692473 43 0.11788461 0.059559975 0.99123949 0.0011448546
-1.9022952 3.2307434 -1.6692473 45 0.11801086 0.059314832 0.99123925 0.001132048
-1.8908554 3.2332199 -1.6676204 48 0.11811074 0.059367616 0.99122417 0.0011244511
-1.896507 3.263763 -1.6806358 43 0.11874383 0.056221779 0.99133193 0.0011070225
-1.8574387 3.2630479 -1.6716876 39 0.11881283 0.057907656 0.99122661 0.0010774889
-1.8771058 3.2749596 -1.6806358 39 0.11884747 0.055855058 0.99134022 0.001088522
-1.8926361 3.2807829 -1.6863303 43 0.12010542 0.053701013 0.99130762 0.0010728419
-1.8497883 3.2694902 -1.6725011 41 0.11858664 0.057434771 0.99128127 0.0010728983
-1.8311301 3.2590351 -1.6643664 48 0.11848588 0.058988422 0.991202 0.0010687031
-1.8271132 3.2759414 -1.6700609 43 0.11868844 0.057608932 0.99125892 0.0010623781
-1.8256158 3.2934983 -1.6765685 45 0.11906259 0.055830266 0.99131584 0.0010431997
-1.7928948 3.280225 -1.6643664 45 0.11818902 0.058145393 0.99128723 0.0010384419
-1.826409 3.3181078 -1.6863303 45 0.1192297 0.053129975 0.99144411 0.0010101569
-1.7962281 3.3096175 -1.6765685 45 0.11874271 0.055123612 0.99139374 0.0010136471
-1.7832211 3.3062677 -1.6725011 41 0.11849362 0.055729352 0.99138969 0.0009995302
-1.7590283 3.2860811 -1.6594857 48 0.11770329 0.057764664 0.99136728 0.0010227324
-1.7744451 3.3358407 -1.6822628 41 0.11876238 0.053206127 0.99149615 0.00098193344
-1.7548823 3.3482361 -1.6830763 41 0.11855941 0.053236872 0.99151874 0.00097980164
-1.7553947 3.3706443 -1.6920246 43 0.11936013 0.052028578 0.99148691 0.00097561581
-1.7445475 3.3742144 -1.691211 41 0.11908482 0.052397948 0.9915005 0.00096778665
-1.7412019 3.3923805 -1.6977189 41 0.120616 0.049705125 0.99145412 0.00093464827
-1.7852817 3.3817925 -1.7025998 41 0.12236556 0.047499187 0.99134785 0.00093155564
-1.7247051 3.4069419 -1.7001593 45 0.12101139 0.049693409 0.9914065 0.00091298576
-1.7077973 3.3970535 -1.692838 48 0.11956156 0.052692886 0.99142748 0.00096331304
-1.7433389 3.4200182 -1.7091074 45 0.12289299 0.047602054 0.99127764 0.00091308646
-1.6735686 3.4282842 -1.6985322 40 0.12181448 0.051736582 0.99120355 0.00091210305
-1.653034 3.4625442 -1.708294 36 0.12319995 0.05071919 0.99108499 0.00088252249
-1.6787162 3.4664135 -1.7148017 41 0.12332246 0.049689941 0.99112183 0.0008989796
-1.668052 3.4675033 -1.7131749 40 0.12337872 0.050187923 0.99108976 0.00089959422
-1.6277062 3.4341269 -1.6920246 37 0.121269 0.054147832 0.99114174 0.0008837225
-1.6223518 3.4507976 -1.6977189 43 0.12187881 0.052892335 0.99113464 0.00087475852
-1.6335719 3.5000169 -1.7196826 41 0.12367464 0.05045313 0.9910394 0.00086570706
-1.6085919 3.4733477 -1.7042266 36 0.12278491 0.051667754 0.9910875 0.00085661287
-1.5994937 3.4775467 -1.7042266 38 0.12228405 0.05171923 0.99114662 0.00086600403
-1.6119242 3.5321431 -1.7286308 40 0.12459279 0.048889413 0.9910028 0.00081257266
-1.606847 3.5505061 -1.7351387 36 0.1254364 0.048078518 0.99093604 0.00081780506
-1.5862478 3.5577567 -1.7343252 41 0.12534207 0.048411157 0.99093175 0.00080997637
-1.6027896 3.566366 -1.7408329 32 0.12583593 0.047409821 0.99091756 0.00080445275
-1.584554 3.5824983 -1.7440867 56 0.12609228 0.047338102 0.99088842 0.00081960281
-1.5659801 3.5946426 -1.7457138 41 0.12548092 0.047464341 0.99095994 0.00081462652
-1.5797894 3.6005695 -1.7505946 47 0.12650581 0.046821568 0.99086022 0.00081256474
-1.5496089 3.5878029 -1.7400194 47 0.12491914 0.048537031 0.99097902 0.00080869725
-1.5539798 3.6257031 -1.756289 41 0.12637913 0.046901468 0.99087262 0.0008300544
-1.5452778 3.6333911 -1.7579157 37 0.12649094 0.046903785 0.99085826 0.00083126291
-1.5323609 3.6329093 -1.7554753 41 0.12572159 0.047113862 0.99094623 0.00086736877
-1.5166403 3.6256409 -1.749781 40 0.12418205 0.048234269 0.99108642 0.00086386746
-1.5033817 3.6529019 -1.7587293 41 0.12417514 0.047046255 0.99114442 0.00088196987
-1.4765983 3.6164894 -1.7392058 43 0.12202016 0.049825456 0.9912762 0.00089675363
-1.4910265 3.5907893 -1.7310711 61 0.12144944 0.050190937 0.99132782 0.00088694069
-1.4673638 3.6557086 -1.7538486 41 0.12194338 0.047145672 0.99141669 0.00093089422
-1.4326868 3.657666 -1.7489676 47 0.12215547 0.047056403 0.99139482 0.0009208683
-1.4686378 3.6886497 -1.7676775 40 0.12252112 0.045629822 0.99141639 0.00097791711
-1.4238336 3.6689618 -1.7522215 36 0.12209551 0.046742357 0.99141711 0.00093532645
-1.4109879 3.6700068 -1.7505946 36 0.12211205 0.046796627 0.99141246 0.00092569279
-1.463701 3.706331 -1.7741852 47 0.12298705 0.045649886 0.9913578 0.00099048077
-1.3846872 3.691721 -1.7554753 47 0.1222344 0.0464532 0.99141359 0.00095047842
-1.4014542 3.706883 -1.7644237 40 0.12242427 0.046408851 0.9913922 0.00095915288
-1.3788079 3.7114677 -1.7627966 40 0.12229879 0.046320766 0.99141181 0.00097642594
-1.3779112 3.7410209 -1.7749988 38 0.12264232 0.046145432 0.99137753 0.0009853408
-1.3680308 3.7504804 -1.7774392 41 0.12224218 0.046411529 0.99141455 0.0010104418
-1.3563412 3.7488952 -1.7749988 40 0.12193789 0.046412155 0.99145204 0.0010082996
-1.3495283 3.7649422 -1.7806932 47 0.12181303 0.046562169 0.99146032 0.0010224117
-1.3328478 3.7534344 -1.7733718 47 0.12165048 0.046485294 0.99148387 0.0010402867
-1.3242311 3.7603574 -1.7749988 37 0.12177709 0.046653479 0.9914605 0.0010442103
-1.3094583 3.7539189 -1.770118 41 0.1219783 0.046804629 0.99142855 0.001046353
-1.3083917 3.7891009 -1.7847604 41 0.12190241 0.045950688 0.99147785 0.0011216066
-1.3013551 3.8031116 -1.7896413 43 0.12208924 0.046224821 0.99144214 0.0011482172
-1.2896338 3.8013148 -1.7872008 47 0.12200521 0.046310004 0.99144846 0.0011462366
-1.2781826 3.8090353 -1.7888279 47 0.12190356 0.046273518 0.99146271 0.0011844072
-1.2722439 3.8245039 -1.7945222 52 0.12193603 0.046185311 0.99146283 0.0012097522
-1.264321 3.8386743 -1.7994031 43 0.1222864 0.046190616 0.99141943 0.0012156467
-1.246694 3.8233008 -1.7904549 40 0.12205508 0.046440333 0.99143624 0.0012146105
-1.2326437 3.8163354 -1.785574 38 0.12235991 0.04656262 0.99139303 0.0012001129
-1.2286611 3.8406456 -1.7953355 47 0.12305685 0.046667695 0.99130172 0.0012254778
-1.2121801 3.8305509 -1.7888279 52 0.12255785 0.046982005 0.99134874 0.0012225127
-1.2010547 3.830224 -1.7872008 56 0.12269049 0.047118537 0.9913258 0.0012216504
-1.1907669 3.8372614 -1.7888279 56 0.12284159 0.047138013 0.99130619 0.0012223601
-1.1804496 3.8442705 -1.7904549 56 0.12289188 0.047149848 0.99129939 0.0012330607
-1.1728972 3.8580408 -1.7953355 36 0.1231603 0.047338445 0.99125713 0.0012470812
-1.1679119 3.8805463 -1.8042839 37 0.12366408 0.048357338 0.99114513 0.0012674911
-1.1588421 3.8947031 -1.8091648 37 0.12378549 0.046938371 0.99119824 0.0014060918
-1.1515735 3.9101932 -1.814859 52 0.12432369 0.047098245 0.99112326 0.0014220804
-1.1432067 3.922164 -1.8189263 52 0.12480517 0.046834368 0.99107528 0.0014408571
-1.133263 3.9288521 -1.8205533 47 0.12493692 0.047072697 0.99104738 0.0014579056
-1.1215997 3.9321978 -1.8205533 40 0.12512945 0.046667516 0.99104226 0.001473006
-1.1114162 3.9407835 -1.8229938 41 0.12485573 0.046379924 0.9910903 0.0015155866
-1.0908846 3.9123845 -1.8083512 41 0.12559883 0.047150392 0.99096 0.0015092175
-1.086271 3.9383128 -1.8189263 36 0.12566674 0.046581279 0.9909783 0.0015445817
-1.0743741 3.9434683 -1.8197397 38 0.12616427 0.046861853 0.99090183 0.0015501322
-1.0718753 3.972542 -1.831942 40 0.12631311 0.045803156 0.99093246 0.0016041601
-1.0468861 3.9735322 -1.8295015 41 0.12663887 0.045714054 0.99089497 0.0016089368
-1.0608001 3.9811864 -1.8343823 56 0.1265575 0.04533739 0.99092263 0.0016100737
-1.0353166 3.9803386 -1.8311285 43 0.12714538 0.045530297 0.99083859 0.0016104818
-1.0269281 3.9938312 -1.8360094 47 0.12727298 0.044545863 0.99086696 0.0016473999
-1.0078765 3.9685268 -1.8229938 47 0.12719919 0.046462629 0.99078834 0.0016255018
-1.0046058 3.9995046 -1.8360094 61 0.12801757 0.045152836 0.99074358 0.0016495446
-0.99229544 4.0006938 -1.8351958 41 0.12824394 0.045331024 0.99070609 0.0016395334
-0.97998691 4.0018454 -1.8343823 41 0.12833975 0.045613036 0.99068075 0.0016708282
-0.97181404 4.0169978 -1.8400767 38 0.12844366 0.045791447 0.99065906 0.0016600563
-0.96413338 4.0376353 -1.8482114 41 0.1284228 0.044360846 0.99072689 0.001704694
-0.94963735 4.0298066 -1.8433305 40 0.12840994 0.04512278 0.99069411 0.0017194954
-0.93850297 4.0361667 -1.8449575 38 0.12841414 0.04452708 0.99072051 0.001722039
-0.93079776 4.0510745 -1.8506517 41 0.1290374 0.044041179 0.99066126 0.0017867348
-0.89956731 4.0244312 -1.8360094 40 0.1292714 0.046583857 0.99051446 0.0016585628
-0.89548695 4.0627685 -1.8522788 41 0.13056037 0.044808373 0.99042732 0.0017936464
-0.90152174 3.9809179 -1.8172995 47 0.12952074 0.046196919 0.99050003 0.0016404715
-0.8868587 4.0777497 -1.8579731 40 0.13116154 0.043238871 0.99041766 0.0019632771
-0.87278372 4.0677061 -1.8522788 38 0.13089073 0.045189645 0.9903664 0.0017934166
-0.86558324 4.0897894 -1.8612269 36 0.13148579 0.042369146 0.99041218 0.0021452575
-0.8534767 4.096066 -1.862854 34 0.13211694 0.040358469 0.99041218 0.0026055642
-0.84276909 4.1020126 -1.8644809 40 0.13271408 0.040792312 0.99031454 0.0026140818
-0.83348781 4.1150947 -1.8693616 41 0.13303855 0.039001599 0.99034321 0.0027067265
-0.81841481 4.0994887 -1.8612269 43 0.13269544 0.041679174 0.99028015 0.0025942684
-0.80201191 4.0841112 -1.8530922 40 0.13202788 0.044694059 0.99023789 0.0021107029
-0.79476935 4.1078606 -1.862854 41 0.13326992 0.04160621 0.99020606 0.0026193731
-0.78637201 4.1262174 -1.8701751 43 0.13405263 0.038985729 0.99020708 0.0030967698
-0.77542442 4.139442 -1.875056 43 0.13559793 0.038997002 0.98999619 0.0031496808
-0.76446223 4.1489124 -1.8783098 43 0.13602729 0.038557436 0.98995453 0.0031951407
-0.75131381 4.1383152 -1.8726156 47 0.13566257 0.039884213 0.98995203 0.0031335494
-0.74127793 4.1531172 -1.8783098 36 0.13638715 0.039423663 0.98987085 0.0032016616
-0.73252219 4.1713667 -1.8856311 52 0.13792345 0.036246363 0.98977941 0.0034094758
-0.71103495 4.1250329 -1.8636674 43 0.13651429 0.040856175 0.98979527 0.0031294674
-0.70317572 4.1486201 -1.8734292 47 0.13753332 0.04115209 0.9896419 0.0031621133
-0.68714303 4.1327848 -1.8652945 41 0.13769807 0.04152941 0.98960322 0.0031224873
-0.65477115 4.1528349 -1.8718021 38 0.13904501 0.042193208 0.9893868 0.0031883228
-0.68649173 4.1921496 -1.8913255 41 0.14057773 0.036080919 0.98941201 0.0034727522
-0.64624906 4.1745076 -1.8807503 37 0.13985592 0.040449109 0.98934537 0.0033820912
-0.63440734 4.1800203 -1.8823773 34 0.14028962 0.040107962 0.98929781 0.0033857268
-0.61993068 4.172956 -1.8783098 37 0.14072883 0.041937809 0.98915958 0.0032108244
-0.67244834 4.1888738 -1.888885 37 0.1408328 0.036998872 0.98934186 0.0034125885
-0.61117369 4.1945591 -1.8872582 41 0.14165987 0.03976981 0.98911613 0.0034317547
-0.59682786 4.1726317 -1.876683 40 0.14151765 0.042344239 0.98902965 0.0032304947
-0.58295399 4.1690578 -1.8742425 36 0.14129715 0.044049583 0.98898673 0.0028869971
-0.57676739 4.2104936 -1.8921391 40 0.14371257 0.039787009 0.98881936 0.0034185208
-0.56354308 4.2067537 -1.8896986 37 0.14415175 0.039978165 0.98874772 0.0034098299
-0.54797381 4.1848564 -1.8791234 34 0.14163661 0.044549569 0.9889158 0.0029297406
-0.53884178 4.2063046 -1.8880715 40 0.14309041 0.041294355 0.98884773 0.0034196607
-0.5298174 4.2295485 -1.8978333 40 0.14474559 0.039977808 0.98866093 0.0034661712
-0.51696885 4.2348194 -1.8994602 41 0.14529879 0.039503332 0.98859888 0.003477606
-0.50566435 4.234344 -1.8986467 33 0.14517985 0.039770953 0.98860556 0.003424898
-0.49542332 4.2557888 -1.9075949 40 0.145778 0.039041106 0.98854667 0.0034631577
-0.45607173 4.2326217 -1.8953929 34 0.1451187 0.044269908 0.98842335 0.0030354091
-0.48649862 4.2899184 -1.9222375 47 0.1476181 0.037659697 0.98832721 0.0036445786
-0.47411612 4.2876282 -1.9206104 41 0.14812979 0.037193991 0.98826826 0.0036424184
-0.44787565 4.2684035 -1.910849 34 0.14717749 0.039250698 0.98833108 0.0034579088
-0.43834671 4.3079615 -1.9279318 38 0.14826357 0.03677956 0.98826373 0.0036925641
-0.41078526 4.2739682 -1.9116623 43 0.14631106 0.041443884 0.98837012 0.0031404425
-0.42595387 4.3055325 -1.9263048 47 0.14785649 0.037370484 0.98830253 0.0036224257
-0.40013394 4.296999 -1.921424 37 0.1460575 0.039002117 0.98850697 0.0032012153
-0.39000547 4.3272824 -1.9344395 37 0.14767103 0.036242012 0.98837227 0.0036330572
-0.37605503 4.3156796 -1.9287452 43 0.14624336 0.038580924 0.98849607 0.0032661888
-0.36123928 4.2839417 -1.9141028 24 0.14614922 0.041107737 0.98840809 0.003179095
-0.32425466 4.2923965 -1.9165432 40 0.14476892 0.042282011 0.98856163 0.0029294461
-0.31319326 4.3060412 -1.9222375 38 0.1437635 0.041002959 0.98876226 0.0030238167
