# .PCD v0.7 - Point Cloud Data file format
VERSION 0.7
FIELDS x y z intensity normal_x normal_y normal_z curvature
SIZE 4 4 4 4 4 4 4 4
TYPE F F F F F F F F
COUNT 1 1 1 1 1 1 1 1
WIDTH 112
HEIGHT 1
VIEWPOINT 0 0 0 1 0 0 0
POINTS 112
DATA ascii
-6.6785402 -9.5061283 -0.81238389 6 0.041460577 0.056983426 -0.99751389 0
-6.6975021 -9.473238 -0.81126773 7 0.041287802 0.056818027 -0.99753046 0
-6.7211223 -9.4540453 -0.81112826 8 0.041102678 0.056651581 -0.99754757 0
-6.7333732 -9.4085474 -0.8090356 6 0.041214425 0.056608252 -0.99754542 0
-6.7461033 -9.3674803 -0.80722189 6 0.041539915 0.056660343 -0.99752897 0
-6.7600732 -9.3352432 -0.80596632 6 0.042506956 0.056990579 -0.99746943 0
-6.7771649 -9.3006334 -0.80471069 6 0.044041395 0.057485413 -0.99737448 0
-6.7936759 -9.2687979 -0.80359459 6 0.046743643 0.058365472 -0.99720031 0
-6.804142 -9.2289133 -0.80178088 5 0.047271937 0.058520209 -0.9971664 0
-6.8164549 -9.1850643 -0.79982775 6 0.048341509 0.058800768 -0.99709857 0
-6.8384976 -9.1611958 -0.79940921 5 0.050496452 0.059569184 -0.99694616 0
-6.8568673 -9.1324911 -0.79857212 6 0.051596962 0.059877709 -0.99687135 0
-6.8743129 -9.09937 -0.79745597 7 0.054340113 0.060787912 -0.99667048 0
-6.9036965 -9.0821104 -0.79773504 8 0.053950503 0.060519051 -0.99670798 0
-6.9157 -9.0453625 -0.79620039 7 0.053749036 0.060291111 -0.99673265 0
-6.9339929 -9.0137339 -0.79522383 6 0.05370722 0.060184173 -0.99674135 0
-6.9484949 -8.9773417 -0.79382867 7 0.052924391 0.059731927 -0.9968105 0
-6.9621725 -8.9465237 -0.79271257 7 0.054853909 0.06070758 -0.99664724 0
-6.9816308 -8.9136124 -0.79173595 7 0.055556241 0.061123915 -0.99658281 0
-6.996932 -8.8787575 -0.79048038 6 0.057191193 0.062095542 -0.99643034 0
-7.011785 -8.8466749 -0.78936428 6 0.057448 0.062246468 -0.99640614 0
-7.0292959 -8.8149118 -0.78838772 7 0.058538858 0.062944479 -0.99629873 0
-7.0426502 -8.7812395 -0.78713202 7 0.058971789 0.06321802 -0.99625593 0
-7.057672 -8.7435465 -0.78573692 7 0.057930902 0.062628068 -0.99635428 0
-7.0702181 -8.7154284 -0.78476036 7 0.057755519 0.062528975 -0.99637067 0
-7.0887284 -8.6823559 -0.78378373 7 0.057830255 0.062593468 -0.99636221 0
-7.102818 -8.6501913 -0.78266764 7 0.057485428 0.062353812 -0.9963972 0
-7.1282172 -8.6318607 -0.78280711 8 0.056538545 0.061729465 -0.9964903 0
-7.1450973 -8.5971508 -0.78169101 7 0.055894427 0.061245244 -0.99655652 0
-7.160121 -8.5664482 -0.78071445 6 0.055676304 0.061052591 -0.99658054 0
-7.1737461 -8.5342026 -0.77959836 7 0.055392507 0.060820945 -0.99661046 0
-7.1962605 -8.5126133 -0.77945888 8 0.055339783 0.060752444 -0.99661762 0
-7.2074566 -8.4717255 -0.77778471 7 0.055268224 0.060661666 -0.99662703 0
-7.236629 -8.4520741 -0.77806371 8 0.054860216 0.060327306 -0.99667001 0
-7.2533541 -8.4298306 -0.77764517 7 0.054435294 0.060004305 -0.99671268 0
-7.2784982 -8.4054909 -0.7775057 7 0.054413095 0.059969276 -0.99671602 0
-7.2860684 -8.3698559 -0.775971 11 0.054533537 0.060049061 -0.9967047 0
-7.3069272 -8.3436975 -0.77555251 10 0.10253622 0.083021492 0.99125874 0.00077560957
-7.3329682 -8.3234787 -0.77569199 8 0.10034337 0.084629931 0.99134707 0.00078068103
-7.3577604 -8.2989063 -0.77555251 9 0.098656252 0.086499959 0.991355 0.00077369699
-7.3729401 -8.2693911 -0.77471542 9 0.099941231 0.091011517 0.99082214 0.00072488148
-7.3933368 -8.2458019 -0.77443635 9 0.10074245 0.092778452 0.99057716 0.00068201381
-7.4177723 -8.2238274 -0.77443635 8 0.099765971 0.096969664 0.99027449 0.00063447381
-7.4365954 -8.2014236 -0.77415735 10 0.099657662 0.097029887 0.9902795 0.0006110071
-7.4650135 -8.1809683 -0.77443635 10 0.098534122 0.097749189 0.99032128 0.00057356531
-7.4946513 -8.1646614 -0.77499443 9 0.097079083 0.097746752 0.9904651 0.00055901037
-7.5187078 -8.1479445 -0.77527344 10 0.092910923 0.094656438 0.9911648 0.00053996511
-7.5427895 -8.1283779 -0.77541292 9 0.080988258 0.083042748 0.9932496 0.00050486054
-7.5710649 -8.1047792 -0.77555251 8 0.081740715 0.084279865 0.99308372 0.00049467734
-7.5908899 -8.0834761 -0.77541292 8 0.050423559 0.053493746 -0.99729431 1.7261251e-06
-7.6175795 -8.0638208 -0.77569199 9 0.049214449 0.051944595 -0.99743646 2.7060423e-06
-7.6442213 -8.044076 -0.775971 10 -0.047988228 -0.050390556 0.997576 1.5604552e-06
-7.6680107 -8.0269194 -0.77625 10 -0.046617769 -0.048707142 0.99772459 1.6394938e-06
-7.7000885 -8.012764 -0.77708709 8 -0.046287011 -0.048205484 0.99776435 1.9881745e-06
-7.7238297 -7.989882 -0.77708709 9 -0.045372672 -0.04702469 0.9978627 1.2383559e-06
-7.7572374 -7.9797258 -0.77820319 9 -0.044749793 -0.046166457 0.99793094 1.4931425e-06
-7.7850575 -7.9581709 -0.77848226 9 -0.044496071 -0.045710433 0.99796331 1.489759e-06
-7.8128462 -7.9420877 -0.77904028 9 -0.044206589 -0.045240216 0.99799758 8.9964408e-07
-7.842011 -7.9273314 -0.77973789 10 -0.044112075 -0.044982009 0.99801338 1.5204805e-06
-7.8739133 -7.9097271 -0.78043544 9 -0.04421971 -0.044944599 0.99801028 1.3938002e-06
-7.9114981 -7.9032178 -0.78197008 10 -0.044296648 -0.04486433 0.99801052 7.4644856e-07
-7.9363689 -7.8839054 -0.78224909 12 -0.044301294 -0.044746269 0.99801558 1.1329221e-06
-7.9696631 -7.8701358 -0.78322572 11 -0.044561185 -0.044852976 0.99799925 1.571887e-06
-8.0186052 -7.871614 -0.78573692 15 -0.044842653 -0.044989813 0.99798048 9.3002609e-07
-8.0548859 -7.8659291 -0.78727156 15 -0.04504114 -0.045056369 0.99796855 1.1780337e-06
-8.0938778 -7.8544769 -0.78866673 15 -0.045155033 -0.045052551 0.99796361 8.3706971e-07
-8.1115417 -7.8304901 -0.78838772 14 -0.045304138 -0.045075104 0.9979558 0
-8.1289024 -7.7980614 -0.7876901 14 -0.045414712 -0.045078736 0.99795061 0
-8.1404543 -7.7628932 -0.78657401 14 -0.045582533 -0.045125876 0.99794078 0
-8.1506147 -7.7319441 -0.78559738 14 -0.045744631 -0.045159586 0.9979319 0
-8.1661577 -7.6980872 -0.78476036 13 -0.045860071 -0.045158513 0.99792659 0
-8.1760941 -7.667129 -0.78378373 13 -0.045875337 -0.045092031 0.99792886 0
-8.1856718 -7.6305947 -0.7825281 13 -0.046047304 -0.045129735 0.99791932 0
-8.1936426 -7.5927134 -0.781133 13 -0.046024494 -0.045052014 0.99792391 0
-8.205863 -7.5589056 -0.78015643 12 -0.046154052 -0.045053024 0.99791783 0
-8.2136984 -7.5238314 -0.7789008 13 -0.046065427 -0.044970416 0.99792564 0
-8.2197571 -7.484653 -0.7773661 13 -0.046137366 -0.044937428 0.99792379 0
-8.2317543 -7.4536352 -0.77652907 13 -0.046011128 -0.044816926 0.99793512 0
-8.23771 -7.4172678 -0.77513391 13 -0.046025366 -0.044758532 0.99793702 0
-8.2477884 -7.3821483 -0.77401787 12 -0.046073951 -0.044714112 0.99793679 0
-8.2590122 -7.3455954 -0.77290177 13 -0.045960318 -0.044610232 0.99794668 0
-8.2632723 -7.3107271 -0.77150661 14 -0.045880735 -0.044525918 0.99795413 0
-8.2684469 -7.2716832 -0.76997191 13 -0.045889534 -0.044476803 0.99795586 0
-8.2706995 -7.2328043 -0.76829785 12 -0.045691725 -0.044359665 0.99797022 0
-8.2753086 -7.1910834 -0.76662368 12 -0.045305207 -0.044207692 0.99799454 0
-8.2772427 -7.1522918 -0.7649495 13 -0.04486116 -0.044060551 0.99802113 0
-8.2817793 -7.1134014 -0.76341486 14 -0.04434631 -0.043916751 0.99805039 0
-8.2849245 -7.0759931 -0.76188022 13 -0.04424838 -0.043879114 0.99805641 0
-8.2848835 -7.0360398 -0.76006657 13 -0.043430131 -0.043704756 0.99810004 0
-8.2916965 -6.9971113 -0.7586714 12 -0.041887641 -0.043477014 0.99817592 0
-8.2885914 -6.9574232 -0.75671822 13 -0.040442251 -0.043273605 0.99824435 0
-8.2889605 -6.9134569 -0.75476503 12 -0.037340414 -0.042951625 0.99837911 0
-8.2836628 -6.869904 -0.75253284 13 -0.035933629 -0.042845406 0.99843532 0
-8.287075 -6.8313375 -0.7509982 12 -0.035886493 -0.042833108 0.99843758 0
-8.284873 -6.7931747 -0.74918455 12 -0.03725367 -0.042933095 0.9983831 0
-8.2907066 -6.754509 -0.74778938 12 -0.037899598 -0.042945996 0.99835831 0
-8.3002338 -6.7237973 -0.7469523 12 -0.03827792 -0.042941764 0.998344 0
-8.3046083 -6.6866279 -0.74555719 11 -0.037975937 -0.04288283 0.99835807 0
-8.3096275 -6.6548858 -0.74444109 12 -0.038367756 -0.042862032 0.998344 0
-8.3168468 -6.6202621 -0.74332494 13 -0.038418837 -0.042822763 0.99834377 0
-8.3239365 -6.5856533 -0.7422089 13 -0.037350703 -0.042751603 0.99838728 0
-8.3324623 -6.5522933 -0.74123228 14 -0.037781581 -0.042723022 0.99837232 0
-8.333436 -6.5154824 -0.73969764 14 -0.036929961 -0.042663667 0.99840677 0
-8.3396854 -6.4782524 -0.738442 13 -0.038243469 -0.042653024 0.99835777 0
-8.3466892 -6.446403 -0.73746544 13 -0.036742099 -0.042585 0.99841702 0
-8.348835 -6.4109182 -0.73607028 13 -0.037667315 -0.042556625 0.99838382 0
-8.3551302 -6.3764362 -0.73495418 12 -0.038442761 -0.042501364 0.99835658 0
-8.355423 -6.3398142 -0.7334196 11 -0.039849076 -0.042430557 0.99830443 0
-8.353488 -6.2993784 -0.73160595 14 -0.03907571 -0.042366903 0.99833769 0
-8.3769312 -6.2781544 -0.73202443 12 -0.038682371 -0.042306498 0.99835563 0
-8.3640318 -6.2320886 -0.72937369 13 -0.038737018 -0.042247474 0.99835593 0
-8.3498631 -6.1876001 -0.72672296 14 -0.038153723 -0.042213149 0.99837989 0
