# .PCD v0.7 - Point Cloud Data file format
VERSION 0.7
FIELDS x y z intensity normal_x normal_y normal_z curvature
SIZE 4 4 4 4 4 4 4 4
TYPE F F F F F F F F
COUNT 1 1 1 1 1 1 1 1
WIDTH 323
HEIGHT 1
VIEWPOINT 0 0 0 1 0 0 0
POINTS 323
DATA ascii
-4.9174232 -4.2731457 -1.0703198 82 0.12007728 -0.022088032 0.99251878 0.00098014937
-4.9554276 -4.2563252 -1.0732379 73 0.11699212 -0.024207456 0.99283779 0.00099740445
-4.9612923 -4.2373433 -1.071941 82 0.11792529 -0.026148764 0.99267811 0.00084886188
-4.9520454 -4.2055864 -1.0674015 62 0.12073964 -0.024097981 0.99239171 0.00079499319
-4.95015 -4.1772814 -1.0641592 77 0.12191308 -0.023493381 0.99226272 0.00076095515
-4.9761844 -4.1769967 -1.0674015 58 0.12030473 -0.024872713 0.99242538 0.00077349273
-4.9862523 -4.1588135 -1.0667531 73 0.11886182 -0.025122143 0.99259287 0.00072304474
-4.9948082 -4.1423531 -1.0661045 77 0.11957837 -0.024364503 0.99252576 0.00071803038
-5.0025082 -4.1237497 -1.0651319 77 0.12038343 -0.024539717 0.99242407 0.00071301544
-5.0026035 -4.1018806 -1.0628622 77 0.12173653 -0.023815945 0.99227661 0.0006897102
-5.009346 -4.0811567 -1.0615653 62 0.12223621 -0.024021296 0.99221033 0.00067971612
-5.0268569 -4.0721221 -1.0628622 50 0.12089285 -0.024696367 0.99235833 0.00069737236
-5.0266199 -4.0472875 -1.0602683 20 0.12269738 -0.025165074 0.99212503 0.00066410337
-5.0325775 -4.0304122 -1.0592955 19 0.12313791 -0.024732206 0.99208134 0.00065367692
-5.0429688 -4.0142345 -1.0589713 22 0.1231667 -0.024375526 0.99208659 0.00065035187
-5.0424752 -3.9894576 -1.0563774 19 0.12451934 -0.023129646 0.99194759 0.00061895105
-5.0527387 -3.9732585 -1.0560532 18 0.12439819 -0.023613529 0.99195135 0.00061898702
-5.0607042 -3.9567025 -1.0554047 18 0.12395743 -0.023424674 0.99201101 0.00061817543
-5.069994 -3.9383619 -1.0547562 21 0.12341509 -0.023286678 0.99208188 0.00061839412
-5.0716 -3.9169512 -1.0528108 19 0.12412815 -0.022232834 0.99201709 0.00058482063
-5.0746918 -3.8967633 -1.0511895 19 0.12420196 -0.022535186 0.992001 0.00058283471
-5.0862308 -3.88169 -1.0511895 17 0.12392365 -0.022627316 0.99203372 0.00058187154
-5.0923343 -3.8638923 -1.0502168 17 0.12363663 -0.022170914 0.99207985 0.00057201547
-5.0943222 -3.8416362 -1.0482713 19 0.12399513 -0.02136193 0.99205285 0.00054657616
-5.0914855 -3.8158522 -1.0453532 26 0.1250736 -0.020581244 0.99193394 0.000512628
-5.097373 -3.7980821 -1.0443804 42 0.1249733 -0.020177964 0.99195492 0.00050738151
-5.1009569 -3.7800238 -1.0430835 42 0.12488036 -0.019887852 0.99197245 0.00049922004
-5.1016812 -3.7557893 -1.0408138 47 0.1248814 -0.01884027 0.99199277 0.00048234354
-5.1073728 -3.7380314 -1.0398411 54 0.12475745 -0.017994566 0.99202412 0.00046631726
-5.1200376 -3.7240214 -1.0401653 47 0.12436481 -0.017735314 0.99207801 0.00046660221
-5.1310635 -3.7088149 -1.0401653 22 0.1239223 -0.016901609 0.99214798 0.00046215541
-5.1349902 -3.6898646 -1.0388684 18 0.12443969 -0.016983517 0.99208182 0.00042406181
-5.1356378 -3.6686285 -1.0369229 17 0.12431591 -0.015839437 0.99211627 0.00040692359
-5.1400638 -3.6488049 -1.0356259 16 0.12495635 -0.016158784 0.99203062 0.00037857855
-5.1411915 -3.6267118 -1.0336806 16 0.12524794 -0.015019956 0.99201173 0.00034018519
-5.1486974 -3.6091757 -1.0330319 16 0.12515897 -0.015080645 0.9920221 0.00033813264
-5.1587553 -3.5947845 -1.0330319 16 0.12510498 -0.01516677 0.99202752 0.00033643449
-5.1574173 -3.5724978 -1.0307623 16 0.12533741 -0.01521103 0.99199754 0.00032366475
-5.1669898 -3.5551591 -1.0304381 15 0.12647735 -0.016417621 0.99183357 0.0002901858
-5.1752677 -3.5396028 -1.0301138 16 0.12653612 -0.016472461 0.99182522 0.00028774497
-5.1818681 -3.5229175 -1.0294653 17 0.1273737 -0.016706809 0.99171412 0.00025428689
-5.186368 -3.5022027 -1.0281684 16 0.12789291 -0.017034939 0.9916417 0.00023557349
-5.1873274 -3.4831116 -1.0265472 16 0.12850113 -0.016908335 0.99156523 0.00020680425
-5.1927128 -3.4644201 -1.0255744 16 0.12871131 -0.016629687 0.99154264 0.0001936199
-5.1969919 -3.4437277 -1.0242774 16 0.12871437 -0.016452791 0.99154514 0.00017854761
-5.2020946 -3.4288471 -1.023629 15 0.12955163 -0.018021962 0.99140888 0.00011351264
-5.212841 -3.4124875 -1.023629 15 0.13005577 -0.018470665 0.99133462 8.5578919e-05
-5.2179794 -3.3937783 -1.0226562 15 0.13013764 -0.01859504 0.99132156 5.977651e-05
-5.2185607 -3.3747475 -1.0210351 15 0.13036475 -0.018515971 0.99129319 4.5627374e-05
-5.2219095 -3.3549814 -1.0197382 15 0.13049255 -0.018780828 0.99127138 3.851001e-05
-5.2290959 -3.3364375 -1.0190896 15 0.13042505 -0.019252405 0.99127126 3.1950836e-05
-5.2328138 -3.3195629 -1.018117 15 0.13027316 -0.01993602 0.99127775 1.9550198e-05
-5.2326217 -3.2977099 -1.0161715 15 0.13046199 -0.019611452 0.99125934 1.698206e-05
-5.2429562 -3.2812545 -1.0161715 15 0.13050427 -0.019764984 0.99125069 1.4102145e-05
-5.2459316 -3.2653062 -1.0151987 15 0.13048299 -0.019685756 0.9912551 1.2793172e-05
-5.2477708 -3.2436197 -1.0135776 15 0.13057761 -0.01951687 0.99124593 1.2633331e-05
-5.2590532 -3.229069 -1.0139017 15 0.13057609 -0.019504173 0.99124646 1.0924231e-05
-5.2624345 -3.2122056 -1.0129291 15 0.13061176 -0.019573599 0.99124038 1.3097289e-05
-5.2657499 -3.1915641 -1.0116321 15 0.13068286 -0.019490764 0.99123257 1.4140755e-05
-5.2684331 -3.1718554 -1.0103351 15 0.13070998 -0.019422699 0.99123037 1.4420992e-05
-5.2767191 -3.1580515 -1.0103351 15 0.13073127 -0.019389037 0.99122822 1.4057086e-05
-5.2736435 -3.1362422 -1.0080655 15 0.13081259 -0.019317312 0.99121892 1.2310621e-05
-5.2851701 -3.1206622 -1.0083897 15 0.13082637 -0.019333581 0.99121672 1.2264565e-05
-5.2870545 -3.1018972 -1.0070927 15 0.13087113 -0.019230135 0.99121284 1.1495476e-05
-5.2911196 -3.0832155 -1.00612 15 0.1308888 -0.019202592 0.99121112 1.1052334e-05
-5.2934122 -3.0635481 -1.0048231 15 0.13097468 -0.01919456 0.99119991 1.0936512e-05
-5.2979922 -3.0477123 -1.0041746 15 0.13096608 -0.019143421 0.99120194 1.0943078e-05
-5.2984443 -3.0270844 -1.0025533 15 0.13100164 -0.019075025 0.9911986 9.610937e-06
-5.3108354 -3.0132976 -1.0032018 15 0.13110955 -0.019148456 0.99118298 8.4953363e-06
-5.3037567 -2.9897325 -1.0002836 15 0.1311101 -0.019065002 0.99118447 8.3647237e-06
-5.3096781 -2.9711294 -0.99963522 15 0.13122283 -0.019082379 0.99116927 9.6071262e-06
-5.3127799 -2.9534135 -0.99866247 15 0.13130797 -0.019070202 0.99115819 9.1789061e-06
-5.3210068 -2.9385655 -0.99866247 15 0.13139503 -0.019109994 0.99114585 8.3576142e-06
-5.3232899 -2.918041 -0.99736553 15 0.131466 -0.01911672 0.99113637 7.8716976e-06
-5.3239779 -2.9003174 -0.99606848 15 0.13158295 -0.019104067 0.99112099 9.0899739e-06
-5.3290887 -2.8826301 -0.99542004 15 0.13163298 -0.019053958 0.99111545 9.3231156e-06
-5.3376184 -2.8668053 -0.99542004 15 0.13168922 -0.019032894 0.9911083 7.2362359e-06
-5.3438625 -2.8509595 -0.99509585 15 0.13176778 -0.019085461 0.99109685 7.7925051e-06
-5.3448277 -2.8323288 -0.99379879 15 0.13182151 -0.019044714 0.99109048 7.3358578e-06
-5.3467121 -2.8118501 -0.99250185 15 0.13187231 -0.019034781 0.99108392 7.7983404e-06
-5.3540554 -2.7978425 -0.99250185 15 0.13192558 -0.019068478 0.99107623 8.0858717e-06
-5.3605814 -2.7810352 -0.99217767 15 0.13195896 -0.019082433 0.99107146 8.0504651e-06
-5.3635454 -2.762408 -0.99120492 15 0.13203855 -0.019104881 0.9910605 6.7838364e-06
-5.3642106 -2.743824 -0.98990798 15 0.132093 -0.019083969 0.99105358 8.4350158e-06
-5.3688087 -2.7261088 -0.98925948 15 0.13213068 -0.019017633 0.99104989 8.4678823e-06
-5.3698244 -2.7066135 -0.98796248 15 0.13216597 -0.018942347 0.99104661 8.6441569e-06
-5.3773623 -2.6916075 -0.98796248 15 0.13220417 -0.01893097 0.99104172 1.014605e-05
-5.3782549 -2.6721292 -0.98666555 15 0.13222156 -0.018954622 0.99103892 9.9056315e-06
-5.3861594 -2.6561594 -0.98666555 15 0.13224187 -0.018970707 0.99103594 1.0564108e-05
-5.3824601 -2.6368406 -0.98472011 15 0.1322757 -0.018997721 0.99103093 9.9636109e-06
-5.3844786 -2.6192095 -0.98374736 15 0.13229206 -0.018926213 0.9910301 1.1391889e-05
-5.3873477 -2.5997086 -0.98277462 15 0.13233389 -0.018905487 0.99102485 8.8571333e-06
-5.3892474 -2.5820956 -0.98180193 15 0.13236585 -0.018896379 0.9910208 8.633765e-06
-5.395103 -2.5652463 -0.98147768 15 0.13236022 -0.018837415 0.99102271 8.3074719e-06
-5.3973355 -2.5467019 -0.98050499 15 0.1323922 -0.01881375 0.99101883 9.4478137e-06
-5.4044261 -2.5316195 -0.98050499 14 0.13241351 -0.01880805 0.99101615 9.5360811e-06
-5.406106 -2.5140207 -0.97953224 14 0.13243686 -0.018757964 0.99101388 8.4388357e-06
-5.4027901 -2.4930079 -0.97758681 14 0.13248578 -0.018678756 0.99100888 8.9885216e-06
-5.4119577 -2.4777877 -0.977911 15 0.13246784 -0.018624246 0.99101233 9.1044712e-06
-5.4120979 -2.4584553 -0.97661406 15 0.13248055 -0.018539162 0.99101222 1.0312292e-05
-5.4189425 -2.443332 -0.97661406 15 0.13249288 -0.01851627 0.99101096 9.7960165e-06
-5.4203401 -2.425771 -0.97564131 15 0.13253102 -0.01838758 0.99100828 9.5585801e-06
-5.4234862 -2.4090226 -0.97499287 15 0.1325625 -0.018310284 0.99100554 8.0033424e-06
-5.4219966 -2.387996 -0.97337162 15 0.13259903 -0.018204084 0.99100256 6.7741389e-06
-5.4268355 -2.3720548 -0.97304744 15 0.13259266 -0.018160794 0.99100417 7.5673902e-06
-5.4288282 -2.3526397 -0.97207469 14 0.13261224 -0.01808841 0.99100292 7.9607098e-06
-5.4349689 -2.3384185 -0.97207469 13 0.13261898 -0.018010886 0.99100345 9.1826114e-06
-5.4328074 -2.318409 -0.97045344 13 0.13263702 -0.017987221 0.99100143 9.0265194e-06
-5.436429 -2.2997932 -0.969805 13 0.13265778 -0.017894521 0.99100029 9.0806407e-06
-5.436573 -2.28421 -0.96883225 13 0.13264738 -0.017776579 0.99100387 1.0243624e-05
-5.4455452 -2.2678764 -0.9691565 13 0.13266124 -0.017718446 0.99100304 8.355687e-06
-5.4358325 -2.2449303 -0.96623838 13 0.13264236 -0.017476421 0.99100983 9.7851453e-06
-5.4398656 -2.2299426 -0.96591407 14 0.13265356 -0.017427763 0.99100924 9.1477486e-06
-5.4482856 -2.2145367 -0.96623838 14 0.13266443 -0.017274003 0.99101049 9.7895036e-06
-5.4515553 -2.1959329 -0.96558988 14 0.13262741 -0.017019639 0.99101979 8.8348115e-06
-5.4517879 -2.1794565 -0.96461713 13 0.13260347 -0.01688708 0.99102527 8.8581883e-06
-5.4527254 -2.1610906 -0.96364444 12 0.13258658 -0.016710673 0.99103051 7.6761053e-06
-5.4572778 -2.1441793 -0.9633202 13 0.13256326 -0.016565507 0.99103606 6.833071e-06
-5.462872 -2.1298857 -0.9633202 13 0.13252129 -0.016337136 0.99104559 7.9456604e-06
-5.463645 -2.1115332 -0.96234745 13 0.13247971 -0.016075645 0.99105531 8.6531918e-06
-5.4628797 -2.0915353 -0.96105051 12 0.13244836 -0.01577946 0.99106431 7.7169616e-06
-5.4683366 -2.0772259 -0.96105051 14 0.13240641 -0.015537127 0.99107373 6.6127564e-06
-5.4704223 -2.0605557 -0.96040201 14 0.13234122 -0.015319179 0.99108583 8.0415994e-06
-5.4864717 -2.0458512 -0.96202326 13 0.13224281 -0.0151303 0.99110186 9.9439267e-06
-5.4788508 -2.0266886 -0.95975351 13 0.13217348 -0.014708234 0.99111748 1.1512321e-05
-5.477078 -2.0086625 -0.95845658 14 0.13209097 -0.014487586 0.99113172 1.4909348e-05
-5.4777961 -1.9894257 -0.95748383 14 0.13200201 -0.014157793 0.99114835 1.5178717e-05
-5.4829855 -1.9750776 -0.95748383 14 0.13196462 -0.013870057 0.99115735 1.7733415e-05
-5.485446 -1.9565164 -0.95683539 14 0.13186467 -0.013525879 0.99117541 2.0932261e-05
-5.4949479 -1.9415481 -0.95748383 14 0.13167371 -0.013125097 0.99120617 2.245981e-05
-5.4907007 -1.9238909 -0.95586264 14 0.13163935 -0.01271503 0.99121618 2.319643e-05
-5.500113 -1.9088864 -0.95651108 14 0.1315051 -0.012312541 0.99123901 2.7649294e-05
-5.4964209 -1.8893508 -0.95488995 14 0.13136946 -0.011920228 0.99126184 3.1302356e-05
-5.4960713 -1.8720852 -0.95391721 14 0.13124202 -0.011351569 0.99128538 3.2734937e-05
-5.5037951 -1.855441 -0.95424139 13 0.13105157 -0.01082551 0.99131644 3.5306519e-05
-5.5014677 -1.837563 -0.95294446 14 0.13083562 -0.01015262 0.99135214 3.9730516e-05
-5.5047045 -1.8215725 -0.95262027 14 0.13077486 -0.0098548969 0.99136311 3.9359278e-05
-5.5078936 -1.8055794 -0.95229596 14 0.13061067 -0.0093026618 0.99139005 4.2485892e-05
-5.5132265 -1.7892302 -0.95229596 14 0.1304729 -0.0088371718 0.99141252 4.531139e-05
-5.5106859 -1.7714113 -0.95099902 14 0.13024697 -0.0080283182 0.99144906 5.038704e-05
-5.5105824 -1.7522947 -0.95002627 14 0.13009936 -0.0074826404 0.99147272 5.2330866e-05
-5.5189157 -1.7390491 -0.95067477 14 0.12986505 -0.0069771917 0.99150711 5.5670385e-05
-5.5221672 -1.7220787 -0.95035058 14 0.12967435 -0.0062724231 0.99153686 6.0811515e-05
-5.5234804 -1.7045236 -0.94970208 14 0.12952219 -0.0056517483 0.99156046 6.2502906e-05
-5.5209637 -1.6858218 -0.94840509 14 0.12939267 -0.004882162 0.99158144 6.5745895e-05
-5.5237603 -1.6698263 -0.94808084 14 0.12915392 -0.0043508746 0.991615 6.85267e-05
-5.5267997 -1.6528652 -0.94775659 13 0.12907115 -0.0036098706 0.99162871 7.1795082e-05
-5.5254312 -1.6367071 -0.94678384 13 0.12894355 -0.0028559593 0.99164784 7.4407319e-05
-5.5305457 -1.6193414 -0.94678384 13 0.12869172 -0.002170143 0.99168229 7.9610778e-05
-5.5315351 -1.6018267 -0.94613546 14 0.12849589 -0.0014208904 0.99170905 8.5051397e-05
-5.5381603 -1.5859517 -0.94645965 14 0.1282828 -0.00068714021 0.99173737 8.961765e-05
-5.5309014 -1.5682154 -0.94451421 13 0.12816295 7.6252196e-05 0.99175316 9.1799979e-05
-5.5374298 -1.5523316 -0.9448384 13 0.12793402 0.00084126834 0.99178231 9.6015923e-05
-5.5360389 -1.5352799 -0.94386578 13 0.12789093 0.001720854 0.99178672 9.8404416e-05
-5.5443764 -1.5198903 -0.94451421 14 0.1276806 0.0025129064 0.99181217 0.00010152265
-5.5431461 -1.5018858 -0.94354147 13 0.12741929 0.0032487083 0.99184364 0.00010351786
-5.5494847 -1.4859427 -0.94386578 14 0.1271615 0.0040803188 0.99187362 0.00011007039
-5.5440736 -1.4679136 -0.94224453 14 0.1269865 0.0048405286 0.99189264 0.00011193888
-5.5464954 -1.4509578 -0.94192028 13 0.12682039 0.0060292506 0.99190736 0.00011356919
-5.5483642 -1.4359385 -0.94159597 13 0.12678313 0.0062356289 0.99191082 0.00011471168
-5.5547605 -1.4189891 -0.94192028 14 0.12650909 0.007448202 0.99193752 0.00011860185
-5.5510473 -1.4015387 -0.94062328 14 0.12642333 0.0081351753 0.99194306 0.0001201687
-5.5549393 -1.3860328 -0.94062328 14 0.12618111 0.0090222601 0.99196619 0.00012307533
-5.5554338 -1.367631 -0.93997484 14 0.12600973 0.0099355681 0.99197924 0.00012427279
-5.563066 -1.3530443 -0.94062328 14 0.12582344 0.010618602 0.99199587 0.00012562757
-5.5612998 -1.33515 -0.9396506 13 0.12568815 0.011672503 0.99200112 0.00012576909
-5.5650067 -1.3196143 -0.9396506 13 0.12542142 0.012641247 0.99202299 0.00012988267
-5.5665207 -1.3045912 -0.93932635 14 0.12520804 0.013536393 0.99203819 0.00013140462
-5.570591 -1.2870982 -0.93932635 14 0.12498965 0.014441533 0.99205297 0.0001320986
-5.5743856 -1.2705625 -0.93932635 14 0.12464374 0.015321703 0.99208325 0.00013225748
-5.577693 -1.2559654 -0.93932635 14 0.12443729 0.016093444 0.9920969 0.00013570151
-5.5835381 -1.2388636 -0.9396506 13 0.12426998 0.017198496 0.99209934 0.0001376655
-5.5809793 -1.2229739 -0.93867791 13 0.12409376 0.018010752 0.99210697 0.00013970956
-5.5845833 -1.2064092 -0.93867791 12 0.12387716 0.018769981 0.99212003 0.00013967951
-5.5842772 -1.189013 -0.93802935 13 0.12372603 0.019739447 0.99212009 0.00013959825
-5.5858488 -1.1720333 -0.93770516 13 0.12367563 0.020633491 0.99210817 0.00013904223
-5.5929651 -1.1572294 -0.9383536 13 0.12327842 0.021642065 0.99213606 0.00014190485
-5.5983081 -1.1410249 -0.93867791 13 0.12317621 0.022685835 0.99212551 0.00014034729
-5.6034074 -1.1257753 -0.9390021 13 0.12288502 0.023457063 0.99214369 0.00014103252
-5.6045938 -1.1097398 -0.93867791 13 0.12275121 0.024462119 0.99213594 0.00013885122
-5.6080523 -1.0921266 -0.93867791 13 0.12258437 0.025394756 0.9921332 0.0001370424
-5.6110802 -1.0764613 -0.93867791 13 0.12233114 0.02638112 0.99213862 0.00013740387
-5.6160035 -1.061154 -0.9390021 14 0.12219621 0.027303725 0.99213034 0.0001351328
-5.6208849 -1.0458304 -0.93932635 12 0.12194832 0.028181277 0.9921363 0.00013002835
-5.6259046 -1.0295032 -0.9396506 13 0.12188637 0.029040217 0.99211913 0.0001267011
-5.636704 -1.0142026 -0.94094759 13 0.12152316 0.02999617 0.99213529 0.00012705605
-5.6319146 -0.99609983 -0.9396506 13 0.12154713 0.030816717 0.99210715 0.00012440106
-5.6385627 -0.9810462 -0.94029903 13 0.1211919 0.031658236 0.99212408 0.00012274188
-5.641449 -0.96431029 -0.94029903 13 0.12115815 0.032492269 0.99210125 0.00011917749
-5.6497931 -0.95052093 -0.94127178 13 0.12094275 0.033423577 0.99209666 0.00011552001
-5.6488566 -0.93212396 -0.94062328 13 0.12089708 0.034316853 0.99207169 0.00011074894
-5.6533856 -0.91666263 -0.94094759 13 0.12082411 0.035139903 0.99205178 0.00010634244
-5.6581869 -0.89920568 -0.94127178 13 0.12069533 0.036049183 0.99203485 0.00010117939
-5.6665254 -0.88431531 -0.94224453 13 0.1204944 0.036655053 0.99203706 0.00010032579
-5.6631207 -0.86759102 -0.94127178 13 0.12050708 0.037409812 0.99200732 9.7859862e-05
-5.6694245 -0.85235971 -0.94192028 13 0.12045538 0.037920862 0.9919942 9.5784599e-05
-5.6719289 -0.83553547 -0.94192028 13 0.12040796 0.038889188 0.99196249 8.9487956e-05
-5.6802425 -0.81954801 -0.94289303 13 0.1202656 0.039750222 0.99194556 8.4744817e-05
-5.6906056 -0.80280137 -0.94418997 13 0.12015885 0.040359654 0.99193394 8.0245751e-05
-5.6866865 -0.78808111 -0.94321722 13 0.12016542 0.040767398 0.99191648 7.9216537e-05
-5.6891336 -0.77021301 -0.94321722 13 0.12015075 0.041456163 0.99188972 7.4711257e-05
-5.6930866 -0.75557542 -0.94354147 14 0.12014185 0.042097278 0.99186373 6.9161753e-05
-5.6992178 -0.73918772 -0.94418997 13 0.12009557 0.042759299 0.99184102 6.4729116e-05
-5.7072601 -0.72301835 -0.94516271 14 0.12008277 0.043381721 0.99181557 6.0408209e-05
-5.7134204 -0.70556974 -0.94581115 13 0.11989546 0.043997411 0.99181116 5.9171187e-05
-5.7132888 -0.69037241 -0.9454869 14 0.11990249 0.044534307 0.9917863 5.5013919e-05
-5.7133522 -0.67318654 -0.94516271 12 0.11999457 0.044946626 0.99175662 5.0941144e-05
-5.7210917 -0.65790522 -0.94613546 13 0.11989552 0.04559179 0.99173915 4.7251189e-05
-5.7250915 -0.64014906 -0.94645965 14 0.11991583 0.046051431 0.99171537 4.3087344e-05
-5.7326331 -0.62580198 -0.9474324 14 0.11993008 0.046543926 0.99169075 3.9021012e-05
-5.7384958 -0.60820371 -0.94808084 13 0.11983667 0.047014046 0.99167973 3.4690634e-05
-5.7381058 -0.59297633 -0.94775659 12 0.1198569 0.047363602 0.99166077 3.1258318e-05
-5.7496586 -0.57693338 -0.94937783 13 0.1197916 0.047824595 0.99164647 2.9701827e-05
-5.7473183 -0.5604915 -0.94872934 13 0.11982327 0.048219971 0.99162352 2.8312725e-05
-5.7490506 -0.54243273 -0.94872934 14 0.11988213 0.048616584 0.991597 2.4590394e-05
-5.7505431 -0.52637726 -0.94872934 14 0.11989488 0.04896988 0.9915781 2.1514103e-05
-5.763875 -0.51035678 -0.95067477 13 0.11983088 0.049262371 0.99157131 1.8742232e-05
-5.7632251 -0.49509594 -0.95035058 14 0.11992298 0.049592234 0.99154377 1.7814809e-05
-5.7686853 -0.47731435 -0.95099902 14 0.11986697 0.049863495 0.99153697 1.6702883e-05
-5.7661419 -0.45988071 -0.95035058 14 0.1199296 0.050335426 0.9915055 1.229927e-05
-5.7713389 -0.44408059 -0.95099902 13 0.11993103 0.050379124 0.99150312 1.1907288e-05
-5.7805033 -0.42753807 -0.95229596 12 0.11992584 0.050771866 0.99148375 1.1248638e-05
-5.7777381 -0.41111368 -0.95164752 11 0.11993091 0.050994866 0.99147165 1.3127648e-05
-5.7848396 -0.39437139 -0.95262027 13 0.11994808 0.051164232 0.99146092 1.3135189e-05
-5.7956986 -0.37987027 -0.95424139 13 0.11993056 0.051376943 0.99145198 1.0274294e-05
-5.7929239 -0.36141601 -0.95359296 12 0.11999495 0.051527318 0.99143642 9.5883006e-06
-5.7998209 -0.34558952 -0.9545657 13 0.12003462 0.051631086 0.99142623 1.0042946e-05
-5.8067312 -0.32871386 -0.95553833 13 0.12007469 0.051720601 0.99141663 8.1741327e-06
-5.8056021 -0.31340393 -0.95521414 13 0.12011384 0.051812563 0.99140716 8.9481537e-06
-5.8242965 -0.296065 -0.95813233 12 0.12019271 0.051859435 0.99139512 4.1429021e-06
-5.8211579 -0.27961093 -0.95748383 13 0.12024259 0.051936939 0.99138504 4.3282639e-06
-5.8238883 -0.26344293 -0.95780814 12 0.12026168 0.052018639 0.99137843 4.9413802e-06
-5.8266153 -0.24624495 -0.95813233 13 0.12033279 0.052074671 0.99136686 4.3809937e-06
-5.8292923 -0.22903311 -0.95845658 14 0.12039183 0.052066606 0.99136013 3.3005106e-06
-5.8278999 -0.21369989 -0.95813233 14 0.12044551 0.052112184 0.99135125 2.6082828e-06
-5.8344603 -0.19558807 -0.95910507 12 0.12050146 0.052070916 0.9913466 3.3608501e-06
-5.8349833 -0.17929544 -0.95910507 14 0.12057339 0.052024603 0.99134028 1.9288393e-06
-5.8374338 -0.16305509 -0.95942926 13 0.12056055 0.051990192 0.99134362 3.539752e-06
-5.845809 -0.14491081 -0.9607262 13 0.12060818 0.051976863 0.99133855 3.2020037e-06
-5.8462129 -0.12756498 -0.9607262 14 0.12066957 0.051959295 0.99133199 4.7861199e-06
-5.8544207 -0.11241171 -0.96202326 13 0.12075564 0.051862802 0.99132657 3.7007212e-06
-5.8488083 -0.094944365 -0.96105051 14 0.12074002 0.051813729 0.99133098 5.565184e-06
-5.8549848 -0.077668399 -0.96202326 13 0.12079914 0.05169687 0.99132991 5.3675922e-06
-5.8551998 -0.059273783 -0.96202326 13 0.12084533 0.051606156 0.99132901 5.4590132e-06
-5.8612547 -0.043990076 -0.96299589 13 0.12089942 0.051517159 0.99132711 6.9941698e-06
-5.8633332 -0.026607824 -0.9633202 14 0.12092873 0.051414404 0.99132884 8.586976e-06
-5.8673296 -0.011264685 -0.96396863 14 0.12095716 0.051314734 0.99133044 8.9690902e-06
-5.8693094 0.0071693994 -0.96429294 14 0.12100443 0.05115163 0.99133313 8.9235e-06
-5.8712363 0.02459255 -0.96461713 14 0.12103399 0.051093418 0.99133253 1.0433222e-05
-5.8750844 0.04204132 -0.96526563 14 0.12106606 0.050982699 0.99133426 1.0363004e-05
-5.8749442 0.058447879 -0.96526563 14 0.12110467 0.05088076 0.99133486 1.0642436e-05
-5.8787045 0.074904263 -0.96591407 14 0.12119003 0.050701208 0.99133366 1.1033103e-05
-5.876483 0.092314325 -0.96558988 14 0.12128082 0.050580822 0.99132866 1.1079547e-05
-5.8841143 0.10784372 -0.96688682 14 0.12135423 0.05047046 0.99132526 1.1495267e-05
-5.8876925 0.12641367 -0.96753532 14 0.12146228 0.05028747 0.99132138 1.1287952e-05
-5.8912621 0.14295083 -0.96818376 14 0.12154094 0.05013502 0.99131948 1.1685362e-05
-5.8908124 0.16042887 -0.96818376 14 0.12152307 0.050048865 0.99132603 1.2817452e-05
-5.8943176 0.17596866 -0.96883225 13 0.12159998 0.049867697 0.99132574 1.3678621e-05
-5.8976464 0.19564505 -0.96948081 14 0.12164292 0.04975092 0.99132633 1.1835833e-05
-5.8971143 0.21108484 -0.96948081 14 0.1216541 0.049591307 0.99133289 1.2261124e-05
-5.9043899 0.22785527 -0.97077775 14 0.12170005 0.049422022 0.99133575 1.0873225e-05
-5.8997011 0.24623899 -0.97012925 14 0.12172153 0.049172014 0.99134558 1.2459078e-05
-5.9049058 0.26297691 -0.97110194 14 0.12179065 0.049000632 0.99134558 1.1419524e-05
-5.9041481 0.27946448 -0.97110194 14 0.12183855 0.048898373 0.99134469 1.1300433e-05
-5.9052639 0.29708067 -0.97142619 14 0.12192651 0.048778258 0.9913398 1.2331499e-05
-5.9083524 0.31377986 -0.97207469 14 0.12205771 0.04853636 0.99133551 1.1479748e-05
-5.9093661 0.33141834 -0.97239894 14 0.12217765 0.048277397 0.99133343 1.3862731e-05
-5.9122972 0.34918338 -0.97304744 15 0.12236439 0.048099663 0.991319 1.5158352e-05
-5.9250236 0.36758113 -0.97531712 15 0.12334149 0.046976171 0.99125177 3.2675871e-05
-5.9240408 0.38309059 -0.97531712 15 0.12359254 0.046775915 0.99123001 3.6564415e-05
-5.9228082 0.4016985 -0.97531712 15 0.12366327 0.046680588 0.99122566 3.6560556e-05
-5.9236317 0.41837594 -0.97564131 15 0.12373306 0.046781875 0.99121219 3.7155929e-05
-5.9322815 0.43563929 -0.97726256 15 0.12498984 0.046534471 0.9910661 6.2803207e-05
-5.9289951 0.45308879 -0.97693837 15 0.1243257 0.046805143 0.99113691 5.7513767e-05
-5.9375439 0.47042361 -0.97855949 15 0.12639502 0.04632698 0.99089766 0.00010456765
-5.932188 0.48771408 -0.977911 15 0.12717822 0.046057452 0.99080998 0.00013224762
-5.9366136 0.50581604 -0.97888374 15 0.12783061 0.046198487 0.99071944 0.00017462339
-5.9410763 0.52291173 -0.97985643 15 0.12770952 0.046647262 0.99071401 0.00019185696
-5.9453945 0.54107243 -0.98082918 15 0.12806067 0.046994518 0.99065226 0.00021232716
-5.9457288 0.55889547 -0.98115349 15 0.12809092 0.046794709 0.99065781 0.00021697622
-5.9440436 0.57653469 -0.98115349 15 0.12788785 0.047250427 0.9906624 0.00023615458
-5.952333 0.59307295 -0.98277462 15 0.12766814 0.047928803 0.99065816 0.00025858972
-5.9504404 0.61176866 -0.98277462 15 0.12738685 0.04850319 0.99066645 0.00028076116
-5.9506712 0.62859076 -0.98309886 15 0.12747571 0.048745822 0.99064314 0.00028606129
-5.9507422 0.64645749 -0.98342317 15 0.12717469 0.049595553 0.99063969 0.00031342125
-5.9566431 0.6649856 -0.98472011 15 0.12685159 0.050270066 0.99064708 0.00033819221
-5.9528027 0.68139309 -0.98439586 15 0.12658364 0.051210303 0.99063319 0.00036298097
-5.9606771 0.69916373 -0.98601705 15 0.12893027 0.051842235 0.99029762 0.00066521822
-5.9564915 0.71765047 -0.98569286 15 0.12571593 0.052542876 0.99067384 0.00042260537
-5.9684319 0.73388791 -0.98796248 15 0.13060491 0.053396743 0.98999554 0.0010144052
-5.964139 0.75238931 -0.98763829 17 0.13072814 0.05299747 0.99000072 0.0010546836
-5.9657946 0.77058643 -0.98828673 15 0.13573536 0.052709103 0.98934203 0.0016175379
-5.9676704 0.78671718 -0.98893523 16 0.13558398 0.054304589 0.98927647 0.0016470359
-5.9671249 0.80572706 -0.98925948 16 0.13334894 0.055228937 0.98952907 0.0017387464
-5.9707165 0.82319492 -0.99023217 16 0.13244379 0.055183545 0.98965311 0.001829706
-5.9742579 0.84069049 -0.99120492 17 0.13124698 0.05787297 0.98965901 0.0018602707
-5.97369 0.85869241 -0.99152911 16 0.12914851 0.057024591 0.98998421 0.0019781513
-5.9711161 0.87641323 -0.99152911 16 0.12434909 0.055200323 0.99070185 0.0022713831
-5.9766088 0.89320987 -0.9928261 17 0.12428501 0.055404969 0.99069852 0.0023018192
-5.977675 0.91257608 -0.9934746 17 0.11921875 0.056876231 0.99123764 0.0025932034
-5.9751034 0.92926574 -0.9934746 16 0.11837628 0.058455873 0.9912467 0.0025817303
-5.9841805 0.94780052 -0.99542004 20 0.1181909 0.059444889 0.99120992 0.0026504116
-5.9754972 0.96460861 -0.99444735 34 0.11807938 0.060703307 0.99114698 0.0026611169
-5.974556 0.98265457 -0.99477154 39 0.1149487 0.061697826 0.99145359 0.0023935367
-5.9776278 1.0003124 -0.99574429 39 0.11471487 0.06298542 0.99139965 0.0024036374
-5.9824157 1.0193689 -0.99704123 39 0.1139208 0.065219097 0.99134684 0.0023971822
-5.9793649 1.037115 -0.99704123 39 0.11338653 0.066633366 0.99131405 0.0024075126
-5.9723749 1.0541645 -0.99639279 31 0.11317439 0.067880839 0.99125367 0.0024208915
-5.9927177 1.0750203 -1.0002836 19 0.1125316 0.06969469 0.99120092 0.0024388186
-5.9953265 1.0938593 -1.0012563 19 0.11258177 0.071601152 0.9910593 0.0024365161
-5.9998164 1.1130834 -1.0025533 21 0.11231974 0.072863318 0.99099708 0.0024389504
-5.996882 1.1287861 -1.0025533 23 0.11240292 0.073895752 0.99091125 0.0024440796
-5.9935064 1.146576 -1.0025533 26 0.11284802 0.075780876 0.99071819 0.0024377431
-5.9958892 1.1654825 -1.0035261 23 0.11279266 0.077261411 0.99061012 0.0024285831
-6.0001493 1.1847972 -1.0048231 21 0.11238077 0.078641817 0.99054831 0.0024210904
-5.9987526 1.2019364 -1.0051472 26 0.11248681 0.079463772 0.99047071 0.0024137085
-5.987637 1.2171098 -1.0038503 23 0.10994112 0.079738438 0.99073446 0.0020768098
-5.9842148 1.233826 -1.0038503 23 0.109795 0.08055979 0.99068421 0.0020679955
-5.9803095 1.2526202 -1.0038503 26 0.10908564 0.080806755 0.99074244 0.0020563581
-5.9845099 1.2709544 -1.0051472 34 0.10896677 0.081813872 0.99067283 0.0020368912
-5.9824166 1.2901652 -1.0054715 57 0.10798256 0.082291611 0.99074101 0.0020094942
-5.9618931 1.300993 -1.0025533 40 0.10314994 0.080743104 0.99138319 0.0015820122
-5.9539227 1.3188616 -1.0019048 44 0.10335998 0.081238136 0.99132091 0.0015654617
