# .PCD v0.7 - Point Cloud Data file format
VERSION 0.7
FIELDS x y z intensity normal_x normal_y normal_z curvature
SIZE 4 4 4 4 4 4 4 4
TYPE F F F F F F F F
COUNT 1 1 1 1 1 1 1 1
WIDTH 147
HEIGHT 1
VIEWPOINT 0 0 0 1 0 0 0
POINTS 147
DATA ascii
-10.772142 -5.1981854 -0.27769399 9 0.022132996 0.0096091609 -0.99970883 0
-10.772192 -5.1611714 -0.27732262 12 0.022725815 0.0095369499 -0.99969625 0
-10.774819 -5.1231766 -0.27699766 12 0.022961643 0.0094909817 -0.99969125 0
-10.784545 -5.0886264 -0.27685839 4 0.022878636 0.0094723934 -0.99969339 0
-10.78785 -5.053401 -0.27657986 4 0.023385955 0.0094045503 -0.99968231 0
-10.78379 -5.0148239 -0.27611566 4 0.023281682 0.009389027 -0.99968487 0
-10.785913 -4.9769411 -0.27579069 4 0.023567792 0.0093423091 -0.99967855 0
-10.771545 -4.9315987 -0.27504793 4 0.037209976 0.0085671982 -0.9992708 0
-10.767925 -4.8913498 -0.27458373 4 0.040090855 0.0083609056 -0.99916101 0
-10.75967 -4.8513985 -0.27402666 4 0.048144404 0.0078967577 -0.99880916 0
-10.751276 -4.8115311 -0.2734696 4 0.048185628 0.0078669162 -0.99880743 0
-10.74457 -4.7725596 -0.27295896 4 0.032897409 0.0086791106 -0.999421 0
-10.74487 -4.7323356 -0.2725876 4 0.059745677 0.0071649319 -0.9981879 0
-10.745219 -4.6967058 -0.27226263 4 0.045395549 0.007931455 -0.99893761 0
-10.745245 -4.6565647 -0.27189127 4 0.07067281 0.0065494454 -0.99747801 0
-10.742706 -4.6220946 -0.2715199 4 0.04674023 0.007798044 -0.99887663 0
-10.74166 -4.5839214 -0.27114853 4 0.03513578 0.0083552739 -0.99934763 0
-10.761533 -4.5524921 -0.2712878 4 0.029425822 0.0085929912 -0.99953002 0
-10.754189 -4.5184398 -0.27082357 4 0.029973095 0.0084956139 -0.99951464 0
-10.757257 -4.4800162 -0.27054504 4 0.032091018 0.0083481269 -0.99945009 0
-10.748325 -4.4389229 -0.269988 4 0.026927181 0.008526111 -0.99960107 0
-10.74141 -4.4031839 -0.26952377 4 -0.017891726 -0.0089630606 0.99979973 0
-10.74146 -4.3660259 -0.26919881 4 -0.019053346 -0.0088359788 0.99977934 0
-10.743997 -4.3277736 -0.2689203 4 -0.016554857 -0.008879099 0.99982351 0
-10.740437 -4.293695 -0.26854891 4 -0.015641123 -0.0088889292 0.99983817 0
-10.743834 -4.2581272 -0.26831681 4 -0.012950196 -0.0090041962 0.99987549 0
-10.741535 -4.2203784 -0.26794544 4 -0.0014661175 -0.0095196655 0.99995363 0
-10.733916 -4.1849809 -0.26748121 4 -0.0064855558 -0.009233539 0.9999364 0
-10.736962 -4.1495104 -0.26724911 4 -0.010822207 -0.0089389803 0.99990153 0
-10.735006 -4.1100388 -0.26687774 4 -0.0062123057 -0.0091547677 0.99993873 0
-10.734516 -4.0776596 -0.26659921 4 -0.006998077 -0.0090544308 0.99993455 0
-10.736506 -4.0441427 -0.26636711 4 -0.0013762305 -0.0093195094 0.99995565 0
-10.74049 -4.0050235 -0.26613501 4 -0.0025592824 -0.0091920272 0.99995452 0
-10.728435 -3.9685686 -0.26557794 4 -0.0051136254 -0.0089801727 0.99994665 0
-10.722581 -3.9323971 -0.26516014 4 -0.0021462536 -0.0091008032 0.99995631 0
-10.727364 -3.8959632 -0.26497445 4 -0.0050678253 -0.0089008166 0.99994755 0
-10.724359 -3.8631217 -0.26464951 4 -0.001007971 -0.0090918317 0.99995816 0
-10.715726 -3.8220215 -0.26413885 4 0.012696527 -0.0098604811 0.99987084 0
-10.711937 -3.784884 -0.26376748 4 0.00092274981 -0.0091156326 0.99995804 0
-10.710487 -3.7528565 -0.26348895 4 -0.0087135276 -0.008447865 0.99992639 0
-10.708352 -3.7164743 -0.26316401 4 0.029011622 0.0071319346 -0.99955362 0
-10.706097 -3.680135 -0.26283905 4 0.043260437 0.0061803209 -0.99904472 0
-10.708762 -3.6476443 -0.26265338 4 0.082972988 0.0036530381 -0.99654514 0
-10.697432 -3.6063209 -0.26209632 4 0.96245456 -0.05686697 -0.26541919 0
-10.699874 -3.5738995 -0.26191062 4 0.17317857 -0.0019863786 -0.98488843 0
-10.696526 -3.5396082 -0.26158568 4 0.082223102 0.0036850227 -0.99660712 0
-10.689267 -3.5041203 -0.26116788 4 0.050705332 0.0055999849 -0.99869794 0
-10.686305 -3.4680707 -0.26084295 4 0.046462283 0.0058476543 -0.99890298 0
-10.678815 -3.4327075 -0.26042512 4 0.036547344 0.0063473107 -0.9993118 0
-10.681928 -3.3967159 -0.26023945 4 0.034108091 0.0064463145 -0.99939734 0
-10.677433 -3.3645344 -0.25991452 4 0.032189552 0.0065111737 -0.99946058 0
-10.679733 -3.3304572 -0.25972882 4 0.032759253 0.0065078507 -0.99944204 0
-10.678104 -3.2952194 -0.25945029 4 0.030643828 0.0065374859 -0.99950898 0
-10.674448 -3.2594342 -0.25912532 4 0.029348431 0.0065559871 -0.99954772 0
-10.672026 -3.226141 -0.25884679 4 0.028864479 0.0065779984 -0.99956173 0
-10.656647 -3.1870162 -0.25824332 4 0.028973965 0.0065431255 -0.99955881 0
-10.659204 -3.1573997 -0.25810406 4 0.028816195 0.0065528597 -0.99956322 0
-10.659474 -3.1210897 -0.25787196 4 0.02889109 0.0065464764 -0.99956119 0
-10.657166 -3.0861113 -0.25759342 4 0.028553763 0.0065357434 -0.99957091 0
-10.656664 -3.0517271 -0.25736132 4 0.02815927 0.0065200906 -0.99958217 0
-10.654999 -3.0210865 -0.25712919 4 0.027460191 0.0064838799 -0.99960184 0
-10.652365 -2.9862232 -0.25685069 4 0.027272571 0.0064656083 -0.99960715 0
-10.651029 -2.9537923 -0.25661856 4 0.027033169 0.0064376965 -0.99961382 0
-10.65589 -2.9211192 -0.25652573 4 0.027162293 0.0064331973 -0.99961036 0
-10.64328 -2.8837397 -0.25601509 4 0.026942268 0.0064037074 -0.99961638 0
-10.65179 -2.8521473 -0.25601509 4 0.026820704 0.0063787135 -0.99961984 0
-10.650048 -2.8198314 -0.25578299 4 0.026753282 0.0063588815 -0.99962187 0
-10.648697 -2.7856886 -0.25555086 4 0.026855387 0.0063580908 -0.99961913 0
-10.652081 -2.7568007 -0.25545803 4 0.026890492 0.0063627241 -0.99961817 0
-10.656816 -2.7223325 -0.25536519 4 0.026616588 0.0063144616 -0.99962574 0
-10.658561 -2.6910932 -0.25522593 4 0.026672222 0.0063085742 -0.99962437 0
-10.666034 -2.6613202 -0.25522593 4 0.02657097 0.0062792604 -0.99962717 0
-10.662692 -2.6249304 -0.25494739 4 0.02668076 0.0062869838 -0.99962425 0
-10.671923 -2.5956161 -0.2549938 4 0.026932318 0.0063248021 -0.99961722 0
-10.669857 -2.5616062 -0.2547617 4 0.02670739 0.0062690601 -0.99962366 0
-10.680861 -2.5327222 -0.25485456 4 0.026502658 0.0062116203 -0.99962938 0
-10.691347 -2.5056653 -0.25494739 4 0.026766567 0.0062613306 -0.99962211 0
-10.697218 -2.4716172 -0.25490096 4 0.02686462 0.0062719332 -0.99961936 0
-10.716201 -2.4425297 -0.25517949 4 0.026827373 0.006250361 -0.99962056 0
-10.72451 -2.4149075 -0.25522593 4 0.02680379 0.0062400606 -0.99962121 0
-10.733995 -2.3816361 -0.25527233 4 0.026909437 0.0062429253 -0.99961835 0
-10.751913 -2.3560936 -0.25555086 4 0.027030487 0.0062770084 -0.99961489 0
-10.752993 -2.3229146 -0.25541162 4 0.027266486 0.0063364287 -0.99960816 0
-10.769616 -2.2930837 -0.25564373 4 0.027372889 0.0063599912 -0.99960512 0
-10.788114 -2.2635822 -0.25592226 4 0.027901389 0.0065247174 -0.99958944 0
-10.800266 -2.2346618 -0.25606152 4 0.028150542 0.0065952903 -0.99958193 0
-10.810766 -2.2034075 -0.25615436 4 0.028349498 0.0066611283 -0.99957597 0
-10.82864 -2.1755719 -0.25643289 4 0.028509479 0.0067107975 -0.99957108 0
-10.840557 -2.1464887 -0.25657216 4 0.028717406 0.006775965 -0.99956465 0
-10.860986 -2.1150963 -0.25689709 4 0.028651802 0.0067427228 -0.99956667 0
-10.878632 -2.0870183 -0.25717562 4 0.029698687 0.0071425987 -0.99953341 0
-10.886382 -2.0570016 -0.25722206 4 0.029443424 0.0070374594 -0.9995417 0
-10.897981 -2.0276949 -0.25736132 4 0.030223621 0.007350395 -0.99951613 0
-10.911816 -1.9967899 -0.25754699 4 0.030880215 0.007621021 -0.99949402 0
-10.925564 -1.9658183 -0.25773269 4 0.031843606 0.008028226 -0.99946058 0
-10.939224 -1.9347878 -0.25791836 4 0.033088643 0.0085721109 -0.99941564 0
-10.952464 -1.9056051 -0.25810406 4 0.034202959 0.0090840301 -0.99937361 0
-10.973837 -1.8757919 -0.25847542 4 0.034134291 0.0090591144 -0.9993763 0
-10.982654 -1.8477212 -0.25856826 4 0.038060538 0.010855685 -0.9992165 0
-11.00616 -1.8161384 -0.25898609 4 0.041070998 0.012312165 -0.99908048 0
-11.015135 -1.7860383 -0.25907892 4 0.040184837 0.011917992 -0.99912119 0
-11.034515 -1.753618 -0.25940385 4 0.040916182 0.012268248 -0.99908721 0
-11.049247 -1.7243403 -0.25963598 4 0.045197748 0.014343963 -0.99887508 0
-11.0639 -1.6949914 -0.25986806 4 0.035032827 0.009419878 -0.99934179 0
-11.0765 -1.6652769 -0.26005375 4 0.045199722 0.014338958 -0.99887502 0
-11.095239 -1.6344467 -0.26037872 4 0.057822928 0.020484084 -0.99811667 0
-11.105976 -1.6023754 -0.26051798 4 0.050152741 0.016706044 -0.99860185 0
-11.124814 -1.5694315 -0.26084295 4 0.043828413 0.01357235 -0.99894691 0
-11.142481 -1.5441643 -0.26116788 4 0.041212037 0.01223907 -0.99907547 0
-11.151238 -1.50969 -0.26126072 4 0.042624358 0.012882735 -0.99900812 0
-11.17101 -1.4825947 -0.26163208 4 0.11427725 0.048540059 -0.99226242 0
-11.18329 -1.4504712 -0.26181778 4 0.087672412 0.035313495 -0.99552321 0
-11.199448 -1.4187905 -0.26209632 4 0.69346291 0.35210165 0.62859648 0
-11.215755 -1.385072 -0.26237485 4 0.043140255 0.030281626 0.99860996 0
-11.233239 -1.3573825 -0.26269981 4 0.16017185 0.089232482 0.9830476 0
-11.247144 -1.3252161 -0.26293188 4 0.054861866 0.018845895 -0.99831611 0
-11.260734 -1.2949443 -0.26316401 4 0.030987987 0.0067189494 -0.99949723 0
-11.264746 -1.2595634 -0.26316401 4 0.06159291 0.02225583 -0.99785322 0
-11.287881 -1.2322397 -0.26362824 4 0.038933169 0.010665764 -0.99918485 0
-11.307604 -1.1984545 -0.26399961 4 0.033808734 0.0080047781 -0.9993962 0
-11.322636 -1.1700821 -0.26427814 4 0.052423801 0.017569758 -0.99847037 0
-11.337994 -1.1376792 -0.26455668 4 0.035259098 0.0087041808 -0.99934024 0
-11.353067 -1.1071769 -0.26483521 4 0.03858117 0.010401011 -0.99920136 0
-11.366442 -1.0724431 -0.26506728 4 0.036218062 0.0091213295 -0.99930233 0
-11.381339 -1.0417933 -0.26534581 4 0.036553405 0.0092472499 -0.99928892 0
-11.400314 -1.0094299 -0.26571721 4 0.041102227 0.011573885 -0.99908793 0
-11.424831 -0.98146212 -0.26622784 4 0.048151158 0.015277252 -0.99872321 0
-11.445792 -0.94705129 -0.26664564 4 0.034572002 0.0080386512 -0.99936986 0
-11.458517 -0.91387814 -0.26687774 4 0.035853822 0.0086959302 -0.9993192 0
-11.467005 -0.88233852 -0.26701701 4 0.032800086 0.0070365882 -0.99943715 0
-11.497488 -0.85037816 -0.26766691 4 0.028647944 0.0047665555 -0.99957818 0
-11.505802 -0.8186928 -0.26780617 4 0.033300068 0.0072648409 -0.99941903 0
-11.518155 -0.78523016 -0.26803827 4 0.032427423 0.0067712404 -0.99945116 0
-11.530148 -0.75572598 -0.2682704 4 0.033970837 0.0076052686 -0.99939382 0
-11.550424 -0.72062194 -0.26868817 4 0.033087362 0.0071121384 -0.9994272 0
-11.574347 -0.68967181 -0.26919881 4 0.033892762 0.0075641708 -0.99939686 0
-11.590316 -0.65611738 -0.26952377 4 0.033390664 0.0072830929 -0.99941581 0
-11.603973 -0.62641752 -0.2698023 4 0.032464903 0.0067417845 -0.99945009 0
-11.619862 -0.59066951 -0.27012724 4 0.032651559 0.0068494841 -0.99944335 0
-11.647429 -0.55946749 -0.27073073 4 0.031362072 0.0060788658 -0.99948961 0
-11.668921 -0.52784234 -0.27119496 4 0.031274676 0.0060209702 -0.9994927 0
-11.686417 -0.49389243 -0.27156633 4 0.030677417 0.0056473683 -0.99951339 0
-11.709807 -0.46007875 -0.27207693 4 0.032059647 0.0064924671 -0.99946487 0
-11.730953 -0.43015555 -0.27254117 4 0.030599356 0.0055838558 -0.99951613 0
-11.744236 -0.39370096 -0.2728197 4 0.030918362 0.0057667857 -0.99950522 0
-11.761278 -0.36139664 -0.27319106 4 0.031276412 0.0059803016 -0.99949288 0
-11.790223 -0.32933235 -0.27384096 4 0.030034605 0.0051711113 -0.9995355 0
