# .PCD v0.7 - Point Cloud Data file format
VERSION 0.7
FIELDS x y z intensity normal_x normal_y normal_z curvature
SIZE 4 4 4 4 4 4 4 4
TYPE F F F F F F F F
COUNT 1 1 1 1 1 1 1 1
WIDTH 292
HEIGHT 1
VIEWPOINT 0 0 0 1 0 0 0
POINTS 292
DATA ascii
-5.6846881 -4.3133502 -1.0028814 22 0.1257714 -0.039549738 0.99127054 0.00059785275
-5.6942987 -4.2940793 -1.0023247 22 0.12589231 -0.038973097 0.99127805 0.0005888429
-5.697506 -4.2700386 -1.0006547 18 0.12628892 -0.038133901 0.99126029 0.00058841164
-5.691937 -4.2410951 -0.99759287 16 0.12652497 -0.037074734 0.9912703 0.00059032533
-5.6727872 -4.203774 -0.99230427 16 0.12724355 -0.036286183 0.99120754 0.00053746608
-5.654067 -4.1624484 -0.98673731 15 0.12804936 -0.03459226 0.99116433 0.00052196044
-5.6448922 -4.1314359 -0.98311883 15 0.1288496 -0.032690655 0.99112517 0.00051622407
-5.6379061 -4.1006894 -0.97977871 15 0.12919164 -0.032041229 0.99110186 0.0005170168
-5.6420217 -4.0781436 -0.97838694 15 0.12940606 -0.033756357 0.99101698 0.00038423299
-5.6405215 -4.0531259 -0.97616023 15 0.12966533 -0.031997304 0.99104142 0.00038282844
-5.6485939 -4.0350571 -0.97560352 15 0.12963061 -0.031770866 0.99105322 0.00037967809
-5.6540818 -4.0136938 -0.97449011 15 0.13008741 -0.030707993 0.99102694 0.00037163857
-5.6578741 -3.9911914 -0.97309834 15 0.12994082 -0.029404379 0.99108559 0.00036465688
-5.6648259 -3.9709759 -0.9722634 15 0.13002698 -0.02873311 0.99109405 0.00035460613
-5.6710181 -3.9517453 -0.97142833 15 0.13044737 -0.028236296 0.99105304 0.0003453549
-5.6771469 -3.9325097 -0.97059327 15 0.13082273 -0.028032336 0.99100935 0.00032255755
-5.6780519 -3.9067965 -0.96864486 15 0.13082655 -0.026715791 0.99104524 0.00030720106
-5.6823997 -3.8864534 -0.96753144 15 0.13089623 -0.026278747 0.99104774 0.00030193685
-5.6850419 -3.8650022 -0.96613973 15 0.13179637 -0.024457717 0.99097508 0.0002843384
-5.6905904 -3.8426893 -0.96502638 15 0.13188297 -0.024388971 0.99096519 0.00027906714
-5.6956992 -3.8244658 -0.96419132 15 0.13165571 -0.0235934 0.99101472 0.0002693233
-5.7004304 -3.8031535 -0.96307796 15 0.13210103 -0.023227094 0.99096406 0.00026314962
-5.7057471 -3.7808487 -0.96196455 15 0.13254555 -0.022699751 0.99091697 0.00025068471
-5.7050462 -3.7603567 -0.96029443 15 0.13227645 -0.021741191 0.99097437 0.00024062909
-5.7135177 -3.7402458 -0.95973778 14 0.13226616 -0.020645941 0.99099922 0.0002265379
-5.7212691 -3.7211182 -0.95918107 14 0.1318451 -0.020048464 0.99106759 0.00021460494
-5.7293282 -3.7050512 -0.95890272 15 0.13227367 -0.01963911 0.99101865 0.00020538419
-5.7302985 -3.681612 -0.95723265 13 0.13237987 -0.019370578 0.99100977 0.00019784849
-5.7368274 -3.6603968 -0.95639759 15 0.13278638 -0.018915642 0.99096411 0.00019032833
-5.7430468 -3.6432416 -0.95584095 15 0.13314024 -0.018437527 0.99092573 0.00018652648
-5.7454529 -3.6209071 -0.95444918 15 0.13312122 -0.018427655 0.99092841 0.0001863338
-5.7484059 -3.5975854 -0.95305753 14 0.13386342 -0.017728936 0.99084121 0.00017476437
-5.750453 -3.5793431 -0.95194405 14 0.13404332 -0.018118903 0.99080986 0.00017108243
-5.7549314 -3.5570929 -0.9508307 14 0.13437755 -0.017805908 0.99077016 0.00016553389
-5.7603965 -3.5368946 -0.94999564 14 0.13470839 -0.017491456 0.99073094 0.00015664355
-5.764564 -3.518707 -0.94916058 13 0.13468945 -0.017508842 0.99073315 0.00015545047
-5.7654285 -3.4944184 -0.94749051 13 0.13546117 -0.01953898 0.99058998 9.706369e-05
-5.7723775 -3.4752548 -0.94693387 12 0.13560638 -0.019985914 0.99056125 8.862769e-05
-5.7763577 -3.4570789 -0.9460988 14 0.13595611 -0.020207364 0.99050874 8.042706e-05
-5.7825847 -3.43891 -0.9455421 13 0.1359967 -0.020194173 0.99050343 7.9326237e-05
-5.784833 -3.4156914 -0.94415039 13 0.13614623 -0.020719888 0.99047202 6.9831105e-05
-5.7875152 -3.3955157 -0.94303703 13 0.13652468 -0.021216683 0.99040943 5.0989216e-05
-5.7907195 -3.3743398 -0.94192362 13 0.13681963 -0.021861065 0.99035478 3.2847078e-05
-5.7989922 -3.3561511 -0.94164526 13 0.13696639 -0.022071743 0.99032974 2.8786979e-05
-5.7991743 -3.3360214 -0.94025356 13 0.13695301 -0.021721216 0.99033934 2.6851774e-05
-5.7987294 -3.3129051 -0.93858349 13 0.136913 -0.021024128 0.9903599 2.0677428e-05
-5.8068109 -3.2947073 -0.93830508 13 0.1368749 -0.020530755 0.99037558 1.525441e-05
-5.8125386 -3.2765336 -0.93774843 13 0.13679883 -0.020037977 0.9903962 7.8535413e-06
-5.8141608 -3.253422 -0.93635666 13 0.13679247 -0.019975411 0.99039835 7.5330845e-06
-5.8197618 -3.2352483 -0.93580002 13 0.13671887 -0.019570081 0.99041659 4.4151461e-06
-5.8218393 -3.2151539 -0.93468666 13 0.13666286 -0.019259837 0.99043036 2.4076462e-06
-5.8319106 -3.1968493 -0.93468666 13 0.13659176 -0.019250611 0.99044037 4.3296732e-06
-5.8280849 -3.1749372 -0.93273818 13 0.13658491 -0.019117018 0.99044394 1.2382727e-06
-5.8357382 -3.1566885 -0.93245983 13 0.13655084 -0.019176858 0.99044746 2.3667428e-06
-5.8398442 -3.136548 -0.93162483 13 0.13652679 -0.019138724 0.99045151 2.1168446e-06
-5.843338 -3.1174307 -0.93078977 13 0.13651906 -0.01914739 0.99045241 2.3723667e-06
-5.8415213 -3.0955362 -0.92911965 14 0.13647412 -0.019162424 0.99045825 2.8201191e-06
-5.8459582 -3.074405 -0.9282847 16 0.13649954 -0.01920235 0.99045396 2.6592713e-06
-5.8522315 -3.058172 -0.92800629 15 0.13652287 -0.019239202 0.99045008 2.8469697e-06
-5.8560057 -3.038058 -0.92717123 13 0.13653271 -0.019229079 0.99044889 2.6195833e-06
-5.8544292 -3.0152297 -0.92550117 13 0.13647538 -0.01920655 0.99045718 3.4260581e-06
-5.8487206 -2.9916534 -0.9232744 12 0.13644452 -0.019183841 0.99046195 2.6604152e-06
-5.8628693 -2.9769769 -0.92410946 13 0.13641194 -0.019165013 0.99046677 2.1402557e-06
-5.8646021 -2.956002 -0.9229961 12 0.13643213 -0.019049441 0.99046624 1.6606681e-06
-5.8675208 -2.9369535 -0.92216104 13 0.13647281 -0.019014301 0.99046135 1.4017136e-06
-5.8726611 -2.9177699 -0.92160434 13 0.13648833 -0.019019589 0.99045908 6.8436674e-07
-5.8777404 -2.8985803 -0.92104769 13 0.13645379 -0.019005934 0.99046409 1.5356001e-06
-5.8817511 -2.8814406 -0.92049098 13 0.13646388 -0.019009555 0.9904626 1.6984083e-06
-5.8826509 -2.8615389 -0.91937757 12 0.13649873 -0.018957721 0.99045885 9.5074256e-07
-5.8826923 -2.8387413 -0.91798586 11 0.13648669 -0.018931357 0.99046099 1.6037632e-06
-5.8852382 -2.8197348 -0.9171508 12 0.13651036 -0.018878248 0.99045867 9.4886167e-07
-5.893579 -2.8022602 -0.9171508 11 0.13652228 -0.018850854 0.99045765 7.2518617e-07
-5.8982849 -2.7830722 -0.91659415 13 0.13646698 -0.018794363 0.9904663 0
-5.8970661 -2.7623892 -0.91520238 12 0.13646682 -0.018782452 0.99046659 9.5669714e-07
-5.8993697 -2.7434046 -0.91436732 11 0.136446 -0.018753611 0.99046993 2.9667441e-07
-5.9056854 -2.7250588 -0.91408902 12 0.13644363 -0.018709894 0.99047118 0
-5.9065423 -2.7042263 -0.91297561 11 0.13641359 -0.018593624 0.9904775 6.2823204e-07
-5.9109325 -2.6850519 -0.9124189 12 0.13636096 -0.018506983 0.99048638 0
-5.9111857 -2.6652784 -0.91130555 11 0.13632503 -0.01845699 0.99049217 2.0150417e-06
-5.9131827 -2.6463335 -0.91047049 11 0.13635077 -0.018367207 0.99049032 3.9626866e-07
-5.9133101 -2.6265941 -0.90935713 11 0.13636255 -0.018297715 0.99048996 1.0243951e-06
-5.9179068 -2.6064084 -0.90880042 11 0.13630575 -0.018183338 0.99049991 1.1645946e-06
-5.9179029 -2.5866992 -0.90768701 12 0.1360704 -0.018156176 0.99053276 2.5194281e-06
-5.9260001 -2.5680945 -0.90768701 12 0.13623992 -0.018085685 0.99051076 2.2024151e-06
-5.9290652 -2.5510054 -0.9071303 12 0.13620129 -0.018048137 0.99051678 2.2932043e-06
-5.9311428 -2.5310698 -0.9062953 11 0.13596708 -0.01800851 0.99054962 2.1228614e-06
-5.9372411 -2.5116537 -0.90601695 11 0.1360461 -0.017936122 0.99054015 2.8378502e-06
-5.9397087 -2.4956055 -0.9054603 12 0.13603215 -0.017887348 0.99054301 3.0061251e-06
-5.9347215 -2.471601 -0.90351182 12 0.13526247 -0.017926926 0.99064755 2.125387e-06
-5.9438591 -2.4547389 -0.90379024 12 0.13566701 -0.01779042 0.99059474 3.5248042e-06
-5.9429355 -2.4361641 -0.90267682 11 0.1351923 -0.017820623 0.99065912 3.8621884e-06
-5.9446325 -2.4162841 -0.90184182 11 0.1349574 -0.017751819 0.99069238 4.5206252e-06
-5.9485207 -2.3961148 -0.90128505 11 0.13493772 -0.017656235 0.99069679 5.4725556e-06
-5.9510951 -2.3790641 -0.90072834 10 0.13483621 -0.01755734 0.99071234 5.3583108e-06
-5.9562855 -2.3606677 -0.90045005 11 0.13490474 -0.017444329 0.99070501 5.8598348e-06
-5.9558916 -2.340086 -0.89933664 11 0.13449736 -0.017425599 0.99076074 6.1159276e-06
-5.9527702 -2.3208892 -0.89794487 11 0.13424894 -0.017317817 0.99079627 5.5798951e-06
-5.9596305 -2.3032165 -0.89794487 12 0.13427618 -0.01716936 0.9907952 6.8259396e-06
-5.9649873 -2.2837741 -0.89766657 11 0.13433345 -0.017018631 0.99079007 7.9352576e-06
-5.959837 -2.2639294 -0.89599645 12 0.13388149 -0.01693386 0.99085265 9.3334056e-06
-5.9679899 -2.2479756 -0.89627486 11 0.13409883 -0.016744887 0.99082643 9.7065977e-06
-5.9642777 -2.2240205 -0.8946048 11 0.13375473 -0.016579039 0.99087578 1.0110185e-05
-5.9645061 -2.2063379 -0.89376974 12 0.13372794 -0.016337972 0.99088335 9.7243365e-06
-5.9632068 -2.1869452 -0.89265639 11 0.13358803 -0.016130494 0.99090564 1.1500681e-05
-5.9700475 -2.1682014 -0.89265639 11 0.13353439 -0.015859636 0.99091733 1.124176e-05
-5.9719768 -2.1512218 -0.89209968 12 0.13346645 -0.01554859 0.99093133 1.1700412e-05
-5.9768405 -2.131784 -0.89182132 11 0.13343729 -0.015269914 0.99093962 1.1800552e-05
-5.9794035 -2.1127224 -0.89126462 11 0.13341279 -0.014929925 0.99094808 1.5088908e-05
-5.9811764 -2.0957494 -0.89070791 11 0.13325673 -0.014614203 0.99097377 1.601531e-05
-5.9873681 -2.0779946 -0.89070791 11 0.13323939 -0.014261019 0.99098134 1.7042688e-05
-5.9916344 -2.0595765 -0.89042956 11 0.13326879 -0.013857061 0.99098301 1.7994094e-05
-5.9879894 -2.0396435 -0.88903785 11 0.13303162 -0.013388641 0.99102134 1.8932571e-05
-5.9962435 -2.0214553 -0.8893162 11 0.13299407 -0.012734225 0.99103498 2.0558695e-05
-5.9924726 -2.0015652 -0.88792443 11 0.13277671 -0.012369727 0.99106878 2.2010958e-05
-5.9980388 -1.9848228 -0.88792443 10 0.13271864 -0.011887457 0.99108249 2.3854025e-05
-5.999794 -1.9668326 -0.88736778 11 0.1325212 -0.011546385 0.99111289 2.7618213e-05
-5.9999514 -1.9471891 -0.88653272 11 0.13225251 -0.010835144 0.99115682 3.1152562e-05
-5.9959378 -1.9273955 -0.88514096 11 0.1319126 -0.010322801 0.99120766 3.6105102e-05
-6.0038519 -1.909148 -0.88541937 11 0.13188592 -0.009599735 0.99121845 3.8488095e-05
-6.0012727 -1.8910432 -0.88430595 11 0.13169429 -0.0090511031 0.99124908 4.243795e-05
-6.0030756 -1.8720493 -0.88374925 11 0.13149849 -0.008385567 0.99128091 4.5507215e-05
-6.0029263 -1.8524786 -0.88291425 11 0.13129692 -0.0077231126 0.99131304 4.780796e-05
-6.0083966 -1.8346591 -0.88291425 11 0.13119012 -0.0070254123 0.99133235 5.2009738e-05
-6.0097051 -1.8167267 -0.88235754 11 0.13095604 -0.0062189042 0.99136865 5.7397756e-05
-6.0150685 -1.7988886 -0.88235754 11 0.13078579 -0.0055506346 0.99139518 6.2268475e-05
-6.0140605 -1.7814456 -0.88152248 11 0.13066521 -0.0048849122 0.99141449 6.5720778e-05
-6.0177264 -1.7619878 -0.88124412 12 0.13038276 -0.0041887476 0.99145496 6.9790505e-05
-6.0191231 -1.7430228 -0.88068742 11 0.13019925 -0.0031783693 0.99148279 7.462658e-05
-6.0242677 -1.7251573 -0.88068742 12 0.13004455 -0.0023444353 0.99150538 7.9801022e-05
-6.0249538 -1.7082974 -0.88013077 12 0.12967737 -0.0016076416 0.99155498 8.344571e-05
-6.0223675 -1.6882762 -0.87901741 11 0.12933411 -0.0008608491 0.99160069 8.448492e-05
-6.0270586 -1.6714517 -0.87901741 12 0.12927456 -8.6185144e-05 0.99160886 9.0144153e-05
-6.0243511 -1.6514668 -0.87790394 11 0.12898724 0.00098531903 0.99164575 9.4998984e-05
-6.0273123 -1.633068 -0.87762564 11 0.12861106 0.001792866 0.99169344 9.8253244e-05
-6.0302186 -1.614665 -0.87734729 11 0.12838748 0.0025069946 0.99172091 0.00010136332
-6.0308747 -1.596805 -0.87679058 11 0.12809648 0.0033836972 0.99175596 0.0001050614
-6.0317545 -1.5779011 -0.87623394 11 0.1279421 0.0041965637 0.99177277 0.00010992694
-6.0281949 -1.5601206 -0.87512052 11 0.12773041 0.0051356349 0.99179566 0.00011439525
-6.031148 -1.5406843 -0.87484217 11 0.12733105 0.0061366893 0.99184132 0.00011448175
-6.0354266 -1.5238358 -0.87484217 11 0.12710199 0.0071079796 0.9918642 0.0001186517
-6.0358148 -1.5060177 -0.87428546 11 0.12697957 0.0078920424 0.99187392 0.00012226982
-6.0385933 -1.4865746 -0.87400711 11 0.12671463 0.0089398911 0.99189889 0.00012550446
-6.0369477 -1.4683014 -0.8731721 11 0.1265738 0.0099664675 0.99190712 0.00012917967
-6.0470552 -1.4517696 -0.87400711 11 0.12635204 0.010911571 0.99192548 0.00012988728
-6.0433774 -1.4330491 -0.87289375 10 0.1261587 0.012016155 0.99193728 0.00013543387
-6.0471082 -1.4172236 -0.87289375 11 0.12592882 0.012454113 0.99196112 0.00013447132
-6.0515304 -1.3982203 -0.87289375 11 0.12575594 0.013645837 0.99196732 0.00013777822
-6.0556526 -1.380257 -0.87289375 11 0.12547341 0.014919396 0.99198478 0.00014203196
-6.0553813 -1.3635294 -0.87233704 11 0.12533307 0.015683519 0.99199075 0.00014205492
-6.0615687 -1.344928 -0.87261546 9 0.12512204 0.016719172 0.99200052 0.00014366799
-6.0670033 -1.3294777 -0.87289375 9 0.12486945 0.017442493 0.99201989 0.00014528081
-6.0670495 -1.3106339 -0.87233704 11 0.12473166 0.018407604 0.99201977 0.00014681071
-6.0709114 -1.2926279 -0.87233704 11 0.12442046 0.01941718 0.99203956 0.0001472655
-6.0747199 -1.2746091 -0.87233704 11 0.12424939 0.020389391 0.99204153 0.0001481521
-6.0782557 -1.25764 -0.87233704 10 0.12405446 0.02156364 0.99204105 0.00014948237
-6.0839009 -1.2399966 -0.87261546 11 0.12409073 0.022712639 0.99201089 0.00014995727
-6.0815153 -1.2218316 -0.8717804 11 0.12382666 0.023749221 0.99201965 0.00014761888
-6.0887885 -1.205613 -0.87233704 11 0.12359495 0.024663806 0.99202621 0.00014648578
-6.0983787 -1.1876141 -0.8731721 11 0.12345432 0.025839224 0.99201381 0.00014681544
-6.0997262 -1.170206 -0.87289375 11 0.12314609 0.026715903 0.99202889 0.00014382495
-6.1010246 -1.1527996 -0.87261546 10 0.12313048 0.027496941 0.99200946 0.00014191597
-6.1061664 -1.1361226 -0.87289375 10 0.12292641 0.028704271 0.99200058 0.00013908354
-6.115355 -1.1190695 -0.87372881 11 0.12286383 0.029709993 0.9919787 0.00013490071
-6.1167002 -1.1005675 -0.87345046 11 0.12276454 0.03061242 0.99196362 0.00012997688
-6.1199379 -1.0824151 -0.87345046 10 0.1226192 0.031449348 0.9919554 0.00012846598
-6.1229367 -1.0653218 -0.87345046 11 0.12240647 0.032444149 0.99194956 0.00012341888
-6.1299748 -1.0478156 -0.87400711 10 0.12235447 0.033342414 0.99192625 0.00012130947
-6.1366034 -1.0324219 -0.87456387 11 0.12224315 0.033956699 0.99191916 0.00011712006
-6.1398168 -1.0131378 -0.87456387 11 0.12199215 0.034952577 0.9919154 0.0001119672
-6.1426215 -0.99598932 -0.87456387 11 0.12190302 0.035829302 0.99189514 0.00010833108
-6.1476765 -0.97699594 -0.87484217 11 0.12186269 0.036981195 0.99185777 0.00010093911
-6.1503811 -0.95982563 -0.87484217 11 0.12182233 0.037555225 0.9918412 9.9783458e-05
-6.1569529 -0.94324619 -0.87539887 11 0.121742 0.038387474 0.99181914 9.3535666e-05
-6.1576037 -0.92575413 -0.87512052 11 0.1217133 0.039057132 0.99179655 8.927111e-05
-6.1681619 -0.90863585 -0.87623394 10 0.12164718 0.03975321 0.991777 8.3763422e-05
-6.1727905 -0.89061308 -0.87651229 10 0.1215663 0.040753342 0.99174631 7.7971956e-05
-6.1755581 -0.87121594 -0.87651229 11 0.12160104 0.041494336 0.99171132 7.1623843e-05
-6.1855154 -0.85721058 -0.87762564 9 0.12147577 0.041949637 0.99170756 6.8786474e-05
-6.1842527 -0.8372438 -0.877069 9 0.12142338 0.04272306 0.99168092 6.4503889e-05
-6.1864233 -0.82105011 -0.877069 9 0.12138262 0.04342059 0.99165565 5.9944665e-05
-6.1947246 -0.80345482 -0.87790394 11 0.12148206 0.044064827 0.99161506 5.5912344e-05
-6.1970811 -0.78507084 -0.87790394 11 0.12130043 0.044815846 0.99160361 5.1904728e-05
-6.2073789 -0.76657045 -0.87901741 11 0.12147106 0.045315284 0.99155998 4.8065947e-05
-6.2014999 -0.74936604 -0.87790394 10 0.12127458 0.045980591 0.99155343 4.3171625e-05
-6.2154975 -0.73235273 -0.87957406 11 0.12146781 0.046413023 0.99150968 3.8210943e-05
-6.2194867 -0.71521884 -0.87985241 10 0.12149509 0.046933018 0.99148184 3.4477296e-05
-6.2236705 -0.69589752 -0.88013077 12 0.12144113 0.047510464 0.99146092 3.1242369e-05
-6.2294083 -0.68003237 -0.88068742 10 0.12139814 0.047894277 0.99144775 2.8764014e-05
-6.2374229 -0.66108328 -0.88152248 11 0.12148969 0.048430491 0.99141043 2.4751451e-05
-6.2391319 -0.64475244 -0.88152248 11 0.12140932 0.048774704 0.9914034 2.2382286e-05
-6.2528415 -0.62742382 -0.88319254 11 0.12149675 0.04921174 0.99137115 2.0481204e-05
-6.2466846 -0.60919082 -0.88207918 10 0.12133331 0.049561176 0.99137378 1.8471044e-05
-6.2485671 -0.58956295 -0.88207918 9 0.1213896 0.049837019 0.99135303 1.5952277e-05
-6.2600513 -0.57301515 -0.88347095 11 0.1214857 0.0501105 0.99132746 1.5076605e-05
-6.2656693 -0.5547877 -0.8840276 10 0.12154816 0.050310109 0.99130976 1.2926797e-05
-6.2671003 -0.53838187 -0.8840276 10 0.12152774 0.050542038 0.9913004 1.0197778e-05
-6.2806034 -0.51967162 -0.88569766 11 0.12168074 0.050812114 0.99126786 8.9010809e-06
-6.2840919 -0.50119001 -0.88597602 11 0.12166575 0.050987113 0.99126065 8.7134813e-06
-6.281518 -0.48333678 -0.88541937 9 0.12167491 0.051144335 0.99125147 8.5723514e-06
-6.2927995 -0.46542853 -0.88681108 10 0.12179327 0.051294513 0.99122912 8.985975e-06
-6.2960505 -0.44799408 -0.88708937 10 0.12186504 0.051492233 0.9912101 9.0591802e-06
-6.2993283 -0.42944574 -0.88736778 11 0.12187706 0.051598951 0.99120307 9.8520022e-06
-6.3063598 -0.41334078 -0.88820285 12 0.12196653 0.051595848 0.99119222 8.5735037e-06
-6.3135571 -0.39389792 -0.88903785 12 0.12202227 0.051697008 0.99118018 9.3575718e-06
-6.3185863 -0.37650079 -0.8895945 12 0.12209279 0.051753704 0.99116844 6.9265348e-06
-6.3236308 -0.35797507 -0.89015126 11 0.12212202 0.051781829 0.99116343 8.7868902e-06
-6.3225684 -0.34131134 -0.88987291 11 0.12208812 0.051801212 0.99116653 1.0508039e-05
-6.3315215 -0.32184863 -0.89098626 11 0.12217128 0.051835068 0.99115449 7.4893337e-06
-6.3363519 -0.30435756 -0.89154291 11 0.12219767 0.051796284 0.9911533 8.7146173e-06
-6.3391562 -0.28675103 -0.89182132 11 0.12448309 0.049548142 0.99098384 0.00025928541
-6.3360209 -0.26777348 -0.89126462 11 0.12442997 0.049583744 0.99098873 0.00025523882
-6.3427248 -0.24920587 -0.89209968 11 0.12535641 0.048645604 0.99091846 0.00028586222
-6.3492928 -0.23281856 -0.89293468 12 0.12539104 0.048681632 0.99091232 0.00028902543
-6.346034 -0.21273752 -0.89237797 11 0.12580477 0.048108578 0.99088788 0.00029060402
-6.3505626 -0.19513798 -0.89293468 12 0.13212496 0.043641012 0.99027193 0.0016587272
-6.3570223 -0.17756858 -0.89376974 11 0.1368953 0.04015702 0.98977125 0.0025110091
-6.3615084 -0.1576944 -0.89432639 12 0.13804355 0.038726296 0.98966873 0.002692634
-6.3678885 -0.13894799 -0.89516145 10 0.13841577 0.038794741 0.98961407 0.002738981
-6.3682303 -0.12227745 -0.89516145 11 0.1413579 0.036420979 0.98928839 0.0033913632
-6.3725257 -0.10344593 -0.89571816 11 0.14596955 0.0325603 0.98875308 0.0042091315
-6.3767657 -0.08459001 -0.89627486 11 0.15272085 0.026428081 0.98791593 0.0056040389
-6.3789802 -0.064576156 -0.89655322 12 0.15314789 0.026685869 0.98784292 0.0056775026
-6.3830881 -0.047906555 -0.89710987 11 0.15635081 0.024512 0.98739737 0.0062070549
-6.3891439 -0.028993955 -0.89794487 11 0.1570846 0.024387617 0.987284 0.0063207019
-6.3891978 -0.01226662 -0.89794487 11 0.16007785 0.02226459 0.9868533 0.0068132435
-6.3931661 0.007809293 -0.89850163 12 0.15880747 0.02285197 0.98704511 0.0068210363
-6.3950949 0.02678681 -0.89877993 11 0.16503963 0.017867915 0.98612511 0.0079873074
-6.3989487 0.045790024 -0.89933664 11 0.16862661 0.017634775 0.98552227 0.0091008171
-6.4067173 0.063738316 -0.90045005 12 0.18048303 0.011392324 0.98351216 0.011997512
-6.4025536 0.081578955 -0.89989328 11 0.17827992 0.012993 0.98389405 0.011660307
-6.4082246 0.10066751 -0.90072834 11 0.17918365 0.014235486 0.98371267 0.011779007
-6.4158597 0.11758953 -0.90184182 11 0.1833269 0.013018255 0.98296583 0.012451717
-6.4154587 0.13774525 -0.90184182 11 0.18242529 0.013819873 0.98312259 0.012244334
-6.420989 0.1558046 -0.90267682 12 0.18533686 0.012838695 0.98259115 0.012607866
-6.4204988 0.1748542 -0.90267682 12 0.18715431 0.010647666 0.98227286 0.013015963
-6.4299173 0.19195843 -0.90406853 13 0.20198701 0.0070805624 0.97936261 0.015983369
-6.4272656 0.21321434 -0.90379024 12 0.19817027 0.0070094611 0.98014253 0.015331695
-6.4266853 0.23004064 -0.90379024 12 0.19637421 0.0082345065 0.98049444 0.015086883
-6.4378924 0.24844357 -0.9054603 13 0.20546097 0.0072332025 0.97863859 0.016600199
-6.4469743 0.26908082 -0.90685201 13 0.21157223 0.0063794679 0.97734153 0.017840348
-6.4442191 0.28699541 -0.90657365 13 0.20922892 0.0052168579 0.97785276 0.017535811
-6.4513054 0.30536342 -0.90768701 13 0.22158568 -0.00015900467 0.97514093 0.020442927
-6.4543271 0.32470283 -0.90824378 13 0.22690421 -0.0028882711 0.97391278 0.02198755
-6.4553733 0.34283096 -0.90852207 13 0.23174846 -0.0037584624 0.97276849 0.022622338
-6.4582825 0.36220351 -0.90907878 15 0.23349106 -0.0035126407 0.97235262 0.023038849
-6.4532256 0.38113084 -0.90852207 14 0.22883432 -0.0047687916 0.9734537 0.022491701
-6.4599724 0.4007687 -0.90963542 14 0.24147503 -0.00630897 0.97038651 0.02533412
-6.4608779 0.4178063 -0.90991378 13 0.24401455 -0.0039367671 0.96976364 0.025601685
-6.4634852 0.43836847 -0.91047049 13 0.24315202 -0.0027367824 0.96998435 0.026147326
-6.468163 0.45683521 -0.91130555 13 0.25120148 -0.0018487885 0.96793306 0.028522609
-6.4708123 0.4751865 -0.91186225 13 0.25206107 0.0014628371 0.96771026 0.028673105
-6.4752979 0.49483675 -0.91269726 13 0.25119719 0.005830511 0.96791834 0.029291976
-6.4798141 0.51338696 -0.91353226 15 0.2501041 0.011992783 0.96814471 0.029489769
-6.4861584 0.53325868 -0.91464573 13 0.24764445 0.019343378 0.96865785 0.029713098
-6.4865208 0.55266964 -0.91492403 13 0.24710748 0.025977505 0.96863979 0.030414991
-6.4869246 0.57095534 -0.91520238 13 0.24607311 0.031537164 0.96873802 0.030695463
-6.4930921 0.59091669 -0.91631573 14 0.24768814 0.034910429 0.96821064 0.031164747
-6.4952536 0.61055058 -0.91687244 13 0.24613865 0.041143022 0.96836102 0.031183543
-6.4953842 0.6300112 -0.9171508 13 0.24715161 0.045322951 0.96791625 0.031402979
-6.5015965 0.64779997 -0.91826421 14 0.24863039 0.047608964 0.96742767 0.031747606
-6.5014992 0.66842335 -0.91854256 13 0.24488929 0.058208037 0.96780223 0.031773884
-6.5015764 0.68678486 -0.91882086 13 0.24427119 0.062192347 0.96771055 0.032037511
-6.5073857 0.70692837 -0.91993427 14 0.24150605 0.070347413 0.9678461 0.031800535
-6.5111651 0.7268911 -0.92076927 15 0.23938604 0.076632462 0.96789545 0.031688254
-6.5130453 0.74552178 -0.92132598 15 0.23891592 0.080409832 0.96770525 0.031859148
-6.5109382 0.7637071 -0.92132598 15 0.23826404 0.085218668 0.96745443 0.0317914
-6.5104723 0.78439522 -0.92160434 16 0.23768908 0.090026014 0.9671604 0.031698447
-6.5163994 0.80126685 -0.92271769 15 0.23624606 0.094654165 0.96707207 0.031640679
-6.5177798 0.82223237 -0.9232744 19 0.23689151 0.098375149 0.96654266 0.031644855
-6.5035267 0.8400439 -0.92160434 26 0.23679295 0.10300788 0.96608406 0.031771813
-6.5071959 0.85784274 -0.9224394 30 0.23525544 0.10567129 0.9661721 0.031511243
-6.5064311 0.87854832 -0.92271769 30 0.23582003 0.11090858 0.96544713 0.031593904
-6.5039525 0.89671326 -0.92271769 31 0.23524447 0.11518345 0.96508694 0.03135835
-6.5073066 0.91570044 -0.92355275 28 0.23042406 0.11543687 0.96621901 0.030881848
-6.5222049 0.93753898 -0.92605788 15 0.23396501 0.12224627 0.96452904 0.031465296
-6.5331106 0.95890027 -0.92800629 15 0.23138727 0.12873152 0.96430713 0.030840583
-6.5344963 0.9765867 -0.928563 16 0.22723264 0.1306434 0.96503764 0.03040689
-6.5372696 0.99800599 -0.92939806 17 0.22708112 0.13611996 0.96431607 0.030436669
-6.5285859 1.015345 -0.928563 16 0.22165626 0.1356006 0.9656505 0.02813269
-6.5315933 1.0345021 -0.92939806 16 0.21204537 0.13143232 0.96838129 0.024600834
-6.5363164 1.05514 -0.93051142 17 0.20866473 0.13367829 0.96880811 0.023705155
-6.5331569 1.0745294 -0.93051142 19 0.20770665 0.13389264 0.96898443 0.023581875
-6.5281773 1.0924429 -0.93023312 21 0.20851846 0.13481297 0.96868235 0.023389829
-6.5229545 1.1114736 -0.92995471 19 0.20968606 0.1391125 0.96782202 0.023137853
-6.5176768 1.1304846 -0.92967641 23 0.2041128 0.13401955 0.96973014 0.021733453
-6.5084429 1.148784 -0.92884135 39 0.19528675 0.13369986 0.97159016 0.020480724
-6.4935126 1.1648568 -0.92717123 50 0.18640055 0.13210048 0.97355241 0.019133035
-6.4705443 1.1805638 -0.92438781 36 0.17887686 0.13236858 0.97492641 0.017171124
-6.4494872 1.1965061 -0.92188275 40 0.17673591 0.13368285 0.97513753 0.016380891
-6.4288158 1.2100884 -0.91937757 44 0.17214872 0.13057306 0.9763788 0.01488771
-6.4154701 1.227299 -0.91798586 36 0.16680881 0.12749124 0.97771204 0.013378004
-6.415689 1.2470833 -0.91854256 36 0.16313808 0.12410396 0.97876674 0.012858475
