# .PCD v0.7 - Point Cloud Data file format
VERSION 0.7
FIELDS x y z intensity normal_x normal_y normal_z curvature
SIZE 4 4 4 4 4 4 4 4
TYPE F F F F F F F F
COUNT 1 1 1 1 1 1 1 1
WIDTH 578
HEIGHT 1
VIEWPOINT 0 0 0 1 0 0 0
POINTS 578
DATA ascii
-1.8632398 -2.950773 -1.4576696 44 0.16394749 0.058871619 0.98471081 0.014711506
-1.8709962 -2.9436748 -1.4568988 40 0.16231392 0.056966878 0.98509341 0.014089325
-1.8802036 -2.9399929 -1.4576696 47 0.16186777 0.056999993 0.98516488 0.014097884
-1.8869208 -2.9312975 -1.4561279 44 0.16073672 0.057119928 0.9853431 0.014031967
-1.8971061 -2.9291148 -1.4576696 30 0.16023169 0.057364259 0.98541117 0.014086326
-1.9037722 -2.9203813 -1.4561279 25 0.15842596 0.056185484 0.985771 0.013448927
-1.9093879 -2.9123008 -1.4545863 22 0.15788521 0.054452367 0.98595494 0.013021422
-1.917511 -2.9047475 -1.4538153 21 0.15685983 0.055262465 0.98607355 0.013028928
-1.9245937 -2.8978446 -1.4530445 17 0.15631083 0.054386415 0.98620939 0.012910627
-1.9306107 -2.8871815 -1.450732 15 0.15525629 0.053725649 0.98641217 0.012626803
-1.9407262 -2.8848412 -1.4522737 15 0.15417325 0.054872423 0.98651898 0.012666836
-1.9456714 -2.8748252 -1.4499612 15 0.15328996 0.052571528 0.98678184 0.012192162
-1.9495376 -2.8632789 -1.4468778 15 0.15209457 0.050047871 0.98709798 0.011375636
-1.9554397 -2.8547788 -1.4453361 18 0.1511348 0.050393004 0.98722786 0.01115506
-1.9643986 -2.8486214 -1.4453361 16 0.15000649 0.049818847 0.98742908 0.01081981
-1.9754431 -2.845468 -1.4468778 16 0.14971615 0.049811449 0.98747349 0.01081617
-1.9807725 -2.8372605 -1.4453361 15 0.14913704 0.048778303 0.98761266 0.010568248
-1.9881214 -2.8298607 -1.4445653 15 0.14776126 0.046728577 0.98791856 0.0098578557
-1.9922476 -2.8179216 -1.4414819 14 0.14664803 0.044078987 0.98820615 0.0089975148
-1.9985484 -2.8111923 -1.440711 13 0.14585674 0.043318406 0.98835683 0.0087857507
-2.0052221 -2.8018982 -1.4391694 14 0.14448836 0.041102648 0.98865241 0.008221874
-2.0113699 -2.7929411 -1.4376277 14 0.1439521 0.039761547 0.98878551 0.0079612145
-2.0197575 -2.7891603 -1.4383985 14 0.14350177 0.039828766 0.98884827 0.007966321
-2.0258501 -2.7801726 -1.4368567 15 0.1421684 0.036797255 0.98915827 0.007139361
-2.0346971 -2.7759929 -1.4376277 15 0.1416259 0.037071425 0.98922586 0.0071367351
-2.0380607 -2.7643583 -1.4345442 13 0.14101247 0.035369486 0.98937577 0.0067371428
-2.0456347 -2.7564604 -1.4337735 14 0.14056711 0.035549358 0.98943275 0.0066850772
-2.0500128 -2.7463005 -1.4314609 13 0.13964444 0.032753158 0.98965991 0.0060677668
-2.0587821 -2.7420406 -1.4322317 13 0.13874848 0.030478878 0.98985845 0.0056669898
-2.0635717 -2.7315025 -1.4299192 13 0.13764423 0.027749488 0.99009299 0.0050586537
-2.0716674 -2.7253675 -1.4299192 13 0.13685557 0.026276536 0.99024236 0.0047027906
-2.0781484 -2.718106 -1.4291483 13 0.13565584 0.022675056 0.99049658 0.0038176978
-2.0839536 -2.7090023 -1.4276067 14 0.13516746 0.020966012 0.99060094 0.0035879517
-2.0897233 -2.6998882 -1.426065 13 0.13507986 0.021036161 0.99061143 0.0035759676
-2.0967846 -2.6944082 -1.426065 13 0.1349456 0.021023801 0.99062997 0.0035600069
-2.1029627 -2.684902 -1.4245232 13 0.13485277 0.020577744 0.99065191 0.003539894
-2.1086347 -2.6757522 -1.4229816 13 0.13421293 0.018892767 0.99077237 0.003225548
-2.1160986 -2.669853 -1.4229816 13 0.13365628 0.017606709 0.99087131 0.0030113375
-2.1217098 -2.660677 -1.4214399 13 0.13322452 0.015826127 0.99095953 0.0026861948
-2.1302862 -2.6561811 -1.4222107 15 0.13249187 0.013465743 0.99109262 0.0023673745
-2.1351433 -2.6451674 -1.4198983 12 0.13227859 0.01330829 0.99112326 0.0023568948
-2.1404376 -2.6385088 -1.4191273 13 0.13215275 0.012481504 0.9911508 0.0022674503
-2.1475487 -2.6303422 -1.4183564 13 0.13197067 0.012343979 0.99117672 0.0022553038
-2.1537147 -2.6229088 -1.4175857 13 0.13161427 0.010472174 0.99124569 0.0020424163
-2.1563303 -2.6111917 -1.4145023 11 0.13136601 0.0090490468 0.9912926 0.0018550191
-2.1645226 -2.6044052 -1.4145023 12 0.1309904 0.0075084954 0.99135518 0.0016683885
-2.1741545 -2.6011827 -1.416044 12 0.13080433 0.006968481 0.99138373 0.0016209714
-2.1754725 -2.5880375 -1.4121897 11 0.13084258 0.0062022046 0.99138379 0.0015609476
-2.1826909 -2.5819526 -1.4121897 11 0.13091218 0.0056768209 0.99137771 0.0015467611
-2.191988 -2.5764875 -1.4129605 11 0.13080254 0.005051929 0.99139559 0.0014911145
-2.1976705 -2.5667853 -1.4114189 10 0.13070561 0.0043914602 0.99141151 0.00144302
-2.1991205 -2.5558126 -1.4083356 9 0.13072425 0.0039571635 0.99141085 0.0014221839
-2.2107639 -2.5530758 -1.410648 9 0.13057266 0.0034126751 0.99143291 0.0013712915
-2.2125933 -2.541712 -1.4075646 10 0.13055158 0.0024465236 0.99143857 0.001300825
-2.218909 -2.5337472 -1.4067938 11 0.13048534 0.0013571031 0.9914493 0.0012283929
-2.2251966 -2.5257683 -1.406023 11 0.13049573 0.00073546701 0.99144858 0.0011700568
-2.227 -2.5118601 -1.4021688 10 0.13043255 -0.0011858945 0.99145651 0.0010325121
-2.2315495 -2.502876 -1.400627 11 0.13038851 -0.0021113567 0.99146074 0.00095779536
-2.2397611 -2.4980097 -1.4013979 11 0.13029236 -0.002667815 0.99147201 0.00091832044
-2.2484 -2.492723 -1.4021688 10 0.13027997 -0.0037381314 0.99147022 0.00083807384
-2.249959 -2.4813597 -1.3990853 10 0.13033681 -0.0051441463 0.99145645 0.0007571617
-2.2577434 -2.4742789 -1.3990853 11 0.13008602 -0.0070676408 0.99147749 0.0006185876
-2.2613308 -2.4634905 -1.3967727 10 0.12950829 -0.011164527 0.99151552 0.0002345011
-2.2715275 -2.4616303 -1.3990853 10 0.12955758 -0.011726183 0.99150252 0.00020574227
-2.2733717 -2.4498663 -1.3960019 11 0.12933876 -0.014161651 0.9914993 9.7032011e-05
-2.282743 -2.4436626 -1.3967727 11 0.12935035 -0.015171942 0.99148285 5.5895343e-05
-2.2891324 -2.4376783 -1.3967727 10 0.12952162 -0.015825607 0.99145025 4.0928284e-05
-2.2925527 -2.4268515 -1.3944603 11 0.12961511 -0.016288152 0.99143058 3.0729512e-05
-2.2984722 -2.4187009 -1.3936894 10 0.12970835 -0.016657365 0.99141228 2.4504752e-05
-2.3035219 -2.4113405 -1.3929186 10 0.12973382 -0.016881468 0.99140513 2.5378376e-05
-2.3119452 -2.4058256 -1.3936894 10 0.12979279 -0.016993118 0.99139553 2.3613629e-05
-2.3152251 -2.3949747 -1.3913769 10 0.1298645 -0.017270023 0.99138135 2.1628461e-05
-2.3167591 -2.3832071 -1.3882935 10 0.12990065 -0.017417673 0.99137408 1.5992484e-05
-2.3268151 -2.3785558 -1.3898352 10 0.12997268 -0.017683731 0.99135983 1.1228506e-05
-2.3308601 -2.3694174 -1.3882935 10 0.1299824 -0.017847899 0.99135566 1.058237e-05
-2.334872 -2.3602753 -1.3867519 10 0.13001099 -0.018054796 0.99134815 6.2479508e-06
-2.3448792 -2.3555446 -1.3882935 10 0.13004439 -0.018097764 0.99134296 7.1761056e-06
-2.3475311 -2.3450742 -1.385981 10 0.13003716 -0.018197568 0.99134207 1.0207672e-05
-2.3514524 -2.3359079 -1.3844393 10 0.13005556 -0.018257145 0.99133855 9.1743559e-06
-2.3609991 -2.3315141 -1.385981 10 0.13005517 -0.018297594 0.99133795 1.3030891e-05
-2.361321 -2.3180349 -1.3821268 10 0.1300763 -0.018389361 0.99133348 1.7050119e-05
-2.3687015 -2.3131349 -1.3828975 10 0.13010974 -0.018393537 0.99132895 1.4848782e-05
-2.3733087 -2.3031108 -1.3813559 10 0.13013987 -0.018474221 0.99132347 1.6294378e-05
-2.3819849 -2.2994533 -1.3828975 10 0.13016248 -0.018482514 0.99132037 1.7344699e-05
-2.3852024 -2.2881262 -1.3805851 9 0.13014448 -0.01857337 0.99132103 1.9735066e-05
-2.3919811 -2.281039 -1.3805851 10 0.13017404 -0.018606909 0.99131656 2.1740116e-05
-2.3952661 -2.272229 -1.3790433 10 0.13016491 -0.018628765 0.99131739 2.3403896e-05
-2.4010506 -2.2634263 -1.3782725 10 0.13023132 -0.018679317 0.99130768 2.2044538e-05
-2.4042754 -2.2546084 -1.3767309 11 0.1302219 -0.018722354 0.99130803 2.5335092e-05
-2.410954 -2.2474654 -1.3767309 10 0.13020349 -0.018731901 0.9913103 2.6573653e-05
-2.4149044 -2.237793 -1.3751891 9 0.13021779 -0.018773565 0.99130768 2.7144222e-05
-2.418819 -2.2281172 -1.3736475 10 0.13022654 -0.018808581 0.99130583 2.7306611e-05
-2.4223099 -2.2188606 -1.3721057 10 0.1302381 -0.018858748 0.99130338 2.9713841e-05
-2.4329758 -2.2153916 -1.3744183 10 0.13026182 -0.018864172 0.99130011 3.1499912e-05
-2.4364173 -2.2061114 -1.3728766 9 0.13028279 -0.018856181 0.9912976 3.0668623e-05
-2.4425685 -2.1992989 -1.3728766 10 0.1302866 -0.018852241 0.99129707 2.8848161e-05
-2.444958 -2.1883492 -1.3705641 10 0.13028416 -0.018858178 0.99129736 3.005371e-05
-2.4518204 -2.1806579 -1.3705641 10 0.13027669 -0.018877521 0.99129796 2.7775201e-05
-2.4575212 -2.1742315 -1.3705641 10 0.13026944 -0.018873366 0.99129897 3.2063967e-05
-2.46119 -2.1644926 -1.3690224 10 0.13028334 -0.01886785 0.99129725 3.1150295e-05
-2.461668 -2.1527517 -1.365939 10 0.13027324 -0.018866383 0.99129862 2.8561077e-05
-2.4670255 -2.1437974 -1.3651681 9 0.13027327 -0.018845733 0.99129897 2.7997186e-05
-2.4716063 -2.1356931 -1.3643973 10 0.13026452 -0.018859096 0.99129993 3.111843e-05
-2.4793322 -2.1295526 -1.3651681 10 0.13027512 -0.018837707 0.99129891 2.6384807e-05
-2.4810596 -2.119025 -1.3628557 10 0.13025342 -0.018821299 0.99130207 3.2000888e-05
-2.4869676 -2.112088 -1.3628557 10 0.13023897 -0.018821599 0.99130392 3.0294972e-05
-2.4879482 -2.099504 -1.3597722 10 0.13023041 -0.018788071 0.99130577 3.0946972e-05
-2.4976766 -2.0965436 -1.3620847 10 0.13025787 -0.018793385 0.99130201 2.8832763e-05
-2.5014167 -2.0863216 -1.3605431 9 0.13024871 -0.018749237 0.99130404 2.6846144e-05
-2.5015512 -2.0746157 -1.3574597 10 0.13022725 -0.018739482 0.99130708 2.8078959e-05
-2.5062714 -2.066011 -1.3566889 10 0.13020512 -0.018697441 0.99131078 2.6175832e-05
-2.5130982 -2.0606129 -1.3574597 10 0.13020983 -0.018662689 0.99131083 2.6619666e-05
-2.5181293 -2.0515413 -1.3566889 10 0.13017727 -0.018602008 0.9913162 2.5022473e-05
-2.5209804 -2.0421786 -1.3551471 10 0.13015412 -0.01851508 0.99132091 2.1050497e-05
-2.5241535 -2.0323746 -1.3536054 10 0.13011914 -0.018467283 0.99132639 2.1672146e-05
-2.5280254 -2.0246058 -1.3528346 10 0.1301074 -0.018420167 0.99132878 2.0355805e-05
-2.5311332 -2.0147977 -1.351293 10 0.13006875 -0.018357076 0.99133503 2.0312425e-05
-2.5371001 -2.0072787 -1.351293 10 0.13005236 -0.018286848 0.99133843 1.5460524e-05
-2.5401433 -1.9974606 -1.3497512 10 0.13003226 -0.018209366 0.99134248 1.787673e-05
-2.5486188 -1.9926331 -1.351293 10 0.13002962 -0.018153654 0.99134386 1.8369368e-05
-2.5563242 -1.9857479 -1.3520638 10 0.13000448 -0.018090032 0.99134833 1.7734779e-05
-2.5589383 -1.9763461 -1.350522 9 0.12997843 -0.018002471 0.99135339 1.6664319e-05
-2.5615199 -1.9669445 -1.3489804 9 0.12995788 -0.017939676 0.99135721 1.5066906e-05
-2.5658772 -1.9582162 -1.3482095 10 0.12992735 -0.017835788 0.99136305 1.7040182e-05
-2.5683954 -1.9488121 -1.3466679 10 0.12992267 -0.017751912 0.99136519 1.2770975e-05
-2.5756397 -1.942294 -1.3474387 10 0.12989028 -0.017667148 0.99137098 1.2898092e-05
-2.5799148 -1.9335365 -1.3466679 9 0.12985615 -0.017560869 0.99137735 1.0210079e-05
-2.5853038 -1.9263248 -1.3466679 10 0.12983383 -0.017466104 0.99138188 1.2569999e-05
-2.5888553 -1.9184508 -1.345897 10 0.12982576 -0.017410818 0.99138391 1.3318463e-05
-2.5918972 -1.9081199 -1.3443553 10 0.12977239 -0.017263373 0.99139351 1.3374907e-05
-2.5987051 -1.9019644 -1.3451262 10 0.12977357 -0.017218217 0.99139416 1.1871652e-05
-2.596875 -1.8888178 -1.341272 10 0.12971443 -0.01708385 0.99140418 9.8718729e-06
-2.6054587 -1.8832673 -1.3428136 10 0.12969348 -0.017013511 0.99140817 1.0813181e-05
-2.6122065 -1.8770607 -1.3435844 9 0.12967707 -0.016965508 0.99141115 1.3832917e-05
-2.6084273 -1.8633227 -1.3389593 10 0.12963125 -0.01683512 0.99141932 1.1664963e-05
-2.6154494 -1.8566433 -1.3397301 10 0.12962274 -0.016747156 0.99142194 1.3263556e-05
-2.6209466 -1.8488747 -1.3397301 10 0.12960529 -0.016631316 0.99142623 1.4800702e-05
-2.626421 -1.84109 -1.3397301 10 0.12957042 -0.016543223 0.99143219 1.6995125e-05
-2.6300378 -1.8326938 -1.3389593 10 0.12953888 -0.016411142 0.99143857 1.6120688e-05
-2.6321113 -1.8232404 -1.3374177 10 0.1295238 -0.016273463 0.99144274 1.8851937e-05
-2.6393466 -1.8160083 -1.3381885 9 0.12947577 -0.016168453 0.99145073 2.0187385e-05
-2.644407 -1.8086312 -1.3381885 10 0.12947971 -0.016075216 0.9914518 1.8837229e-05
-2.6479216 -1.8002019 -1.3374177 9 0.12945752 -0.015965883 0.99145639 2.1678105e-05
-2.6520345 -1.7908413 -1.3366468 10 0.12943149 -0.015818991 0.99146217 2.0176994e-05
-2.656714 -1.783892 -1.3366468 9 0.12941769 -0.015752941 0.99146503 2.0089161e-05
-2.6573894 -1.7729293 -1.3343343 10 0.12941174 -0.015591266 0.99146843 1.8125582e-05
-2.6644852 -1.765591 -1.3351052 10 0.12937334 -0.015471537 0.99147528 1.7509396e-05
-2.6610866 -1.7539972 -1.3312509 10 0.12934551 -0.015279626 0.9914819 1.976521e-05
-2.668128 -1.7466393 -1.3320217 10 0.12930429 -0.015176526 0.99148881 2.0569898e-05
-2.6748455 -1.7397217 -1.3327926 10 0.1292883 -0.01506489 0.99149269 1.8586587e-05
-2.6762915 -1.7307086 -1.3312509 10 0.12925862 -0.014939 0.99149841 1.9006098e-05
-2.6845202 -1.7247552 -1.3327926 10 0.12924296 -0.014873578 0.99150133 1.4949761e-05
-2.683702 -1.7123427 -1.3297092 10 0.12921405 -0.014687716 0.99150789 1.3428375e-05
-2.6881762 -1.7053101 -1.3297092 10 0.12918611 -0.014559802 0.99151349 1.1925611e-05
-2.6901014 -1.6953593 -1.3281676 10 0.129152 -0.014411272 0.99152011 1.2196277e-05
-2.6969788 -1.6878786 -1.3289384 10 0.12914144 -0.014297171 0.99152309 1.0177086e-05
-2.6963944 -1.6783584 -1.3266258 9 0.12912913 -0.014122358 0.99152726 9.7142938e-06
-2.7063637 -1.6727893 -1.3289384 9 0.12912266 -0.014039353 0.99152923 7.6551096e-06
-2.7065966 -1.6618557 -1.3266258 10 0.12910549 -0.013865964 0.99153394 6.9020284e-06
-2.706212 -1.6518799 -1.3243133 10 0.12909973 -0.013710557 0.99153686 7.1587938e-06
-2.7129672 -1.6443257 -1.3250842 10 0.12906089 -0.013561399 0.99154395 7.1869622e-06
-2.7130904 -1.6334137 -1.3227717 10 0.12905148 -0.01342091 0.99154705 8.0055115e-06
-2.7126071 -1.623462 -1.320459 9 0.12904207 -0.013282923 0.99155015 1.1464615e-05
-2.7203023 -1.617767 -1.3220007 10 0.12904306 -0.01319251 0.99155122 1.2162697e-05
-2.7206042 -1.606398 -1.3196883 9 0.12901632 -0.013018164 0.991557 1.2805152e-05
-2.7250791 -1.5987948 -1.3196883 9 0.12898256 -0.012901037 0.9915629 1.6257587e-05
-2.7314055 -1.5916313 -1.320459 10 0.12896253 -0.012770679 0.99156725 1.9693882e-05
-2.7361159 -1.5835198 -1.320459 9 0.12892571 -0.012625035 0.99157387 2.1955715e-05
-2.7354529 -1.573591 -1.3181465 9 0.12892291 -0.012454281 0.99157637 1.7236063e-05
-2.7369049 -1.5636368 -1.3166049 9 0.12892301 -0.012278502 0.99157858 1.8015071e-05
-2.7415323 -1.5555091 -1.3166049 10 0.12891857 -0.012137789 0.99158084 1.7636967e-05
-2.7442582 -1.5469409 -1.315834 9 0.12890916 -0.01198745 0.991584 1.9518629e-05
-2.7474935 -1.5374112 -1.3150631 8 0.12887938 -0.011792858 0.9915902 2.2018829e-05
-2.7533894 -1.5306293 -1.315834 10 0.12886891 -0.011665316 0.991593 2.2117616e-05
-2.7544219 -1.52115 -1.3142923 9 0.12888016 -0.011506276 0.99159348 2.1147462e-05
-2.759187 -1.5124897 -1.3142923 9 0.12885322 -0.011312709 0.9915992 2.3873126e-05
-2.7582755 -1.5026121 -1.3119798 9 0.12881643 -0.011160197 0.99160564 2.514148e-05
-2.7659683 -1.4961776 -1.3135215 10 0.12880634 -0.011010679 0.99160862 2.7722013e-05
-2.7638919 -1.4844711 -1.310438 9 0.12875822 -0.010794431 0.99161726 3.0220406e-05
-2.769655 -1.4776156 -1.311209 9 0.12876464 -0.010652042 0.99161798 2.8200231e-05
-2.7786627 -1.4724678 -1.3135215 9 0.12874836 -0.010522757 0.99162149 2.9492794e-05
-2.7751076 -1.4594365 -1.3096672 9 0.1287484 -0.010198366 0.99162483 2.3096303e-05
-2.7789192 -1.4521661 -1.3096672 10 0.12872277 -0.010073441 0.99162948 2.5638339e-05
-2.7848535 -1.4447641 -1.310438 10 0.12869003 -0.0098494189 0.99163598 2.5794421e-05
-2.7907686 -1.4373406 -1.311209 9 0.12866858 -0.009716494 0.99164003 2.9674717e-05
-2.7914855 -1.4278606 -1.3096672 10 0.12862174 -0.0094830571 0.99164838 3.1779095e-05
-2.7957098 -1.4195718 -1.3096672 9 0.12859856 -0.0093045905 0.99165308 3.2048658e-05
-2.7966135 -1.4096088 -1.3081255 9 0.12859662 -0.0090725264 0.99165547 3.2322165e-05
-2.7972386 -1.4001416 -1.3065839 9 0.12856367 -0.0088333897 0.99166191 3.108798e-05
-2.8013804 -1.3918363 -1.3065839 10 0.12853919 -0.0086507685 0.99166667 3.0740866e-05
-2.8054979 -1.3835182 -1.3065839 10 0.12851827 -0.0084373252 0.99167132 3.2038162e-05
-2.8074529 -1.3753573 -1.3058131 9 0.12847097 -0.0082389563 0.99167907 2.9271971e-05
-2.8079634 -1.3658973 -1.3042712 9 0.12847306 -0.0079485942 0.99168116 3.3821227e-05
-2.8139026 -1.3578717 -1.3050421 9 0.12837696 -0.0077408431 0.99169523 3.5872214e-05
-2.8143549 -1.3484135 -1.3035005 9 0.12838744 -0.0075353612 0.99169546 3.6467274e-05
-2.8200099 -1.3408494 -1.3042712 9 0.12830839 -0.0072281132 0.99170798 3.6573379e-05
-2.8223069 -1.3316894 -1.3035005 9 0.12832087 -0.0069865976 0.9917081 3.4251636e-05
-2.8243434 -1.3230199 -1.3027296 9 0.12830584 -0.0067547485 0.99171168 3.0696861e-05
-2.8246801 -1.313571 -1.3011879 10 0.12826923 -0.0064693228 0.99171835 2.974565e-05
-2.8302412 -1.3059573 -1.3019588 9 0.12822288 -0.006270268 0.99172556 3.0759158e-05
-2.8341036 -1.297554 -1.3019588 9 0.12815849 -0.0060203122 0.9917354 3.0795101e-05
-2.8362603 -1.2883765 -1.3011879 9 0.12812637 -0.0056906035 0.99174154 3.107993e-05
-2.8415298 -1.2812096 -1.3019588 9 0.12806647 -0.0054925685 0.99175042 3.2366552e-05
-2.8400431 -1.2710078 -1.2996463 9 0.12805299 -0.0051986184 0.9917537 2.90841e-05
-2.8520143 -1.2668175 -1.3035005 9 0.12832454 -0.0049583106 0.99171984 3.4461227e-05
-2.852602 -1.2563641 -1.3019588 9 0.12820707 -0.0046671424 0.99173647 3.6615016e-05
-2.8544083 -1.247654 -1.3011879 9 0.1281375 -0.0043970314 0.9917466 3.6538808e-05
-2.8549271 -1.2372127 -1.2996463 10 0.12796488 -0.0040708426 0.99177027 4.0625411e-05
-2.8598516 -1.2304634 -1.3004171 9 0.12810965 -0.003777815 0.9917528 3.8156282e-05
-2.8617926 -1.2212481 -1.2996463 9 0.12805876 -0.0034454393 0.99176055 3.8917737e-05
-2.862216 -1.2108142 -1.2981045 9 0.12793151 -0.0030973663 0.99177819 3.9868275e-05
-2.8617628 -1.2023875 -1.2965628 10 0.12776485 -0.0028468887 0.99180043 4.3356187e-05
-2.8689339 -1.1948093 -1.2981045 9 0.1279995 -0.0024878858 0.99177116 5.0127353e-05
-2.8707602 -1.1855878 -1.2973337 10 0.12794212 -0.0021801575 0.99177927 5.0013241e-05
-2.8721468 -1.1773678 -1.2965628 9 0.12782812 -0.0018928584 0.99179453 5.6517278e-05
-2.8790467 -1.1702312 -1.2981045 10 0.12799144 -0.0015867476 0.99177402 5.5015335e-05
-2.8809972 -1.1604903 -1.2973337 10 0.12786821 -0.0012379162 0.99179035 5.3810963e-05
-2.8840253 -1.1529443 -1.2973337 9 0.12784746 -0.00096454215 0.99179339 5.3241649e-05
-2.8857176 -1.1437027 -1.2965628 10 0.12779164 -0.000608448 0.99180084 5.8067544e-05
-2.8890986 -1.1351347 -1.2965628 10 0.12778701 -0.00027512995 0.99180156 5.9947586e-05
-2.890341 -1.1268973 -1.295792 9 0.1277132 4.695063e-05 0.99181116 6.2664156e-05
-2.893672 -1.1183164 -1.295792 10 0.12764475 0.00035461574 0.99181992 6.6309629e-05
-2.8954475 -1.1085602 -1.2950212 10 0.12760119 0.00072816078 0.99182522 7.0558286e-05
-2.8948894 -1.0996652 -1.2934794 9 0.12752891 0.0010342279 0.99183434 7.2268573e-05
-2.8962219 -1.0909261 -1.2927086 9 0.12747994 0.0013225583 0.9918403 7.8286372e-05
-2.9050112 -1.0832502 -1.2950212 9 0.12751317 0.0017490677 0.99183524 7.8108867e-05
-2.9043753 -1.0743611 -1.2934794 9 0.12742007 0.002092425 0.99184662 8.0768812e-05
-2.9056315 -1.0656108 -1.2927086 9 0.12736018 0.0024313077 0.99185359 8.3528997e-05
-2.9106996 -1.0571077 -1.2934794 9 0.12737763 0.0028497791 0.9918502 8.0942686e-05
-2.9134572 -1.0494837 -1.2934794 10 0.12732567 0.0031475478 0.99185598 8.3050771e-05
-2.9167397 -1.0403254 -1.2934794 9 0.12733343 0.0035082058 0.99185371 8.4683088e-05
-2.9232936 -1.032897 -1.2950212 10 0.12728755 0.0038829781 0.9918583 8.7402048e-05
-2.9242463 -1.024629 -1.2942504 10 0.12727059 0.0041578505 0.99185932 8.516635e-05
-2.9272735 -1.0159487 -1.2942504 9 0.12722504 0.0045603774 0.99186337 8.6414228e-05
-2.9232941 -1.004859 -1.2911669 9 0.12708351 0.0050612083 0.99187911 8.6539323e-05
-2.9313295 -0.99847656 -1.2934794 9 0.12721714 0.005324462 0.99186051 8.7605127e-05
-2.9292054 -0.98749453 -1.2911669 10 0.12709497 0.0058302372 0.99187338 8.9960711e-05
-2.9302011 -0.97872597 -1.2903961 9 0.12703744 0.0061810147 0.99187869 9.0822621e-05
-2.934675 -0.97111905 -1.2911669 10 0.12696619 0.0065648127 0.99188536 9.0863046e-05
-2.9408822 -0.96407032 -1.2927086 9 0.12696645 0.0068993703 0.99188304 9.0073379e-05
-2.9402194 -0.95420152 -1.2911669 10 0.12688924 0.0073273131 0.99188983 8.9463589e-05
-2.9411154 -0.94542217 -1.2903961 9 0.12679905 0.0076937662 0.9918986 9.1673959e-05
-2.9423127 -0.93561774 -1.2896253 9 0.12666214 0.0081717502 0.99191225 9.4950869e-05
-2.9394712 -0.92624807 -1.2873127 9 0.12658674 0.0085231382 0.99191892 9.6467702e-05
-2.9457302 -0.91862112 -1.2888544 9 0.12659389 0.0089100655 0.99191457 9.4928211e-05
-2.9502063 -0.91042167 -1.2896253 9 0.12661748 0.0092845093 0.99190813 9.4759591e-05
-2.9511294 -0.90112501 -1.2888544 9 0.12656352 0.0096499883 0.99191159 9.6651987e-05
-2.9536345 -0.89288026 -1.2888544 9 0.12646362 0.010051707 0.99192029 0.00010199233
-2.9580388 -0.884642 -1.2896253 9 0.1264134 0.01044917 0.99192256 0.00010185552
-2.9550364 -0.87532145 -1.2873127 8 0.12634403 0.010804914 0.99192762 0.00010348857
-2.9560001 -0.86551559 -1.2865418 9 0.12628937 0.011323252 0.99192882 0.00010426465
-2.9550099 -0.85571432 -1.2850001 10 0.12618293 0.011773158 0.9919371 0.00010783484
-2.9610841 -0.84795958 -1.2865418 9 0.12616907 0.01210441 0.9919349 0.00010772893
-2.9615188 -0.83970022 -1.285771 8 0.12612157 0.012515902 0.99193585 0.00010883038
-2.9639969 -0.83091003 -1.285771 9 0.12598877 0.012900609 0.99194783 0.00010743762
-2.966306 -0.82262963 -1.285771 9 0.12598492 0.013319285 0.99194276 0.00010607229
-2.9687338 -0.81382459 -1.285771 9 0.12591907 0.013763692 0.99194503 0.00010264806
-2.9675725 -0.80404788 -1.2842294 9 0.12575772 0.014186696 0.99195951 0.00010495372
-2.9735105 -0.79619396 -1.285771 9 0.12576403 0.014646653 0.99195206 0.00010627344
-2.9757223 -0.78788704 -1.285771 9 0.12571552 0.014993472 0.99195302 0.00010744523
-2.9726911 -0.77765304 -1.2834585 8 0.1256012 0.015376847 0.9919616 0.00010780969
-2.9800763 -0.77125549 -1.285771 9 0.12558429 0.015766898 0.99195766 0.0001074747
-2.9789085 -0.76097584 -1.2842294 9 0.12547526 0.016258994 0.99196351 0.00010778543
-2.9774435 -0.75175047 -1.2826875 9 0.12534836 0.01667623 0.99197263 0.00010708357
-2.9813216 -0.74388027 -1.2834585 9 0.12531663 0.01709749 0.99196947 0.0001025712
-2.9836438 -0.73451036 -1.2834585 9 0.12522307 0.017506324 0.99197417 0.00010355864
-2.9874763 -0.7266115 -1.2842294 10 0.1251772 0.017892979 0.99197298 0.00010020808
-2.9896193 -0.71774411 -1.2842294 9 0.12507376 0.018368293 0.99197739 0.00010108906
-2.991612 -0.70939255 -1.2842294 9 0.12498435 0.018775318 0.99198109 0.00010097186
-2.9916623 -0.70113748 -1.2834585 9 0.12492864 0.01911192 0.99198163 9.9625824e-05
-2.9902537 -0.69090515 -1.2819169 9 0.12487403 0.019633794 0.99197835 9.8542929e-05
-2.9940898 -0.68243903 -1.2826875 9 0.12481093 0.020061225 0.99197775 9.825192e-05
-2.9958663 -0.67459863 -1.2826875 9 0.1247064 0.02047056 0.99198252 9.9068151e-05
-2.9943676 -0.66438389 -1.2811459 9 0.12457874 0.020886164 0.99198985 9.9325756e-05
-2.9978995 -0.65693724 -1.2819169 9 0.12458732 0.021260729 0.99198085 9.9307668e-05
-2.9998353 -0.64803922 -1.2819169 8 0.12450735 0.021697376 0.99198145 9.9788434e-05
-3.0017447 -0.6391362 -1.2819169 8 0.12441133 0.022049772 0.99198568 0.00010170421
-3.0072403 -0.63098478 -1.2834585 8 0.12437522 0.022515779 0.99197978 0.00010202319
-3.0089908 -0.6225844 -1.2834585 9 0.124276 0.022892067 0.99198365 0.00010220528
-3.0072079 -0.61291718 -1.2819169 9 0.12419913 0.023339553 0.99198276 0.00010396542
-3.0143359 -0.60560739 -1.2842294 8 0.12417065 0.023711057 0.99197757 0.00010420735
-3.0105844 -0.59611189 -1.2819169 8 0.12414175 0.024093736 0.99197197 0.00010234482
-3.0124424 -0.58665079 -1.2819169 9 0.12394284 0.02457536 0.99198496 0.0001033329
-3.0104439 -0.57754058 -1.2803751 9 0.12386014 0.024947381 0.99198604 0.00010796994
-3.0120451 -0.56913137 -1.2803751 8 0.12377898 0.025324184 0.99198669 0.00010990194
-3.0208797 -0.56206948 -1.2834585 9 0.12380929 0.025674671 0.99197382 0.00010907719
-3.0170879 -0.5521071 -1.2811459 10 0.12365852 0.026064487 0.99198246 0.00010985198
-3.0223458 -0.54380554 -1.2826875 10 0.1236101 0.026522355 0.99197632 0.00011058932
-3.0275803 -0.53547901 -1.2842294 9 0.12352555 0.026992328 0.99197423 0.00010889221
-3.0254273 -0.52639019 -1.2826875 8 0.1234673 0.02738332 0.99197078 0.00010954203
-3.0306141 -0.51803225 -1.2842294 9 0.12334988 0.027783114 0.99197423 0.00011252453
-3.03196 -0.51009685 -1.2842294 9 0.12331189 0.028122537 0.99196935 0.0001150792
-3.0317268 -0.50026852 -1.2834585 9 0.1231816 0.028538898 0.9919737 0.00011389737
-3.0367551 -0.49239165 -1.2850001 9 0.12306618 0.029043127 0.99197334 0.00011296221
-3.0346422 -0.48226887 -1.2834585 9 0.12296932 0.029408764 0.99197471 0.00011052372
-3.0396237 -0.47436225 -1.2850001 9 0.12291383 0.029819703 0.99196929 0.00011075917
-3.0391123 -0.4655925 -1.2842294 9 0.12282313 0.030237999 0.9919678 0.00011133065
-3.0422256 -0.45737806 -1.2850001 9 0.12271676 0.030646268 0.99196851 0.00011221375
-3.0399179 -0.44781226 -1.2834585 9 0.12266088 0.031039614 0.99196309 0.00011735685
-3.0412331 -0.43879053 -1.2834585 9 0.12250058 0.031509522 0.9919681 0.00011723044
-3.0425966 -0.42923388 -1.2834585 9 0.12236222 0.031914767 0.99197227 0.00011747006
-3.0436366 -0.4217979 -1.2834585 9 0.1222624 0.032259759 0.9919734 0.00011698298
-3.0467751 -0.41248208 -1.2842294 9 0.1222458 0.032693766 0.99196124 0.00011796665
-3.0515034 -0.40498963 -1.285771 9 0.12216873 0.033060808 0.99195856 0.00011419083
-3.0526917 -0.39593366 -1.285771 9 0.12211718 0.033504512 0.99195004 0.00011576687
-3.0465298 -0.38594648 -1.2826875 9 0.12193982 0.033850696 0.99196005 0.00011185278
-3.0532215 -0.37705275 -1.2850001 9 0.12184286 0.034352448 0.99195468 0.00011033578
-3.0541983 -0.36905789 -1.2850001 10 0.12177216 0.034580659 0.99195546 0.00011271449
-3.05528 -0.35999414 -1.2850001 9 0.12167822 0.034964874 0.99195355 0.00010903397
-3.0581069 -0.35167143 -1.285771 9 0.12161172 0.035452619 0.99194437 0.00010984925
-3.0628645 -0.34247312 -1.2873127 9 0.12153273 0.035865035 0.99193931 0.00010665528
-3.0582469 -0.33385304 -1.2850001 9 0.12139001 0.036163032 0.99194586 0.00010685475
-3.061116 -0.32443729 -1.285771 9 0.12133721 0.036649693 0.99193448 0.00010887256
-3.0637903 -0.31661236 -1.2865418 9 0.12126169 0.036980521 0.9919315 0.00010776879
-3.0647161 -0.30752036 -1.2865418 10 0.12117973 0.037370633 0.99192691 0.00010571144
-3.0637264 -0.29878154 -1.285771 9 0.12105699 0.037739195 0.99192792 0.0001074711
-3.0664871 -0.28932828 -1.2865418 9 0.12093846 0.038207795 0.99192446 0.00010584338
-3.0672832 -0.28076446 -1.2865418 10 0.12084493 0.038543694 0.99192286 0.00010504931
-3.0736177 -0.27215055 -1.2888544 9 0.12083834 0.03895897 0.99190736 0.00010347473
-3.0779972 -0.26441857 -1.2903961 9 0.12079383 0.039338194 0.99189782 0.00010644065
-3.075134 -0.25444371 -1.2888544 9 0.12061658 0.039800424 0.99190098 0.00010453165
-3.0813947 -0.24575773 -1.2911669 9 0.12056649 0.040158041 0.99189264 0.00010332259
-3.0802286 -0.23701084 -1.2903961 9 0.12046639 0.04057451 0.99188793 0.00010284555
-3.0827589 -0.22800727 -1.2911669 9 0.12040587 0.040922962 0.99188095 0.00010438605
-3.0815427 -0.21926649 -1.2903961 9 0.12036555 0.041239094 0.99187273 0.00010414772
-3.0840211 -0.21024777 -1.2911669 9 0.12027661 0.041658275 0.99186599 0.00010146764
-3.080878 -0.20193146 -1.2896253 10 0.12015385 0.041936923 0.99186915 9.8891178e-05
-3.0870225 -0.19259694 -1.2919378 9 0.12014685 0.042358875 0.99185205 9.5892545e-05
-3.0912328 -0.18419494 -1.2934794 9 0.12004461 0.042798534 0.99184555 9.1635651e-05
-3.0880806 -0.17481348 -1.2919378 9 0.11998767 0.043136336 0.9918378 9.5214265e-05
-3.0903704 -0.16682753 -1.2927086 9 0.1199367 0.043430068 0.99183106 9.3287505e-05
-3.0908792 -0.15711789 -1.2927086 9 0.11985428 0.043795139 0.99182498 9.3692761e-05
-3.0931494 -0.14857498 -1.2934794 9 0.11975648 0.044196967 0.99181908 9.0209891e-05
-3.095396 -0.14001989 -1.2942504 9 0.11969841 0.044565801 0.99180949 8.9424509e-05
-3.0921099 -0.13067903 -1.2927086 10 0.11956487 0.044871051 0.99181193 8.8888519e-05
-3.0943282 -0.12157626 -1.2934794 10 0.11954174 0.045211829 0.99179918 8.5486448e-05
-3.094636 -0.11347542 -1.2934794 10 0.11941543 0.045530271 0.99179983 8.2359562e-05
-3.0931325 -0.1036908 -1.2927086 9 0.11930164 0.045905739 0.99179626 8.4725609e-05
-3.0970995 -0.095166638 -1.2942504 9 0.11931571 0.046232253 0.99177939 7.8929908e-05
-3.0991979 -0.086568855 -1.2950212 9 0.11927976 0.046568558 0.991768 7.7675075e-05
-3.1049895 -0.07696908 -1.2973337 10 0.11925771 0.046920296 0.99175406 7.5663753e-05
-3.1033587 -0.067715615 -1.2965628 9 0.11918297 0.047203612 0.99174964 7.2884119e-05
-3.1035256 -0.059591312 -1.2965628 10 0.11908741 0.047441352 0.99174964 7.0756927e-05
-3.1018436 -0.050352577 -1.295792 9 0.11899741 0.047758926 0.99174523 6.8668749e-05
-3.10567 -0.041197788 -1.2973337 10 0.11894183 0.048164602 0.99173236 6.2349194e-05
-3.1076295 -0.03145938 -1.2981045 10 0.11893675 0.048487842 0.99171722 5.8449317e-05
-3.1095467 -0.023337869 -1.2988753 9 0.11889611 0.048740491 0.99170965 5.7256817e-05
-3.1114473 -0.014119758 -1.2996463 10 0.1188307 0.049076889 0.99170095 5.7444533e-05
-3.1096284 -0.0059701749 -1.2988753 9 0.11879484 0.049261633 0.991696 5.5547011e-05
-3.1077864 0.0037961809 -1.2981045 10 0.11869556 0.049567353 0.99169272 5.1185139e-05
-3.1114523 0.013032782 -1.2996463 9 0.11864131 0.049883068 0.99168342 5.0680628e-05
-3.1169362 0.02230438 -1.3019588 9 0.11861304 0.050294772 0.99166596 4.9711776e-05
-3.1150165 0.030990269 -1.3011879 9 0.1184683 0.05047987 0.99167389 4.4352004e-05
-3.1130722 0.039665606 -1.3004171 9 0.11837526 0.05071101 0.99167311 4.2636198e-05
-3.1110957 0.048872545 -1.2996463 9 0.11831383 0.050923403 0.99166965 4.1838484e-05
-3.1146474 0.057085086 -1.3011879 9 0.11831476 0.051241409 0.99165308 3.9110095e-05
-3.1107626 0.066790663 -1.2996463 10 0.11814456 0.05142029 0.99166417 3.5124765e-05
-3.1179438 0.075656563 -1.3027296 9 0.11817812 0.051785655 0.99164116 3.4598692e-05
-3.1158609 0.084856547 -1.3019588 10 0.11809388 0.051959313 0.99164212 3.3912005e-05
-3.1193173 0.093123943 -1.3035005 9 0.11814638 0.05219955 0.99162322 2.9910454e-05
-3.1189914 0.10346758 -1.3035005 9 0.11805157 0.052483093 0.99161953 2.6204998e-05
-3.1187096 0.11163297 -1.3035005 9 0.11797605 0.05268706 0.99161774 2.3628241e-05
-3.1202297 0.12041224 -1.3042712 10 0.11792976 0.052871455 0.99161339 2.2879271e-05
-3.1198361 0.13021427 -1.3042712 9 0.11783873 0.05310405 0.99161178 2.1361895e-05
-3.123148 0.13909043 -1.3058131 9 0.11784536 0.053354193 0.99159759 2.4345105e-05
-3.1190603 0.14763629 -1.3042712 9 0.11773996 0.053510897 0.99160171 2.0680431e-05
-3.1222951 0.15707572 -1.3058131 10 0.11777461 0.053757604 0.99158418 1.9118523e-05
-3.1273725 0.166088 -1.3081255 9 0.11776852 0.053995386 0.99157202 1.8039076e-05
-3.1268661 0.17536579 -1.3081255 10 0.11776317 0.054183923 0.99156237 1.2339661e-05
-3.1244898 0.184534 -1.3073547 9 0.11767194 0.054367058 0.9915632 1.0102061e-05
-3.1239285 0.19380465 -1.3073547 9 0.11765496 0.054548483 0.99155521 1.1050845e-05
-3.1270936 0.2022201 -1.3088964 10 0.11766994 0.054716248 0.99154425 7.5016574e-06
-3.1264429 0.21204256 -1.3088964 10 0.11766928 0.054874908 0.99153554 8.3509194e-06
-3.1276796 0.22090264 -1.3096672 9 0.1176538 0.055049367 0.99152774 9.1997808e-06
-3.1288908 0.22977126 -1.310438 9 0.1176277 0.055208735 0.99152195 1.0742031e-05
-3.1281953 0.23905404 -1.310438 9 0.11761975 0.055365734 0.99151409 9.3989074e-06
-3.1311951 0.24808037 -1.3119798 9 0.11761621 0.055502832 0.99150687 1.0335577e-05
-3.1304452 0.25736916 -1.3119798 10 0.11760936 0.05563546 0.99150026 9.1613592e-06
-3.1296678 0.2666564 -1.3119798 9 0.11760955 0.055804066 0.99149078 6.0000598e-06
-3.1307495 0.27555707 -1.3127506 10 0.11759587 0.055964019 0.99148327 6.4540627e-06
-3.1299181 0.2848444 -1.3127506 10 0.11758491 0.056056354 0.99147946 8.8782381e-06
-3.1308968 0.2943027 -1.3135215 9 0.11756697 0.056217868 0.99147242 9.448353e-06
-3.1300097 0.30359113 -1.3135215 10 0.11757424 0.056340784 0.99146456 1.0893745e-05
-3.1328766 0.3121506 -1.3150631 10 0.11757868 0.056457866 0.99145734 1.1653489e-05
-3.1300449 0.32180196 -1.3142923 10 0.11758599 0.056562126 0.99145055 1.1534562e-05
-3.1328046 0.33092937 -1.315834 9 0.11758381 0.056663346 0.99144512 1.205094e-05
-3.1318088 0.34022331 -1.315834 9 0.11756747 0.05675767 0.99144155 1.1954895e-05
-3.1289513 0.34930876 -1.3150631 10 0.11757787 0.056874327 0.99143368 9.6286576e-06
-3.1297975 0.35825515 -1.315834 10 0.11759933 0.056948498 0.99142683 5.8043192e-06
-3.1306176 0.36720899 -1.3166049 10 0.11759277 0.057046741 0.991422 4.6259688e-06
-3.1294484 0.37704244 -1.3166049 10 0.11761346 0.057149645 0.99141365 3.4543568e-06
-3.1303496 0.38491279 -1.3173757 10 0.11757667 0.05722703 0.99141347 6.6780908e-06
-3.1309557 0.39497697 -1.3181465 9 0.11759546 0.057304703 0.9914068 4.1375283e-06
-3.1279399 0.404028 -1.3173757 10 0.11759545 0.057402164 0.99140126 9.7668999e-07
-3.1305308 0.41269746 -1.3189174 10 0.11760712 0.057495758 0.99139434 0
-3.136534 0.42351893 -1.3220007 9 0.11764049 0.057601579 0.99138433 0
-3.1371675 0.43252769 -1.3227717 10 0.11763788 0.057629962 0.99138296 0
-3.1322927 0.4407725 -1.3212299 10 0.11762546 0.057697851 0.99138045 0
-3.1309712 0.45006371 -1.3212299 10 0.11761689 0.057762928 0.99137771 0
-3.1350996 0.46015567 -1.3235425 10 0.11764822 0.057879917 0.9913671 0
-3.1338842 0.468362 -1.3235425 10 0.11764616 0.057912156 0.99136543 0
-3.1342216 0.47848296 -1.3243133 10 0.11766412 0.057970475 0.99135995 0
-3.1328731 0.4872337 -1.3243133 10 0.11767728 0.058028348 0.99135506 0
-3.1333232 0.49626935 -1.3250842 10 0.11770623 0.058097448 0.99134749 0
-3.1336589 0.50585818 -1.3258549 10 0.11772513 0.058179196 0.99134046 0
-3.132144 0.51515388 -1.3258549 10 0.11775725 0.058221027 0.99133426 0
-3.1343336 0.52450788 -1.3273968 10 0.11778341 0.058283366 0.99132746 0
-3.1364024 0.53442472 -1.3289384 10 0.1177772 0.058330417 0.99132538 0
-3.1348028 0.54372847 -1.3289384 10 0.11779764 0.058375012 0.99132043 0
-3.1313584 0.55270588 -1.3281676 10 0.11779694 0.058413967 0.99131817 0
-3.1298027 0.56144834 -1.3281676 10 0.11780976 0.05847656 0.99131298 0
-3.1317539 0.57139474 -1.3297092 10 0.11784282 0.058477186 0.99130899 0
-3.1354883 0.58169442 -1.3320217 10 0.11788426 0.058533087 0.99130076 0
-3.1303275 0.58921784 -1.3304801 10 0.11787787 0.058577977 0.99129891 0
-3.1321905 0.59919757 -1.3320217 10 0.11790255 0.058613796 0.99129373 0
-3.1303988 0.60848778 -1.3320217 10 0.11795114 0.058650926 0.99128586 0
-3.1303902 0.61813086 -1.3327926 10 0.11798705 0.058690622 0.99127918 0
-3.13589 0.62832063 -1.335876 10 0.11803491 0.058704946 0.99127269 0
-3.1323149 0.63670707 -1.3351052 10 0.11804958 0.058719587 0.99127007 0
-3.1287169 0.6450792 -1.3343343 10 0.11804424 0.058766127 0.99126792 0
-3.1284814 0.65528369 -1.3351052 10 0.11806921 0.058784917 0.99126381 0
-3.1284447 0.66440034 -1.335876 10 0.11810222 0.058794118 0.99125934 0
-3.1245379 0.67383647 -1.3351052 10 0.11813495 0.058838435 0.99125284 0
-3.1318972 0.68343663 -1.3389593 10 0.11819236 0.058816839 0.99124724 0
-3.1261311 0.69247359 -1.3374177 10 0.11820935 0.058854897 0.991243 0
-3.1257405 0.70269608 -1.3381885 9 0.11825743 0.058844812 0.99123788 0
-3.125814 0.7107411 -1.3389593 10 0.11828559 0.058871452 0.99123293 3.2138034e-06
-3.1271622 0.72138667 -1.3405011 10 0.11831996 0.058879767 0.99122828 1.5270573e-06
-3.128602 0.73150241 -1.3420427 9 0.11836267 0.058880348 0.99122322 3.4617397e-06
-3.1265471 0.74023652 -1.3420427 10 0.118374 0.058928348 0.99121898 6.0953294e-06
-3.1244676 0.74896485 -1.3420427 10 0.11839707 0.058976937 0.99121332 7.042463e-06
-3.1203063 0.75834054 -1.341272 10 0.11840563 0.059036285 0.99120873 1.1232365e-05
-3.1183102 0.76650709 -1.341272 10 0.11840872 0.059055954 0.99120718 1.5278747e-05
-3.1213946 0.77709359 -1.3435844 10 0.1184596 0.059090104 0.9911992 1.6566351e-05
-3.1190751 0.78635168 -1.3435844 10 0.11851656 0.059105024 0.99119145 1.9739711e-05
-3.118794 0.79497081 -1.3443553 9 0.11854243 0.059124786 0.99118716 1.8065277e-05
-3.1144943 0.80430275 -1.3435844 10 0.11855941 0.059164893 0.99118274 2.077419e-05
-3.122807 0.8163408 -1.3482095 10 0.11864824 0.059183143 0.991171 2.0556397e-05
-3.1117377 0.82215667 -1.3443553 10 0.11863408 0.059202038 0.99117154 2.1106462e-05
-3.1092846 0.83138591 -1.3443553 10 0.11866044 0.059249774 0.99116558 2.3541124e-05
-3.1155643 0.84356081 -1.3482095 10 0.11874631 0.059267785 0.99115419 2.463734e-05
-3.1097851 0.85074079 -1.3466679 10 0.11874905 0.059286915 0.9911527 2.4221141e-05
-3.1109548 0.86040491 -1.3482095 10 0.11879677 0.059309691 0.99114561 2.5116437e-05
-3.1100135 0.87067258 -1.3489804 10 0.11880371 0.059368949 0.99114126 2.6329124e-05
-3.1077237 0.878811 -1.3489804 10 0.11882432 0.059369288 0.99113876 2.5846441e-05
-3.1102698 0.89009327 -1.351293 10 0.11885533 0.059405562 0.99113292 2.4874862e-05
-3.1093879 0.89983088 -1.3520638 10 0.1188629 0.059458498 0.9911288 2.4639154e-05
-3.1052504 0.90745002 -1.351293 10 0.11886578 0.059505731 0.99112564 2.4130948e-05
-3.1041539 0.91772425 -1.3520638 10 0.11888469 0.059544608 0.99112099 2.7013757e-05
-3.0980427 0.92533231 -1.350522 11 0.11888719 0.059572857 0.99111903 2.6288322e-05
-3.1007469 0.93557954 -1.3528346 10 0.11892122 0.059635498 0.99111116 3.0795509e-05
-3.1030874 0.94693303 -1.3551471 10 0.1189654 0.059646573 0.9911052 2.9333178e-05
-3.096904 0.9545064 -1.3536054 10 0.11896186 0.059671473 0.99110413 3.2368564e-05
-3.0977509 0.96424806 -1.3551471 10 0.11905754 0.059560634 0.99109936 3.3206812e-05
-3.0948761 0.97343522 -1.3551471 10 0.11915254 0.059356194 0.99110019 4.0103063e-05
-3.0937328 0.98317271 -1.3559179 10 0.11923383 0.059167285 0.99110168 4.3414053e-05
-3.0927327 0.99237227 -1.3566889 10 0.11935338 0.058858719 0.99110562 4.975589e-05
-3.0897746 1.0015436 -1.3566889 11 0.11940704 0.058725312 0.99110705 5.353407e-05
-3.095912 1.0124985 -1.3605431 10 0.11952879 0.058470126 0.99110752 5.9339294e-05
-3.0874593 1.0204815 -1.3582305 10 0.11961976 0.058212359 0.99111176 6.5014072e-05
-3.0880985 1.0302676 -1.3597722 10 0.11974783 0.057865959 0.99111652 7.1047383e-05
-3.0904565 1.0406542 -1.3620847 10 0.11990371 0.05763445 0.99111122 7.5746895e-05
-3.0819306 1.0485741 -1.3597722 10 0.12000173 0.057439558 0.99111068 8.5461143e-05
-3.0789902 1.0571766 -1.3597722 10 0.12012235 0.05723881 0.99110758 9.2067879e-05
-3.0795138 1.0669793 -1.3613138 11 0.12057226 0.056686241 0.99108475 0.00010519152
-3.0831144 1.0790865 -1.3643973 10 0.12074196 0.056318399 0.99108505 0.00011711152
-3.0837588 1.0883839 -1.365939 10 0.12092928 0.0560368 0.9910782 0.00012550394
-3.0805163 1.0975282 -1.365939 10 0.12102038 0.055788711 0.99108106 0.00012523537
-3.0772464 1.1066636 -1.365939 11 0.12107187 0.055692006 0.99108022 0.00012731849
-3.0741439 1.1152529 -1.365939 11 0.12112857 0.055595405 0.99107867 0.00013173214
-3.0744836 1.1251009 -1.3674806 11 0.1211741 0.055519704 0.99107736 0.00013484096
-3.0763257 1.1361357 -1.3697932 10 0.12122864 0.055275381 0.99108434 0.0001353151
-3.0746703 1.1459037 -1.3705641 10 0.12126175 0.055165939 0.99108642 0.00014022218
-3.0731859 1.1551341 -1.3713349 11 0.12130615 0.055078436 0.99108589 0.00014316246
-3.0697448 1.1642475 -1.3713349 11 0.12126609 0.055121951 0.99108833 0.00014352563
-3.0682058 1.1734742 -1.3721057 10 0.1212899 0.055050846 0.9910894 0.00014577949
-3.0681539 1.1839014 -1.3736475 10 0.12133513 0.054902751 0.99109209 0.00014805733
-3.0594683 1.1909913 -1.3713349 11 0.12137067 0.054854393 0.99109036 0.00014877085
-3.0630019 1.2022276 -1.3744183 10 0.12142998 0.054675907 0.99109298 0.00014912972
-3.0596328 1.2107766 -1.3744183 10 0.12149341 0.054519925 0.99109375 0.00014747343
-3.055814 1.2203822 -1.3744183 10 0.1215351 0.054590102 0.99108487 0.00014405629
-3.0607383 1.2328922 -1.3782725 10 0.12158012 0.054523882 0.99108297 0.00014924594
-3.0592103 1.2415944 -1.3790433 10 0.12145583 0.054626331 0.99109256 0.00015252594
-3.055295 1.2511985 -1.3790433 11 0.12146995 0.05472165 0.99108559 0.00015902185
-3.0505223 1.257957 -1.3782725 10 0.12148927 0.054698318 0.99108446 0.00015860677
-3.0499632 1.2689524 -1.3798141 10 0.12105082 0.055296738 0.99110496 0.00018002864
-3.0459619 1.2785271 -1.3798141 10 0.12093944 0.055311393 0.99111766 0.00018323422
-3.0457785 1.2884662 -1.3813559 11 0.12095752 0.055407446 0.99111015 0.00019045292
-3.0455637 1.2984143 -1.3828975 11 0.12097667 0.055459801 0.99110484 0.0001927402
-3.041698 1.3074452 -1.3828975 10 0.12091082 0.055652607 0.99110216 0.00019770533
-3.0416522 1.3168699 -1.3844393 10 0.12064008 0.056216709 0.99110329 0.00021703556
-3.0360396 1.3251514 -1.3836684 11 0.12043647 0.0566312 0.99110442 0.00023726404
-3.033551 1.335426 -1.3844393 10 0.12037939 0.056929648 0.99109423 0.00024722161
-3.0334189 1.3448586 -1.385981 11 0.12040341 0.057083249 0.99108249 0.00024883871
-3.0294147 1.3538539 -1.385981 11 0.12028378 0.057237789 0.99108815 0.00025565198
-3.0301945 1.3656387 -1.3882935 11 0.12018216 0.057369705 0.9910928 0.00026714444
-3.0268486 1.373039 -1.3882935 11 0.12018494 0.057361465 0.99109298 0.00026980534
-3.0258763 1.3840767 -1.3898352 11 0.11995432 0.057992343 0.99108416 0.00028641138
-3.0217562 1.3930488 -1.3898352 11 0.1199242 0.058232922 0.99107367 0.00029272318
-3.0180991 1.4009545 -1.3898352 10 0.11987398 0.058611821 0.99105752 0.00030082176
-3.0170257 1.4119939 -1.3913769 11 0.11960271 0.059247859 0.99105245 0.00031643026
-3.0147407 1.4211999 -1.3921478 11 0.11930835 0.059877183 0.99105006 0.0003365282
-3.0107601 1.4296134 -1.3921478 11 0.1192155 0.06022685 0.99103999 0.00034762191
-3.0114994 1.44093 -1.3944603 11 0.11898327 0.060646929 0.99104238 0.00036049957
-3.010535 1.4514619 -1.3960019 11 0.11879969 0.061498567 0.99101186 0.00037831967
-3.0081301 1.4606695 -1.3967727 11 0.11871905 0.061968848 0.99099225 0.0003914572
-3.005441 1.4703989 -1.3975437 11 0.1186868 0.062350631 0.99097216 0.00039885676
-3.0076861 1.4825737 -1.400627 12 0.11849482 0.063035779 0.99095184 0.00041428997
-3.000488 1.4888024 -1.3990853 12 0.11844718 0.063230321 0.9909451 0.00042086374
-3.002399 1.5015228 -1.4021688 10 0.11826406 0.063516662 0.99094868 0.00043177031
-2.9948974 1.5082412 -1.400627 11 0.11820002 0.063873693 0.9909333 0.00044130386
-2.9923198 1.5174335 -1.4013979 11 0.11808092 0.064126395 0.99093127 0.00044481317
-2.9908242 1.5285064 -1.4029396 11 0.11797263 0.064454168 0.99092293 0.0004531384
-2.991467 1.5393859 -1.4052521 12 0.11766978 0.065387711 0.99089772 0.0004691614
-2.9871564 1.5477339 -1.4052521 12 0.11764059 0.065528743 0.99089187 0.00047394866
-2.9904592 1.5613809 -1.4091064 12 0.11765479 0.066107027 0.99085182 0.00049348566
-2.9828203 1.5680085 -1.4075646 11 0.11742336 0.066419229 0.99085832 0.00049214414
-2.9784298 1.5763322 -1.4075646 11 0.1173746 0.066720165 0.99084389 0.00049656682
-2.9818826 1.5895023 -1.4114189 12 0.11709212 0.067674533 0.9908126 0.00051216938
-2.9744587 1.595559 -1.4098772 11 0.11708618 0.067888707 0.99079865 0.00051424734
-2.977268 1.6098027 -1.4137315 12 0.11683118 0.068874657 0.99076068 0.00052836066
-2.9678981 1.6154639 -1.4114189 11 0.11694187 0.06917882 0.99072641 0.00053344498
-2.9717519 1.6276605 -1.4152731 11 0.11660196 0.070195399 0.990695 0.00054888852
-2.9685259 1.6373615 -1.416044 12 0.11692266 0.070369571 0.99064481 0.00060190185
-2.9636545 1.6461623 -1.416044 12 0.11686582 0.070533931 0.99063987 0.00060630671
-2.9590459 1.6544322 -1.416044 13 0.11676494 0.071020313 0.99061704 0.0006117241
-2.9573402 1.6650155 -1.4175857 16 0.11669756 0.071651384 0.99057955 0.00062962173
-2.9539926 1.6746923 -1.4183564 20 0.11661995 0.072090551 0.99055672 0.00063148554
-2.9444959 1.6801912 -1.416044 22 0.11653548 0.07233014 0.99054927 0.00063699001
-2.9474983 1.6935173 -1.4198983 27 0.11648703 0.072705664 0.99052745 0.00064935582
-2.9411597 1.7008181 -1.4191273 34 0.11642644 0.07295087 0.9905166 0.00065195339
-2.9395885 1.7108814 -1.420669 34 0.11639314 0.073330469 0.99049246 0.00066618912
-2.9341996 1.7201073 -1.420669 30 0.11636759 0.073895887 0.99045342 0.00067195215
-2.9325633 1.7301702 -1.4222107 30 0.11627351 0.07430768 0.99043363 0.00067913922
-2.9261336 1.7374108 -1.4214399 32 0.11619601 0.074829765 0.99040341 0.0006864412
-2.9241335 1.7479792 -1.4229816 30 0.11614851 0.07537733 0.99036741 0.00069049338
-2.9208224 1.7570896 -1.4237524 32 0.11611535 0.075725704 0.99034482 0.00069861865
-2.9187536 1.7676597 -1.4252942 36 0.1160305 0.076235153 0.99031562 0.00070504384
-2.9150715 1.7772727 -1.426065 28 0.11570989 0.07686241 0.99030471 0.00070941495
-2.9148159 1.7883017 -1.4283775 17 0.11563303 0.077208549 0.99028677 0.00071998371
-2.9173484 1.8017904 -1.4322317 16 0.11551657 0.07810954 0.99022967 0.00073226407
-2.9072876 1.8075155 -1.4299192 18 0.11528042 0.07809817 0.9902581 0.00073972077
-2.9131804 1.8224787 -1.4353151 16 0.11511481 0.079051465 0.99020171 0.00075987697
-2.9096413 1.8315899 -1.4360859 17 0.11509179 0.079704694 0.99015212 0.00076941942
-2.905432 1.8417094 -1.4368567 17 0.11489958 0.08015155 0.99013823 0.00077634177
-2.8971655 1.847831 -1.4353151 18 0.11476896 0.08050555 0.9901247 0.00077911315
-2.8935471 1.8569111 -1.4360859 18 0.11457727 0.081000194 0.99010652 0.00078434125
-2.8938999 1.8699985 -1.4391694 17 0.11454751 0.081568278 0.99006337 0.00078620738
-2.887774 1.8760587 -1.4383985 18 0.11456683 0.081829049 0.99003959 0.00078541087
-2.8834105 1.8861321 -1.4391694 19 0.11451019 0.082355738 0.99000251 0.00078361691
-2.886718 1.9012719 -1.4437945 20 0.11456232 0.083113089 0.98993319 0.00078928337
-2.8774476 1.9052628 -1.4414819 18 0.11453063 0.083268173 0.98992383 0.00079358317
-2.876054 1.9173652 -1.4437945 20 0.11448776 0.083741151 0.98988885 0.00079601875
-2.8734179 1.9279461 -1.4453361 17 0.11444317 0.084190086 0.98985595 0.00080156437
-2.868361 1.9354615 -1.4453361 22 0.11442054 0.084469914 0.98983467 0.00080150936
-2.8607392 1.943427 -1.4445653 50 0.11440472 0.08486525 0.98980266 0.00080319762
-2.8564842 1.9529475 -1.4453361 42 0.11447234 0.08518862 0.98976713 0.0008122744
-2.8513615 1.9604193 -1.4453361 48 0.11445832 0.085651591 0.98972881 0.00081223168
-2.8531206 1.9741206 -1.4491904 55 0.11492168 0.086063191 0.9896394 0.00085062336
-2.8487651 1.9836318 -1.4499612 58 0.11481403 0.086447373 0.98961842 0.00085421815
-2.8420503 1.9900248 -1.4491904 72 0.11485288 0.086807109 0.98958242 0.00085211522
-2.8342764 1.9978796 -1.4484195 66 0.11478121 0.087104276 0.9895646 0.00085483462
-2.8253257 2.0041451 -1.4468778 62 0.11465529 0.087441579 0.98954952 0.00085172709
-2.8200691 2.0115354 -1.4468778 51 0.11459384 0.087760761 0.9895283 0.00085945084
-2.8234377 2.0258572 -1.4515029 55 0.11461379 0.088322818 0.98947597 0.00086281006
-2.8167043 2.0352089 -1.4515029 35 0.11459763 0.088554934 0.98945707 0.00086363807
-2.8068864 2.0393229 -1.4491904 32 0.11439449 0.088626109 0.98947424 0.00086061144
-2.7952216 2.0427964 -1.4461069 30 0.1134406 0.088500276 0.98959535 0.00085554353
-2.7754107 2.0417264 -1.4391694 34 0.11289185 0.088068329 0.98969656 0.00086281798
-2.7685723 2.0478873 -1.4383985 37 0.11264706 0.08810287 0.98972148 0.00086880464
-2.7506404 2.0472779 -1.4322317 66 0.11215819 0.08790122 0.98979485 0.00088063115
-2.7515798 2.0614419 -1.4360859 29 0.11185474 0.08822301 0.98980063 0.0008871411
-2.7447 2.0675278 -1.4353151 19 0.11161028 0.088258885 0.98982501 0.00089037005
-2.7308376 2.0705659 -1.4314609 14 0.11129606 0.088278592 0.98985863 0.00088172714
-2.7163029 2.0835383 -1.4299192 17 0.11087618 0.088301443 0.98990369 0.0008831874
-2.7235773 2.077065 -1.4306901 15 0.11095858 0.088261575 0.98989803 0.00087876554
-2.7060902 2.0877337 -1.4276067 17 0.11075892 0.088557445 0.98989391 0.00088289863
-2.6936872 2.0916982 -1.4245232 15 0.11049294 0.088640802 0.98991621 0.00086679892
