# .PCD v0.7 - Point Cloud Data file format
VERSION 0.7
FIELDS x y z intensity normal_x normal_y normal_z curvature
SIZE 4 4 4 4 4 4 4 4
TYPE F F F F F F F F
COUNT 1 1 1 1 1 1 1 1
WIDTH 127
HEIGHT 1
VIEWPOINT 0 0 0 1 0 0 0
POINTS 127
DATA ascii
5.5126605 0.19154632 -2.4558759 1 0.13698162 -0.0017318483 0.99057209 7.7513563e-05
5.4931169 0.17454915 -2.4469278 1 0.13690825 -0.0012375489 0.990583 7.7243283e-05
5.4844794 0.15798531 -2.4428604 1 0.13694625 -0.0010594674 0.99057788 7.477402e-05
5.4903779 0.14281261 -2.4453008 1 0.13701886 -0.00092931383 0.99056804 7.8553065e-05
5.4980845 0.12669107 -2.4485548 1 0.13710843 -0.00075060473 0.9905557 8.2782033e-05
5.4929366 0.11122439 -2.4461143 1 0.13719486 -0.0006402054 0.99054384 7.4862677e-05
5.478611 0.095630616 -2.4396064 1 0.13728327 -0.0002483369 0.99053174 7.3441239e-05
5.4770579 0.078390896 -2.4387929 1 0.13733667 -5.9217648e-05 0.99052447 7.1964459e-05
5.4845629 0.063180886 -2.4420469 1 0.13743114 -9.1635666e-05 0.9905113 7.1514696e-05
5.4774098 0.047799405 -2.4387929 1 0.1370378 -5.0920212e-06 0.99056584 7.1681432e-05
5.4830089 0.031582579 -2.4412334 1 0.13711879 -1.9548615e-05 0.99055457 7.8052108e-05
5.4611506 0.016204281 -2.4314718 1 0.13699892 0.00016326385 0.9905712 7.3655399e-05
5.4812489 -0.016263241 -2.4404202 1 0.13729739 -0.00053096254 0.99052972 8.2243634e-05
5.4702139 -0.032461286 -2.4355392 1 0.13718128 -0.00094397465 0.99054557 8.3405685e-05
5.4755836 -0.047784694 -2.4379797 1 0.13737321 -0.0011441185 0.99051869 9.0996044e-05
5.4754176 -0.064030834 -2.4379797 1 0.1373636 -0.0015094995 0.99051952 8.6165288e-05
5.462429 -0.079135552 -2.4322853 1 0.13743997 -0.0017566354 0.99050856 8.2696097e-05
5.4621701 -0.095342532 -2.4322853 1 0.13751082 -0.0019061147 0.99049836 8.1102931e-05
5.4600363 -0.11151136 -2.4314718 1 0.1375574 -0.0020501567 0.99049163 7.4141804e-05
5.4761209 -0.12809563 -2.4387929 1 0.13758212 -0.0021795924 0.99048799 7.915093e-05
5.4739404 -0.14238414 -2.4379797 1 0.13764828 -0.0023098746 0.99047852 7.4175055e-05
5.4679866 -0.15942053 -2.4355392 1 0.13767907 -0.0024122661 0.99047399 6.4912681e-05
5.4748855 -0.17301171 -2.4387929 1 0.13772744 -0.0024955585 0.99046701 6.7674788e-05
5.467011 -0.1899569 -2.4355392 1 0.13776867 -0.0025306351 0.99046117 6.086945e-05
5.4682136 -0.20720023 -2.4363525 1 0.13781819 -0.0025552802 0.99045432 6.0642495e-05
5.4658647 -0.22048731 -2.4355392 1 0.13787015 -0.002623375 0.99044693 6.07527e-05
5.4706216 -0.23789589 -2.4379797 1 0.13796404 -0.0027666902 0.99043334 6.633564e-05
5.4625907 -0.25378728 -2.4347255 1 0.13802911 -0.0029573324 0.9904238 6.0800583e-05
5.4692078 -0.26844573 -2.4379797 1 0.13807157 -0.0030671165 0.99041748 5.8884729e-05
5.4701614 -0.28572172 -2.4387929 1 0.13822001 -0.0032434363 0.99039626 6.016334e-05
5.4638171 -0.30164856 -2.4363525 1 0.1383085 -0.0034381826 0.99038327 5.7344536e-05
5.4666567 -0.31616277 -2.4379797 1 0.1384012 -0.0036422706 0.99036956 6.1136583e-05
5.4711661 -0.33271393 -2.4404202 1 0.13847208 -0.0038587959 0.99035883 5.6489909e-05
5.4628606 -0.3484804 -2.437166 1 0.13857438 -0.0040528416 0.99034375 5.6295834e-05
5.472868 -0.36350751 -2.4420469 1 0.13861662 -0.004250512 0.99033707 5.4259977e-05
5.4753447 -0.38095284 -2.4436738 1 0.13878137 -0.0045579085 0.99031258 5.2423547e-05
5.4687233 -0.39680013 -2.4412334 1 0.1388181 -0.0046059685 0.99030715 5.4455999e-05
5.4749537 -0.41166383 -2.4444873 1 0.13896558 -0.0049494421 0.99028492 5.2714415e-05
5.4774256 -0.42723531 -2.4461143 1 0.13905436 -0.0051558018 0.99027133 5.6336627e-05
5.4668732 -0.44465613 -2.4420469 1 0.13921843 -0.0053219437 0.99024737 5.1698451e-05
5.46387 -0.45881394 -2.4412334 1 0.13918923 -0.0052901744 0.99025166 5.2016559e-05
5.4661255 -0.47534016 -2.4428604 2 0.13918479 -0.0052615767 0.99025244 5.5543569e-05
5.4428535 -0.48959208 -2.4330988 2 0.13912356 -0.0053977752 0.99026036 5.2205651e-05
5.4397345 -0.50367135 -2.4322853 2 0.13873838 -0.0057211858 0.99031252 5.1526345e-05
5.4454908 -0.52050442 -2.4355392 2 0.13858658 -0.0053882115 0.99033564 5.4610045e-05
5.4311948 -0.5354045 -2.4298449 3 0.13844329 -0.0050144834 0.9903577 5.8431699e-05
5.4314957 -0.55075347 -2.4306583 3 0.13833132 -0.0047704927 0.99037445 5.9677408e-05
5.4279222 -0.56762427 -2.4298449 3 0.13819353 -0.0045005167 0.99039501 6.3804058e-05
5.4281321 -0.58297473 -2.4306583 3 0.13805252 -0.0042149913 0.99041593 6.7899717e-05
5.4246674 -0.59793049 -2.4298449 3 0.13797417 -0.0038647603 0.99042827 6.9763206e-05
5.4227619 -0.61496967 -2.4298449 3 0.13788596 -0.0035864457 0.99044162 7.1347873e-05
5.4228382 -0.63032132 -2.4306583 3 0.13789807 -0.0035148861 0.99044019 7.2114242e-05
5.4119849 -0.64438218 -2.4265909 3 0.13776983 -0.0029867403 0.99045974 8.2240433e-05
5.4136772 -0.66087985 -2.4282179 3 0.13757239 -0.0026098294 0.99048829 8.7472028e-05
5.4063711 -0.67531568 -2.4257774 3 0.13748504 -0.0022794171 0.99050117 8.7847809e-05
5.4117131 -0.69133651 -2.4290314 3 0.13718259 -0.0014769568 0.99054468 0.00010252982
5.4113269 -0.70857173 -2.4298449 3 0.13718137 -0.0014305402 0.99054492 9.9856254e-05
5.4022088 -0.7217682 -2.4265909 3 0.13727921 -0.0014148359 0.99053144 9.3630479e-05
5.4000435 -0.73779368 -2.4265909 3 0.13719571 -0.0012735125 0.99054313 9.7713775e-05
5.3976989 -0.75475472 -2.4265909 3 0.13713345 -0.00093713176 0.99055207 9.9787372e-05
5.4064236 -0.77137345 -2.4314718 4 0.13714421 -0.00087087735 0.99055076 0.00010130264
5.4042482 -0.78646809 -2.4314718 4 0.13709995 -0.00073264592 0.99055696 0.00010496219
5.4036984 -0.80276787 -2.4322853 4 0.13702172 -0.00091771985 0.99056762 0.00010267258
5.3960161 -0.81703407 -2.4298449 4 0.13704729 -0.00089380261 0.99056411 9.9569952e-05
5.3845396 -0.8316462 -2.4257774 4 0.1370714 -0.0014184503 0.99056017 0.00010057083
5.3856583 -0.84818739 -2.4274044 4 0.13706979 -0.0017309265 0.99055988 0.0001048458
5.3831177 -0.86416316 -2.4274044 4 0.1371358 -0.0019592287 0.99055034 0.00010595888
5.3773832 -0.87672597 -2.4257774 4 0.13715811 -0.0021824262 0.99054676 0.00010594833
5.3818116 -0.89481372 -2.4290314 5 0.13717718 -0.0024653978 0.99054343 0.00010654089
5.377491 -0.90953439 -2.4282179 4 0.13746297 -0.0029350528 0.99050254 0.00012082219
5.3749299 -0.92454779 -2.4282179 4 0.13746056 -0.0031953894 0.99050212 0.00012214386
5.3719988 -0.94142896 -2.4282179 4 0.1378237 -0.0042040669 0.99044782 0.00014184874
5.3729467 -0.95706755 -2.4298449 5 0.13798805 -0.005167848 0.9904204 0.00016369129
5.3738489 -0.97271878 -2.4314718 5 0.13805138 -0.0056756991 0.99040878 0.0001790793
5.3635788 -0.98827207 -2.4282179 5 0.13838626 -0.0064632562 0.99035722 0.00019217463
5.3607984 -1.0032461 -2.4282179 5 0.13853619 -0.0070212968 0.99033248 0.00020161914
5.3597703 -1.0185534 -2.4290314 5 0.13858119 -0.0072690169 0.99032444 0.00021080852
5.3567247 -1.0344516 -2.4290314 5 0.13906744 -0.0083505716 0.99024767 0.00023538923
5.3520222 -1.049055 -2.4282179 5 0.13909665 -0.0087755788 0.99023992 0.00024054502
5.349072 -1.0639966 -2.4282179 5 0.13942571 -0.0098511185 0.99018347 0.00026661661
5.3403306 -1.0797096 -2.4257774 5 0.13946949 -0.010230601 0.99017358 0.00027956645
5.3355045 -1.0942514 -2.424964 5 0.13970366 -0.010639318 0.99013621 0.00028691249
5.3302522 -1.1106353 -2.4241507 5 0.13967803 -0.011950975 0.99012488 0.00031340675
5.3257346 -1.1232791 -2.423337 9 0.14032902 -0.013422181 0.9900139 0.00034439977
5.315033 -1.1384741 -2.420083 15 0.14037754 -0.014067561 0.98999804 0.00035152776
5.3082614 -1.1525365 -2.4184561 17 0.14040975 -0.014557998 0.98998648 0.00035913489
5.3032384 -1.166963 -2.4176426 17 0.14076787 -0.016091565 0.98991185 0.00036945747
5.2941966 -1.182423 -2.4152024 19 0.14078948 -0.017680282 0.98988163 0.00039403906
5.294229 -1.1989331 -2.4168293 22 0.14116308 -0.018843267 0.98980701 0.00040135509
5.2892909 -1.212381 -2.4160156 20 0.14127791 -0.020108972 0.98976576 0.00042319839
5.2910094 -1.2293097 -2.4184561 20 0.14197023 -0.022179052 0.98962241 0.00045148979
5.2804422 -1.2424065 -2.4152024 15 0.14187686 -0.022908814 0.9896192 0.00045879118
5.2853994 -1.2611095 -2.4192698 10 0.14227083 -0.024681477 0.98952001 0.00047227234
5.281857 -1.2758642 -2.4192698 9 0.14238831 -0.025515612 0.98948193 0.00047971678
5.2795973 -1.2928858 -2.420083 10 0.14260454 -0.027056968 0.98940986 0.00048825302
5.2781959 -1.3062214 -2.4208965 10 0.14249673 -0.027796617 0.98940486 0.00049337588
5.2687492 -1.3214633 -2.4184561 14 0.14223926 -0.028637905 0.98941797 0.00050358742
5.2648048 -1.3370901 -2.4184561 16 0.14229417 -0.029248737 0.98939216 0.00050381949
5.2592812 -1.3513324 -2.4176426 17 0.1423732 -0.030371731 0.98934698 0.00050869922
5.2519503 -1.3650944 -2.4160156 16 0.14245242 -0.031629544 0.98929614 0.00051647739
5.2494035 -1.3820527 -2.4168293 13 0.14253974 -0.033383824 0.98922592 0.00052030286
5.2437572 -1.3962359 -2.4160156 17 0.14252989 -0.034540642 0.9891876 0.0005227878
5.2400842 -1.4099593 -2.4160156 15 0.14227393 -0.035683811 0.9891839 0.00053246447
5.2250519 -1.4235331 -2.411135 19 0.14199176 -0.036916308 0.98917925 0.00054461148
5.2228179 -1.4386038 -2.4119484 28 0.14186251 -0.035838049 0.98923737 0.00077242946
5.2132463 -1.4526225 -2.409508 23 0.14155915 -0.036865156 0.98924315 0.00077528827
5.1983619 -1.4651103 -2.4046271 39 0.1413998 -0.037776697 0.98923153 0.00078025373
5.1980233 -1.479715 -2.4062541 45 0.1412278 -0.038650613 0.98922229 0.00078329915
5.1900983 -1.4941205 -2.4046271 45 0.14147566 -0.040296942 0.98912126 0.00078052765
5.1888871 -1.5114402 -2.4062541 43 0.14148469 -0.041680694 0.98906261 0.00079899764
5.1796536 -1.5234725 -2.4038136 43 0.14091741 -0.040531062 0.98919135 0.0009731247
5.1538272 -1.5334848 -2.394052 45 0.14060515 -0.04133163 0.98920268 0.00098431914
5.1442757 -1.5462931 -2.3916116 48 0.14039932 -0.041556064 0.98922247 0.00097214157
5.1381893 -1.5601217 -2.3907981 43 0.14047134 -0.043035876 0.98914903 0.0009832693
5.1250787 -1.5717857 -2.3867309 39 0.14059427 -0.043638445 0.98910511 0.00097710313
5.1241598 -1.5871724 -2.3883576 41 0.13986753 -0.04505007 0.9891448 0.00096892496
5.1243792 -1.6049008 -2.3907981 43 0.13956377 -0.045850847 0.98915094 0.0009695926
5.1198773 -1.6192044 -2.3907981 43 0.13976732 -0.046352632 0.98909885 0.00096932962
5.0996714 -1.6284934 -2.3834767 48 0.13907777 -0.047197364 0.98915613 0.00096495781
5.0809064 -1.6391296 -2.3769691 48 0.13849123 -0.047765952 0.98921114 0.00094887672
5.0933924 -1.6598589 -2.3851037 35 0.13845836 -0.048589379 0.98917562 0.00096460088
5.0956798 -1.6763598 -2.3883576 33 0.13820149 -0.048935272 0.98919445 0.0009589924
5.0629411 -1.6822536 -2.3753421 33 0.13678156 -0.049854577 0.98934591 0.00095540989
5.0631237 -1.699012 -2.3777826 41 0.13626546 -0.050995033 0.98935896 0.0009664782
5.0638504 -1.7140187 -2.380223 39 0.13607693 -0.051732022 0.98934668 0.00096260221
5.0636272 -1.7316924 -2.3826632 35 0.13587803 -0.052423589 0.98933768 0.00096760457
5.0501361 -1.7428459 -2.3785958 37 0.13495776 -0.05341154 0.98941076 0.00097301998
