# .PCD v0.7 - Point Cloud Data file format
VERSION 0.7
FIELDS x y z intensity normal_x normal_y normal_z curvature
SIZE 4 4 4 4 4 4 4 4
TYPE F F F F F F F F
COUNT 1 1 1 1 1 1 1 1
WIDTH 576
HEIGHT 1
VIEWPOINT 0 0 0 1 0 0 0
POINTS 576
DATA ascii
-1.7705996 -3.2678361 -1.4513187 49 0.20399696 0.064679354 0.97683257 0.026782369
-1.7793947 -3.2609332 -1.4505912 46 0.20248748 0.065987483 0.97705913 0.026804168
-1.7890625 -3.2556393 -1.4505912 41 0.20333067 0.067898206 0.976753 0.027482452
-1.8019888 -3.2548923 -1.4527737 46 0.20410641 0.070725836 0.97639048 0.028660651
-1.8059711 -3.2420256 -1.4491363 46 0.20168771 0.06970185 0.97696656 0.028103335
-1.8192282 -3.2431521 -1.4520462 55 0.20192181 0.072514839 0.97671342 0.028718604
-1.835256 -3.249095 -1.4571385 52 0.1999515 0.073177703 0.97706926 0.029138165
-1.8465176 -3.2491384 -1.4593209 52 0.1998421 0.074314237 0.9770059 0.029857405
-1.8530139 -3.2368541 -1.4564111 59 0.19829229 0.076366715 0.97716343 0.02999226
-1.8616794 -3.2297277 -1.4556837 59 0.19698954 0.077892825 0.97730643 0.030085091
-1.8682587 -3.2216198 -1.4542286 69 0.19646116 0.078991234 0.9773246 0.030304549
-1.8778094 -3.2160623 -1.4542286 64 0.19496886 0.08057031 0.97749454 0.030249527
-1.8867826 -3.2108064 -1.4542286 60 0.19350986 0.081150167 0.97773647 0.030250186
-1.8966898 -3.2071283 -1.4549561 64 0.19193643 0.08145234 0.97802144 0.030214911
-1.906756 -3.2011535 -1.4549561 64 0.19048797 0.082737334 0.97819674 0.030286426
-1.9156883 -3.1958163 -1.4549561 60 0.19056253 0.083457537 0.97812104 0.030257192
-1.9178686 -3.1792881 -1.4498638 60 0.18944995 0.084864855 0.97821611 0.030004436
-1.9272935 -3.1735837 -1.4498638 60 0.18799533 0.085161433 0.97847092 0.029885663
-1.9357296 -3.1662617 -1.4491363 69 0.18730974 0.085553333 0.97856814 0.029791325
-1.9396832 -3.1529098 -1.4454989 56 0.1865854 0.08673954 0.97860217 0.029478693
-1.9460863 -3.1423895 -1.4433165 60 0.18573448 0.088502586 0.97860616 0.029326845
-1.9563873 -3.1381824 -1.444044 56 0.18409918 0.088446647 0.97892016 0.029351842
-1.9645964 -3.1330495 -1.444044 56 0.18290824 0.089042805 0.97908932 0.029334236
-1.9754243 -3.1284373 -1.4447714 53 0.18090187 0.089963838 0.97937781 0.029333377
-1.9846972 -3.1225629 -1.4447714 56 0.17992392 0.090794116 0.9794814 0.029364737
-1.9924059 -3.1154385 -1.444044 53 0.17870475 0.091697283 0.97962046 0.029390329
-2.0006325 -3.1079466 -1.4433165 60 0.17739071 0.092005901 0.97983032 0.029283451
-2.0103168 -3.1039114 -1.444044 53 0.17589489 0.092924975 0.98001319 0.029329419
-2.0195169 -3.0979333 -1.444044 29 0.175052 0.093631148 0.980097 0.029386492
-2.0265992 -3.0910776 -1.4433165 30 0.17328376 0.09436769 0.98034048 0.029337959
-2.0352736 -3.0831404 -1.4425889 30 0.17243361 0.094392776 0.98048794 0.029176757
-2.0428443 -3.0758934 -1.4418615 16 0.17116584 0.092899039 0.98085272 0.028356608
-2.0473197 -3.061717 -1.4382242 26 0.16954212 0.08993993 0.98141038 0.026721112
-2.0527422 -3.0513504 -1.4360417 32 0.16836765 0.090445966 0.98156601 0.026548449
-2.0591669 -3.0425203 -1.4345868 38 0.16671684 0.088595048 0.9820165 0.025728073
-2.066607 -3.0352182 -1.4338592 41 0.16404597 0.086680785 0.98263699 0.02434461
-2.0729687 -3.0263615 -1.4324043 44 0.16243818 0.087877668 0.98279774 0.024133695
-2.0824664 -3.019834 -1.4324043 41 0.16277172 0.088970289 0.98264426 0.024158794
-2.0898185 -3.0102162 -1.4309493 38 0.16141438 0.089539051 0.9828164 0.023951607
-2.0955584 -3.0016799 -1.4294944 41 0.15991819 0.088744491 0.98313302 0.023647433
-2.1023138 -2.9924002 -1.4280394 44 0.15871058 0.089894511 0.98322427 0.023487084
-2.1122587 -2.9876704 -1.428767 32 0.15777071 0.090821423 0.98329037 0.023668943
-2.1222317 -2.9851673 -1.4302219 22 0.15770826 0.09226837 0.98316562 0.023892099
-2.1305151 -2.9769702 -1.4294944 16 0.15693864 0.091520704 0.98335862 0.023736149
-2.1360729 -2.9661005 -1.427312 14 0.15529798 0.092127904 0.98356235 0.023470873
-2.1449234 -2.9620068 -1.4280394 15 0.15455793 0.09275952 0.98361963 0.023579432
-2.1504104 -2.951113 -1.4258569 14 0.15311901 0.092969462 0.98382479 0.023248799
-2.157542 -2.9435937 -1.4251295 14 0.15218936 0.093777679 0.98389232 0.023170156
-2.1646483 -2.9360576 -1.424402 15 0.15168051 0.093729556 0.98397547 0.023051361
-2.1716406 -2.9262509 -1.422947 14 0.14969757 0.090321966 0.98459762 0.022040335
-2.1786895 -2.9186821 -1.4222196 14 0.14754334 0.08762978 0.98516595 0.021160385
-2.1857131 -2.9110968 -1.4214921 14 0.14591645 0.085670106 0.98558056 0.020675095
-2.192095 -2.9016259 -1.4200373 15 0.14407495 0.084767707 0.98592943 0.02036613
-2.1984401 -2.8921425 -1.4185822 15 0.14240766 0.082763389 0.98634189 0.019488538
-2.2042441 -2.8830323 -1.4171273 14 0.14061038 0.080110036 0.98681873 0.018449111
-2.2093809 -2.8720496 -1.4149448 14 0.13919969 0.075021185 0.98741853 0.016495433
-2.2178929 -2.8654814 -1.4149448 14 0.13718605 0.073968299 0.98777968 0.016102605
-2.2253873 -2.8596652 -1.4149448 14 0.1364273 0.07313548 0.98794675 0.015865646
-2.2309136 -2.8482599 -1.4127624 14 0.13532236 0.067133375 0.98852468 0.014267522
-2.2370479 -2.8387022 -1.4113075 14 0.13480011 0.063065097 0.98886383 0.013349449
-2.2426522 -2.8295238 -1.4098525 15 0.13429523 0.061746653 0.98901576 0.012936438
-2.2510376 -2.8228571 -1.4098525 12 0.13366126 0.060463861 0.98918086 0.01262617
-2.2577465 -2.8151066 -1.409125 14 0.13294712 0.060359161 0.9892835 0.012607339
-2.2677495 -2.8094494 -1.4098525 15 0.13221039 0.059311159 0.98944563 0.012332713
-2.269913 -2.7981124 -1.4069426 15 0.13154495 0.05712669 0.98966283 0.011764404
-2.2786918 -2.7909679 -1.4069426 13 0.1311163 0.055634402 0.98980474 0.011335006
-2.2852945 -2.7831538 -1.4062151 13 0.13056323 0.052433431 0.99005246 0.010548589
-2.2906854 -2.7738879 -1.4047601 13 0.13028456 0.049110979 0.99025959 0.0096584084
-2.3005788 -2.768111 -1.4054875 13 0.12958664 0.045763806 0.99051148 0.0087075122
-2.3023262 -2.7545288 -1.4018502 12 0.12948148 0.042607479 0.99066597 0.0079876548
-2.3076119 -2.7452364 -1.4003953 14 0.12922177 0.041307081 0.99075496 0.0077013061
-2.3140659 -2.737359 -1.3996679 13 0.1290341 0.041438218 0.99077392 0.0076688533
-2.3238623 -2.7314939 -1.4003953 12 0.12857977 0.03864428 0.99094594 0.0071180635
-2.330008 -2.7213502 -1.3989403 13 0.12837876 0.031901125 0.99121201 0.0057844575
-2.3342199 -2.7128246 -1.3974854 13 0.12893823 0.030916562 0.99117059 0.0054811309
-2.3415122 -2.7040689 -1.3967578 12 0.12870428 0.029612424 0.9912408 0.0052239574
-2.3485832 -2.6979301 -1.3967578 13 0.12846211 0.026592009 0.99135786 0.004522589
-2.3528957 -2.6867449 -1.3945755 12 0.12862706 0.024977876 0.99137849 0.0042015109
-2.3596249 -2.6783545 -1.3938479 14 0.12846221 0.02283312 0.9914515 0.003894842
-2.3680284 -2.6709278 -1.3938479 12 0.12839046 0.021390997 0.99149305 0.0035810205
-2.3717587 -2.6601326 -1.3916656 11 0.1286286 0.020413095 0.99148273 0.0034148989
-2.3766894 -2.6507258 -1.3902106 12 0.12850316 0.016961625 0.9915641 0.0028545957
-2.3845446 -2.6436617 -1.3902106 12 0.12835135 0.015373741 0.99160963 0.0025965478
-2.3889542 -2.63465 -1.3887556 10 0.12844563 0.014260432 0.99161404 0.00252233
-2.3947079 -2.6243796 -1.3873006 11 0.12830284 0.011401782 0.99166948 0.00221356
-2.4024842 -2.6172626 -1.3873006 12 0.12831102 0.0096545666 0.991687 0.0020555975
-2.4080648 -2.6095946 -1.3865732 11 0.1282147 0.0064326185 0.99172556 0.00170417
-2.4115415 -2.5987628 -1.3843907 12 0.12846456 0.0046035703 0.99170339 0.001526862
-2.420146 -2.5907516 -1.3843907 12 0.12857531 0.0044260011 0.99168986 0.0015207898
-2.4294705 -2.5871232 -1.3858457 13 0.12861836 0.0034297798 0.99168825 0.0014511287
-2.4320183 -2.574487 -1.3829359 13 0.12883312 0.0023631239 0.99166352 0.0013711898
-2.435796 -2.5632081 -1.3807534 12 0.12900181 0.0017045838 0.99164289 0.0013094418
-2.4386377 -2.5527806 -1.3785709 12 0.12918635 0.0005479813 0.99162024 0.001223932
-2.450074 -2.5495636 -1.3807534 11 0.12917316 -0.00041039917 0.99162197 0.0011451719
-2.4537435 -2.5382643 -1.3785709 11 0.12947811 -0.0016404754 0.99158096 0.0010592177
-2.462121 -2.5327382 -1.3792984 12 0.12966293 -0.0028061522 0.9915542 0.000979807
-2.466157 -2.5209959 -1.377116 12 0.12989007 -0.0041955952 0.99151951 0.00089533499
-2.4731872 -2.5140991 -1.377116 11 0.13004239 -0.0052669938 0.99149448 0.00081066892
-2.4749577 -2.5018849 -1.3742061 11 0.13027203 -0.0066451551 0.99145597 0.00072164572
-2.4801762 -2.491457 -1.3727511 12 0.13052237 -0.0086726649 0.99140745 0.00058427354
-2.4858062 -2.4832044 -1.3720236 11 0.13075174 -0.010864983 0.9913556 0.00038277468
-2.4927311 -2.4762528 -1.3720236 11 0.13096687 -0.014156229 0.99128568 0.00011594084
-2.4960907 -2.4649189 -1.3698412 10 0.13110121 -0.015901852 0.99124146 3.797972e-05
-2.5087104 -2.4627228 -1.3727511 11 0.13124178 -0.01646509 0.99121362 1.6426375e-05
-2.5098176 -2.4509406 -1.3698412 13 0.13128512 -0.016682919 0.99120426 1.5875234e-05
-2.5148318 -2.4404478 -1.3683861 10 0.13136667 -0.017006377 0.99118805 1.7364509e-05
-2.522552 -2.4351499 -1.3691137 11 0.13141623 -0.017076239 0.99118018 1.0950496e-05
-2.5221236 -2.4194748 -1.3647488 10 0.13138992 -0.017201116 0.99118149 1.5016814e-05
-2.5279431 -2.4106951 -1.3640214 11 0.13142289 -0.017300647 0.99117547 1.7216284e-05
-2.5383 -2.4079158 -1.3662038 11 0.13150169 -0.017292546 0.9911651 1.1752497e-05
-2.541786 -2.396095 -1.3640214 12 0.13152033 -0.017410159 0.99116057 1.166017e-05
-2.5466909 -2.3881586 -1.3632939 13 0.13155162 -0.017464008 0.99115545 1.348878e-05
-2.5510397 -2.3780518 -1.3618389 11 0.13157414 -0.017555589 0.99115098 1.4876813e-05
-2.5580842 -2.370472 -1.3618389 11 0.13162345 -0.017626753 0.99114311 1.2933377e-05
-2.5609958 -2.3590846 -1.3596565 11 0.13159484 -0.01769376 0.99114561 1.1672461e-05
-2.5634525 -2.3481486 -1.3574741 10 0.13161129 -0.017798373 0.99114156 1.5491281e-05
-2.5731628 -2.3430414 -1.3589289 11 0.13168344 -0.017844617 0.99113119 1.4197849e-05
-2.574172 -2.3308444 -1.3560191 10 0.13167393 -0.017938504 0.99113083 1.8040453e-05
-2.5792866 -2.3224001 -1.3552916 10 0.13166361 -0.017958509 0.9911319 1.8677852e-05
-2.5847778 -2.3134944 -1.3545642 10 0.13163808 -0.018012747 0.99113423 2.2484966e-05
-2.5934248 -2.3066013 -1.3552916 11 0.1316575 -0.018030588 0.99113125 2.3397944e-05
-2.5938735 -2.2948658 -1.3523817 10 0.13161205 -0.018114028 0.99113578 2.4517271e-05
-2.6048682 -2.2908504 -1.3545642 11 0.13165031 -0.018106138 0.99113089 2.5920235e-05
-2.6084507 -2.2811146 -1.3531092 10 0.13164066 -0.018127101 0.99113178 2.5483294e-05
-2.6141973 -2.2716868 -1.3523817 10 0.13166268 -0.018123413 0.9911288 2.1872593e-05
-2.6177118 -2.2619414 -1.3509268 11 0.13162768 -0.018182144 0.99113244 2.6291105e-05
-2.6215854 -2.2517369 -1.3494718 10 0.13160104 -0.018171182 0.99113625 2.7074564e-05
-2.6292799 -2.2456169 -1.3501992 11 0.13161756 -0.018171996 0.99113399 2.8509719e-05
-2.6284406 -2.2322359 -1.3465619 10 0.13156494 -0.018193288 0.9911406 2.6034917e-05
-2.6354399 -2.2239678 -1.3465619 10 0.13158007 -0.01817661 0.99113899 2.388903e-05
-2.6412528 -2.217061 -1.3465619 10 0.13158453 -0.018191826 0.9911381 2.3489198e-05
-2.6482055 -2.2087517 -1.3465619 11 0.13158277 -0.018176017 0.99113852 2.1553667e-05
-2.6500611 -2.1977799 -1.3443794 11 0.13157538 -0.018174078 0.99113959 1.9340901e-05
-2.6594455 -2.1922779 -1.3458345 11 0.13158892 -0.018172039 0.9911378 1.6745264e-05
-2.6565313 -2.1782207 -1.3414695 10 0.13156222 -0.018184938 0.99114102 1.0959713e-05
-2.6691391 -2.1745703 -1.3443794 11 0.13157253 -0.018154806 0.99114031 1.0850848e-05
-2.6723058 -2.1647635 -1.3429245 11 0.13157545 -0.018152969 0.99113989 9.0128106e-06
-2.6758151 -2.1544881 -1.3414695 11 0.13155578 -0.018160246 0.99114245 6.5073264e-06
-2.6799924 -2.1463106 -1.340742 11 0.13156447 -0.018158974 0.9911412 9.9884319e-06
-2.6863482 -2.13835 -1.340742 11 0.13158195 -0.018141074 0.99113929 4.7865974e-06
-2.6882982 -2.1269021 -1.3385596 11 0.13152662 -0.018111944 0.9911471 5.0307699e-06
-2.694597 -2.1189163 -1.3385596 11 0.13151139 -0.018090032 0.9911496 8.4506974e-06
-2.6946325 -2.1067936 -1.3356497 11 0.13151436 -0.018067516 0.9911496 7.5036905e-06
-2.704181 -2.1006029 -1.3371047 11 0.13148883 -0.018014928 0.99115402 3.8712083e-06
-2.7056129 -2.0896275 -1.3349222 10 0.13145702 -0.017982468 0.99115872 5.915279e-06
-2.7084825 -2.0797944 -1.3334672 10 0.13144605 -0.017948737 0.99116081 6.0053653e-06
-2.7146411 -2.0717494 -1.3334672 11 0.13142444 -0.017876709 0.99116504 8.8352781e-06
-2.7204161 -2.0641603 -1.3334672 10 0.1314349 -0.017817559 0.99116468 6.9153161e-06
-2.7265289 -2.0560796 -1.3334672 11 0.1314292 -0.017754756 0.99116653 8.5723104e-06
-2.7266543 -2.0435116 -1.3305573 11 0.13140783 -0.017677212 0.9911707 1.1408466e-05
-2.7338436 -2.0370028 -1.3312849 12 0.13137352 -0.017613173 0.99117649 1.2021049e-05
-2.7346771 -2.026511 -1.3291025 10 0.13133723 -0.017536471 0.99118263 9.9258195e-06
-2.7425301 -2.0190139 -1.3298299 11 0.13135454 -0.017485259 0.99118119 1.3587607e-05
-2.7406411 -2.0058458 -1.3261925 10 0.13124573 -0.017360356 0.99119782 9.7424027e-06
-2.7495937 -1.9998968 -1.3276474 10 0.13133058 -0.017273597 0.99118811 7.5957082e-06
-2.7540054 -1.9906392 -1.32692 11 0.13128291 -0.017188888 0.99119592 9.4875813e-06
-2.7565279 -1.9807663 -1.3254651 10 0.13120738 -0.017117498 0.99120712 1.0115978e-05
-2.762048 -1.9730612 -1.3254651 10 0.13119921 -0.017077971 0.99120891 1.0019269e-05
-2.766371 -1.9637787 -1.3247375 10 0.13118416 -0.016997809 0.99121225 8.6414602e-06
-2.7706633 -1.954488 -1.32401 10 0.13111304 -0.016924517 0.99122292 1.1044622e-05
-2.7779756 -1.947328 -1.3247375 11 0.13118479 -0.01680189 0.99121553 1.2233767e-05
-2.7803457 -1.9374332 -1.3232826 11 0.13109879 -0.016740421 0.99122798 9.7852553e-06
-2.7857454 -1.9296613 -1.3232826 10 0.13111126 -0.016582662 0.99122894 1.1680344e-05
-2.7871895 -1.917732 -1.3211001 10 0.13100544 -0.016510572 0.9912442 1.1221581e-05
-2.789458 -1.9078382 -1.3196453 9 0.13092984 -0.016439529 0.99125534 9.7104466e-06
-2.7932341 -1.8989934 -1.3189178 9 0.13086173 -0.016363122 0.99126559 1.0199799e-05
-2.8007305 -1.8912513 -1.3196453 10 0.13092186 -0.016217709 0.99126011 1.1066776e-05
-2.8010323 -1.8807968 -1.3174628 10 0.130807 -0.016183646 0.99127579 1.2402583e-05
-2.8096993 -1.8745458 -1.3189178 11 0.13091888 -0.016022818 0.99126357 1.2937609e-05
-2.8124692 -1.8636509 -1.3174628 11 0.13073741 -0.015917029 0.99128932 1.6752678e-05
-2.8201251 -1.858824 -1.3189178 11 0.13089424 -0.015821906 0.99127007 1.5511678e-05
-2.8212748 -1.846894 -1.3167353 10 0.13075165 -0.015744776 0.99129009 1.8572006e-05
-2.8251805 -1.8374997 -1.3160079 10 0.13072014 -0.015624925 0.99129623 1.3481218e-05
-2.8315456 -1.8311086 -1.3167353 11 0.13080709 -0.015541435 0.9912861 1.4892236e-05
-2.8353992 -1.8216921 -1.3160079 10 0.13073301 -0.015413806 0.99129778 1.3995701e-05
-2.8411078 -1.8127759 -1.3160079 11 0.13070989 -0.015302247 0.99130255 1.5338028e-05
-2.8426981 -1.8033347 -1.3145528 10 0.13063666 -0.015187348 0.99131405 1.632459e-05
-2.8464596 -1.7938998 -1.3138254 9 0.13062213 -0.015101129 0.99131721 1.9437015e-05
-2.848923 -1.7829715 -1.3123704 10 0.13054635 -0.014950035 0.99132943 2.3602659e-05
-2.8501074 -1.7740364 -1.3109155 10 0.13051866 -0.01485741 0.9913345 2.1021227e-05
-2.8540826 -1.7640935 -1.3101881 10 0.13046165 -0.014723373 0.99134409 1.8188401e-05
-2.8624792 -1.7575678 -1.311643 11 0.13054982 -0.014621086 0.9913339 1.6630842e-05
-2.8591197 -1.7452151 -1.3080056 10 0.13043545 -0.0144926 0.99135089 1.5548894e-05
-2.867775 -1.7381545 -1.3094605 11 0.1304922 -0.014380732 0.99134505 1.3820073e-05
-2.8713233 -1.7286776 -1.3087331 10 0.13046469 -0.014295344 0.99134988 1.3526323e-05
-2.8662479 -1.715414 -1.3043681 10 0.1303639 -0.014157475 0.99136508 1.0236498e-05
-2.872628 -1.7083554 -1.3050956 10 0.13038652 -0.013999754 0.99136436 1.1434867e-05
-2.8811896 -1.7012167 -1.3065506 11 0.13044325 -0.013931892 0.99135786 1.1898416e-05
-2.881108 -1.6903365 -1.3043681 10 0.13038754 -0.013766714 0.99136752 1.1329471e-05
-2.884501 -1.6808424 -1.3036407 9 0.13036576 -0.013620663 0.99137241 1.3709981e-05
-2.8894756 -1.6722763 -1.3036407 9 0.13035986 -0.013475792 0.99137515 1.7658309e-05
-2.8857691 -1.6600617 -1.3000033 10 0.13029775 -0.01331807 0.99138546 1.8428387e-05
-2.8922999 -1.6524162 -1.3007308 10 0.13031539 -0.013166314 0.99138516 1.7883998e-05
-2.8988101 -1.6447464 -1.3014582 9 0.1303428 -0.013002886 0.99138373 2.1049467e-05
-2.8985233 -1.6339004 -1.2992759 9 0.13025263 -0.012895823 0.99139696 2.2485649e-05
-2.9020159 -1.6238772 -1.2985483 10 0.13025059 -0.012713234 0.99139959 2.42364e-05
-2.9032829 -1.6139563 -1.2970934 10 0.13023268 -0.012546302 0.99140412 2.4519444e-05
-2.9061477 -1.6049416 -1.2963659 10 0.13021676 -0.012438728 0.99140757 2.3508355e-05
-2.9128091 -1.5967 -1.2970934 10 0.13023761 -0.012296438 0.99140656 2.6421696e-05
-2.9137075 -1.587286 -1.2956384 10 0.13020222 -0.012175405 0.99141264 2.8684775e-05
-2.9167655 -1.5777473 -1.2949109 10 0.13014735 -0.012033316 0.99142164 2.9664667e-05
-2.9214339 -1.5690861 -1.2949109 10 0.13013391 -0.011872976 0.99142534 3.4196069e-05
-2.9258044 -1.5609215 -1.2949109 11 0.1301626 -0.01172867 0.99142331 3.609791e-05
-2.9235675 -1.5492556 -1.2920011 10 0.13010457 -0.011523425 0.99143332 3.4308145e-05
-2.9300685 -1.5409309 -1.2927285 10 0.13014451 -0.011358917 0.99142992 3.9662285e-05
-2.9324419 -1.5323918 -1.2920011 10 0.13010365 -0.011216098 0.99143696 3.9302267e-05
-2.9419365 -1.5262578 -1.2941835 11 0.1301358 -0.011008567 0.99143505 4.3648379e-05
-2.9365146 -1.5124048 -1.2898186 10 0.13004026 -0.010696232 0.99145103 4.3865464e-05
-2.9407268 -1.5041983 -1.2898186 10 0.13001011 -0.010507725 0.99145699 4.8332106e-05
-2.9435155 -1.4946227 -1.2890911 8 0.12997264 -0.010292487 0.99146414 4.8308182e-05
-2.9496009 -1.4867209 -1.2898186 10 0.12996858 -0.010133157 0.9914664 5.433866e-05
-2.9537416 -1.4784782 -1.2898186 11 0.12996697 -0.0099654356 0.99146831 5.5981982e-05
-2.9531097 -1.4672214 -1.2876362 10 0.1298832 -0.0097002089 0.9914819 5.5881479e-05
-2.9591208 -1.4592767 -1.2883636 10 0.1298501 -0.0094769839 0.99148834 5.7784622e-05
-2.9612579 -1.4507056 -1.2876362 10 0.12986501 -0.0093069216 0.99148804 5.6778212e-05
-2.9636221 -1.4416153 -1.2869086 9 0.12981525 -0.0090556042 0.99149686 6.0029844e-05
-2.9698143 -1.4331081 -1.2876362 10 0.1298095 -0.0088434918 0.99149954 6.0290342e-05
-2.9704444 -1.4231991 -1.2861812 10 0.12979743 -0.0086813215 0.99150258 5.9724836e-05
-2.9746542 -1.4143791 -1.2861812 10 0.12973157 -0.0084142964 0.99151349 6.0606082e-05
-2.9771526 -1.4047525 -1.2854537 10 0.12966678 -0.0081794271 0.99152386 6.0258186e-05
-2.9793766 -1.3956426 -1.2847263 9 0.12965868 -0.0079699028 0.99152666 5.8312304e-05
-2.9798837 -1.3857459 -1.2832713 9 0.12959522 -0.0076572248 0.99153739 6.0298917e-05
-2.9873655 -1.3784592 -1.2847263 9 0.12958723 -0.007468137 0.9915399 6.2451181e-05
-2.9880548 -1.3680383 -1.2832713 10 0.12953657 -0.0071850996 0.99154866 5.7982739e-05
-2.9921002 -1.359167 -1.2832713 10 0.12951426 -0.0069112754 0.99155349 5.6462326e-05
-2.9958842 -1.350806 -1.2832713 10 0.12950744 -0.006627412 0.99155623 5.3555395e-05
-2.9996448 -1.3424345 -1.2832713 10 0.12947519 -0.0063719759 0.99156219 5.3420928e-05
-3.0016797 -1.3332963 -1.2825439 9 0.12941842 -0.0060856896 0.99157137 5.5398941e-05
-3.0058532 -1.3238602 -1.2825439 9 0.12938687 -0.00582626 0.99157703 5.2636347e-05
-3.0112453 -1.3162071 -1.2832713 10 0.12933771 -0.0055923765 0.99158484 5.2133826e-05
-3.0136561 -1.3059996 -1.2825439 10 0.12925662 -0.0052533126 0.99159729 5.6153447e-05
-3.0170653 -1.2981051 -1.2825439 11 0.12922084 -0.0050339932 0.99160302 5.4238273e-05
-3.015763 -1.2869538 -1.2803614 9 0.1291471 -0.0046419329 0.99161458 5.568286e-05
-3.0163596 -1.2760221 -1.2789065 10 0.12906019 -0.0043564104 0.99162716 5.4668461e-05
-3.0211854 -1.2693698 -1.2796339 10 0.12903754 -0.0041185347 0.99163121 5.3308948e-05
-3.0234392 -1.2591553 -1.2789065 9 0.12894851 -0.0037842616 0.99164408 5.3365638e-05
-3.0288832 -1.2508906 -1.2796339 9 0.12894364 -0.0035033263 0.99164569 5.1191375e-05
-3.0287006 -1.2415433 -1.2781789 10 0.12887409 -0.003121455 0.99165601 5.0237108e-05
-3.0323706 -1.2325521 -1.2781789 10 0.1288297 -0.0028327301 0.99166268 4.8367663e-05
-3.0344999 -1.2223225 -1.2774514 10 0.128796 -0.0024647051 0.99166805 4.6796868e-05
-3.0394194 -1.2150661 -1.2781789 10 0.12873569 -0.002186981 0.99167657 4.6684763e-05
-3.0395472 -1.2046704 -1.276724 10 0.12863408 -0.0018401229 0.9916904 4.432437e-05
-3.0448422 -1.1963269 -1.2774514 10 0.12862067 -0.0015445974 0.99169272 4.874646e-05
-3.0462279 -1.1876751 -1.276724 10 0.12854435 -0.0012347567 0.99170297 4.9000788e-05
-3.0462632 -1.1772883 -1.275269 10 0.12847778 -0.0008957517 0.99171197 4.8842729e-05
-3.0516865 -1.1683784 -1.2759966 9 0.12840657 -0.00055688911 0.99172145 5.1955973e-05
-3.0512519 -1.1590617 -1.2745416 9 0.1283416 -0.00025802976 0.99173003 5.400079e-05
-3.0597069 -1.1525064 -1.276724 11 0.12830178 8.5550135e-05 0.99173516 5.5047076e-05
-3.0617664 -1.1417027 -1.2759966 11 0.12826285 0.00044476218 0.99174017 5.4748081e-05
-3.0612502 -1.1323909 -1.2745416 9 0.12816112 0.00084145583 0.99175298 5.68166e-05
-3.0609024 -1.1225547 -1.2730867 10 0.12809855 0.0011531602 0.99176079 5.7219073e-05
-3.0661647 -1.1135695 -1.2738141 10 0.12806185 0.0015701168 0.9917649 6.0596754e-05
-3.0690696 -1.1055382 -1.2738141 9 0.12799156 0.0018619698 0.99177355 6.0793136e-05
-3.0707729 -1.0952652 -1.2730867 10 0.1279012 0.0022330184 0.99178439 5.8928563e-05
-3.0757654 -1.0867703 -1.2738141 10 0.12786172 0.0026283676 0.99178851 6.0672883e-05
-3.0768423 -1.0780972 -1.2730867 8 0.12782571 0.0029775149 0.9917922 6.2849656e-05
-3.0800273 -1.0689639 -1.2730867 7 0.12771229 0.0033574721 0.99180561 6.5552929e-05
-3.0796616 -1.0586091 -1.2716316 9 0.12763998 0.0037566877 0.99181348 6.521897e-05
-3.0931873 -1.0536089 -1.2759966 11 0.12758692 0.0040245387 0.9918192 7.290925e-05
-3.0876548 -1.0409111 -1.2723591 10 0.1274499 0.0045056073 0.99183482 7.2496012e-05
-3.0870156 -1.0311041 -1.2709042 10 0.1274116 0.0049593202 0.99183756 7.7125267e-05
-3.0934203 -1.0236498 -1.2723591 10 0.12732695 0.0052381796 0.99184698 8.1483457e-05
-3.094496 -1.0144274 -1.2716316 9 0.12719448 0.0056157387 0.99186188 8.8986679e-05
-3.0957205 -1.0046669 -1.2709042 9 0.12707964 0.0061886907 0.9918732 9.3593619e-05
-3.09674 -0.99544775 -1.2701766 10 0.12700869 0.0065627932 0.99187988 9.8466284e-05
-3.1034033 -0.98684245 -1.2716316 10 0.12694627 0.0068565053 0.99188596 9.7674347e-05
-3.1059759 -0.97871482 -1.2716316 9 0.12687396 0.0072247037 0.99189252 9.9503442e-05
-3.1035309 -0.96783096 -1.2694492 10 0.12673506 0.0077661038 0.99190623 0.00010246796
-3.1046085 -0.95806956 -1.2687217 10 0.12670289 0.0081549538 0.99190724 0.00010771606
-3.1110008 -0.94994164 -1.2701766 10 0.12661915 0.0085530672 0.99191451 0.00010911967
-3.1118584 -0.94071114 -1.2694492 9 0.12657326 0.0089984629 0.99191642 0.00010542492
-3.1146357 -0.93147451 -1.2694492 10 0.12650347 0.0094642779 0.99192101 0.00010603288
-3.11885 -0.92384529 -1.2701766 9 0.12641045 0.0097871795 0.99192977 0.00010683681
-3.1217368 -0.91404319 -1.2701766 11 0.12632649 0.010286692 0.99193537 0.00010445219
-3.1208565 -0.90374029 -1.2687217 10 0.12620007 0.010813496 0.99194586 0.00010270395
-3.125315 -0.89499003 -1.2694492 9 0.12611441 0.011235592 0.99195212 0.00010130306
-3.1258552 -0.88629568 -1.2687217 9 0.12604779 0.011573358 0.99195665 9.9360142e-05
-3.1248832 -0.87601197 -1.2672668 9 0.12591568 0.012133903 0.99196678 0.00010075873
-3.1273174 -0.86728209 -1.2672668 9 0.12586273 0.012524821 0.99196857 9.6353251e-05
-3.1280801 -0.85750651 -1.2665393 10 0.12572412 0.012988504 0.9919802 9.6872143e-05
-3.1324089 -0.84870934 -1.2672668 10 0.12566935 0.013472933 0.99198067 9.5807991e-05
-3.1349132 -0.8394115 -1.2672668 10 0.12558146 0.013832378 0.99198681 9.6306125e-05
-3.1336432 -0.82969999 -1.2658119 10 0.12548007 0.014343325 0.99199241 9.5899028e-05
-3.1396959 -0.8213414 -1.2672668 10 0.12544133 0.01479391 0.99199075 9.5881864e-05
-3.1418355 -0.81311941 -1.2672668 10 0.12535195 0.015186795 0.99199611 9.4175564e-05
-3.1443744 -0.80324489 -1.2672668 10 0.12525938 0.015640268 0.9920007 9.3693117e-05
-3.1411865 -0.79309255 -1.2650844 10 0.1251228 0.016044399 0.99201149 9.0201502e-05
-3.1433887 -0.78431821 -1.2650844 9 0.12506934 0.016513012 0.99201053 9.0972921e-05
-3.1458371 -0.77443892 -1.2650844 9 0.12494285 0.017035164 0.99201769 9.1750589e-05
-3.1497977 -0.76609117 -1.2658119 10 0.12485231 0.017429676 0.99202222 9.2106042e-05
-3.1574914 -0.75804669 -1.2679942 11 0.12476633 0.017894754 0.99202478 9.2515314e-05
-3.1487198 -0.74664706 -1.2636294 10 0.12469397 0.01838655 0.99202484 9.0679241e-05
-3.1542914 -0.73925185 -1.2650844 10 0.12465958 0.018689133 0.99202359 9.0000372e-05
-3.1565981 -0.72933936 -1.2650844 11 0.1245137 0.019163892 0.99203283 9.1712769e-05
-3.1569316 -0.71955532 -1.2643569 10 0.12439987 0.019639913 0.99203777 9.5187985e-05
-3.1624398 -0.71210712 -1.2658119 10 0.12437403 0.019978596 0.99203426 9.1652197e-05
-3.1628428 -0.70176482 -1.2650844 10 0.12424773 0.02051482 0.99203914 9.2372e-05
-3.1664889 -0.69388068 -1.2658119 9 0.12416873 0.020824376 0.9920426 9.4103809e-05
-3.1630707 -0.6833021 -1.2636294 9 0.12410174 0.021394225 0.99203879 9.3428367e-05
-3.1650841 -0.67391467 -1.2636294 9 0.12404034 0.021804251 0.99203759 9.3574148e-05
-3.1670697 -0.6645205 -1.2636294 10 0.12394141 0.022291267 0.99203908 9.4463248e-05
-3.1707373 -0.65605104 -1.2643569 10 0.12384336 0.022657642 0.99204308 9.7507611e-05
-3.1708446 -0.64626896 -1.2636294 9 0.12373637 0.023083486 0.99204659 9.7078388e-05
-3.1744633 -0.63777846 -1.2643569 9 0.1236329 0.023467148 0.99205047 9.3868068e-05
-3.1707494 -0.6278255 -1.2621745 10 0.12351544 0.023975987 0.99205297 9.4979208e-05
-3.1781921 -0.61892933 -1.2643569 10 0.12340852 0.024470005 0.99205422 9.3102499e-05
-3.1835675 -0.6107536 -1.2658119 11 0.12328263 0.024870779 0.99205995 9.2785958e-05
-3.1779385 -0.60047722 -1.2629019 9 0.12321233 0.025325907 0.99205709 9.3262774e-05
-3.1796026 -0.59160167 -1.2629019 10 0.12312575 0.025759744 0.99205667 9.1264548e-05
-3.1868415 -0.58317089 -1.2650844 10 0.12300693 0.026214952 0.99205953 8.9177462e-05
-3.1885581 -0.57371187 -1.2650844 9 0.12294652 0.026646376 0.99205554 8.9940841e-05
-3.1884112 -0.56392473 -1.2643569 9 0.12284506 0.027125362 0.99205512 8.893793e-05
-3.1881382 -0.55470008 -1.2636294 10 0.12282424 0.027506722 0.99204719 8.6421183e-05
-3.1879339 -0.54492337 -1.2629019 10 0.12270653 0.027974229 0.99204862 8.6526823e-05
-3.1930239 -0.53719419 -1.2643569 9 0.12262174 0.028281339 0.99205053 8.6885106e-05
-3.1928577 -0.5268569 -1.2636294 9 0.12253837 0.028769355 0.99204671 9.0517315e-05
-3.1961551 -0.51823741 -1.2643569 10 0.12243582 0.029233228 0.99204582 9.2635404e-05
-3.1996078 -0.50848538 -1.2650844 9 0.12229263 0.029680874 0.99205017 9.5788811e-05
-3.1973338 -0.49897441 -1.2636294 10 0.12223002 0.030125571 0.99204451 9.6070515e-05
-3.2042391 -0.49089 -1.2658119 9 0.12210726 0.030542172 0.99204689 9.6428776e-05
-3.2019126 -0.48138595 -1.2643569 10 0.1220444 0.031028893 0.9920395 9.7727352e-05
-3.2051704 -0.47215569 -1.2650844 10 0.12192161 0.031439878 0.99204171 9.8483761e-05
-3.208401 -0.46290958 -1.2658119 9 0.12188791 0.031845909 0.99203283 9.930606e-05
-3.2135289 -0.45334813 -1.2672668 11 0.12174942 0.032398783 0.99203193 9.4151321e-05
-3.2054005 -0.44421571 -1.2636294 9 0.1216964 0.03273255 0.99202746 9.6090058e-05
-3.2141643 -0.43514377 -1.2665393 10 0.12163063 0.033169366 0.99202108 9.5105577e-05
-3.2134459 -0.42648232 -1.2658119 11 0.12156122 0.033617411 0.99201447 9.6543758e-05
-3.2146971 -0.41694576 -1.2658119 10 0.12146738 0.034010492 0.99201262 9.5814874e-05
-3.214072 -0.4071714 -1.2650844 10 0.12141785 0.03446579 0.9920029 9.479568e-05
-3.2208819 -0.39775771 -1.2672668 10 0.12128463 0.034988325 0.99200094 9.2100956e-05
-3.2200627 -0.38910034 -1.2665393 10 0.12122882 0.035297342 0.99199677 9.4074603e-05
-3.2230535 -0.37976235 -1.2672668 9 0.12112155 0.035687573 0.99199599 9.3148825e-05
-3.2259519 -0.37097299 -1.2679942 9 0.12106742 0.036175892 0.99198484 9.1995389e-05
-3.2271016 -0.36083719 -1.2679942 9 0.12096026 0.036571652 0.99198341 9.275035e-05
-3.2243309 -0.35198358 -1.2665393 10 0.12090663 0.036961518 0.99197555 9.1611233e-05
-3.2291262 -0.34224412 -1.2679942 9 0.12083475 0.037392721 0.99196815 9.1861977e-05
-3.2318645 -0.33398116 -1.2687217 9 0.12073325 0.037809834 0.9919647 9.0758622e-05
-3.232841 -0.32439038 -1.2687217 9 0.12067834 0.038221683 0.99195558 9.2895243e-05
-3.2337344 -0.31536111 -1.2687217 10 0.12058762 0.038622517 0.99195111 8.8016917e-05
-3.2365639 -0.30537531 -1.2694492 10 0.12053649 0.039023232 0.99194157 8.8060537e-05
-3.239259 -0.29650632 -1.2701766 9 0.12048608 0.039466318 0.99193019 8.8599147e-05
-3.2438362 -0.28722236 -1.2716316 10 0.12044921 0.039896801 0.99191749 8.9335219e-05
-3.2352962 -0.27793151 -1.2679942 10 0.12037981 0.04022922 0.99191242 9.2597067e-05
-3.2454364 -0.2685349 -1.2716316 10 0.12028491 0.040685382 0.99190533 9.1775793e-05
-3.2462192 -0.25890335 -1.2716316 9 0.12021197 0.041143712 0.99189532 9.1072819e-05
-3.2432144 -0.24955189 -1.2701766 10 0.12014645 0.041429341 0.99189138 8.8741726e-05
-3.2476563 -0.24020343 -1.2716316 10 0.12007488 0.041890111 0.99188066 8.9120396e-05
-3.2483144 -0.2311331 -1.2716316 9 0.12003315 0.042231016 0.99187124 8.8749541e-05
-3.2471275 -0.22136727 -1.2709042 10 0.11997808 0.042621184 0.99186116 8.5658059e-05
-3.253273 -0.21323083 -1.2730867 9 0.11991979 0.043054562 0.99184954 8.3540821e-05
-3.2539268 -0.20300996 -1.2730867 10 0.11987471 0.043460894 0.99183726 7.8734804e-05
-3.2489018 -0.19358984 -1.2709042 10 0.11982569 0.043831244 0.99182695 8.0804632e-05
-3.2550421 -0.184265 -1.2730867 10 0.11973882 0.044208981 0.99182063 7.868027e-05
-3.2573736 -0.17584285 -1.2738141 10 0.11974361 0.04452721 0.99180579 7.8881065e-05
-3.2579098 -0.1656085 -1.2738141 10 0.11970523 0.044970393 0.99179053 7.755938e-05
-3.2564988 -0.15642124 -1.2730867 10 0.11964837 0.045261353 0.99178404 7.6364857e-05
-3.2606452 -0.14749493 -1.2745416 10 0.11960755 0.04562822 0.99177223 7.3528303e-05
-3.2573457 -0.13766225 -1.2730867 9 0.11954991 0.045994204 0.99176234 7.6419041e-05
-3.2633245 -0.12821613 -1.275269 9 0.11948351 0.046392351 0.99175179 7.3624171e-05
-3.2580638 -0.11946806 -1.2730867 10 0.11950504 0.046623383 0.99173826 7.2682611e-05
-3.2621469 -0.10935665 -1.2745416 9 0.11944398 0.046990786 0.99172831 7.1087328e-05
-3.2661638 -0.10036159 -1.2759966 10 0.11937777 0.047375429 0.99171793 6.8374211e-05
-3.2645693 -0.091188118 -1.275269 10 0.11934225 0.047701318 0.99170661 6.7459943e-05
-3.2685645 -0.081023909 -1.276724 10 0.11935052 0.048067547 0.99168789 6.2019775e-05
-3.2669277 -0.071284711 -1.2759966 9 0.11925557 0.048366677 0.99168479 6.1738756e-05
-3.2671032 -0.06273219 -1.2759966 10 0.11922497 0.048683941 0.99167293 5.9429829e-05
-3.2672751 -0.053038042 -1.2759966 9 0.11919028 0.049003266 0.99166143 5.7016543e-05
-3.2711434 -0.043392848 -1.2774514 10 0.11913467 0.049325906 0.99165201 5.7138288e-05
-3.2731266 -0.033134755 -1.2781789 10 0.11912396 0.049624998 0.99163842 5.8659378e-05
-3.2750654 -0.024580125 -1.2789065 9 0.11910968 0.049895804 0.99162656 5.5954992e-05
-3.2751236 -0.014862522 -1.2789065 10 0.11906305 0.050230961 0.99161524 5.3685526e-05
-3.2732885 -0.0062843855 -1.2781789 10 0.11899379 0.05041771 0.9916141 5.1961888e-05
-3.2788808 0.0040051742 -1.2803614 9 0.11895564 0.050744668 0.99160194 4.7859183e-05
-3.2751288 0.013718366 -1.2789065 10 0.11890771 0.050997436 0.99159479 4.6515499e-05
-3.2787995 0.023462651 -1.2803614 10 0.11889222 0.051288158 0.99158174 4.6824385e-05
-3.2787213 0.032618914 -1.2803614 9 0.11886077 0.051544134 0.99157214 4.4344397e-05
-3.2823429 0.041822392 -1.2818164 10 0.11884767 0.051811632 0.99155974 4.3145687e-05
-3.2840672 0.051589776 -1.2825439 10 0.11884595 0.052081127 0.99154586 3.7521299e-05
-3.2820582 0.06015338 -1.2818164 9 0.11881525 0.052246809 0.99154079 3.4973313e-05
-3.2837157 0.070504114 -1.2825439 9 0.11878146 0.052516188 0.99153066 3.5239274e-05
-3.289093 0.079809487 -1.2847263 10 0.11882141 0.052753665 0.99151331 3.2582386e-05
-3.2869797 0.089516759 -1.2839988 10 0.11879378 0.052950446 0.99150604 2.9269446e-05
-3.2904587 0.098233186 -1.2854537 9 0.11878551 0.053146537 0.99149662 2.8041126e-05
-3.2882524 0.10908255 -1.2847263 10 0.11874523 0.053354632 0.99149019 2.9454824e-05
-3.2879555 0.11769105 -1.2847263 10 0.11875045 0.053535618 0.99147981 2.6895248e-05
-3.2894759 0.12694359 -1.2854537 9 0.11874551 0.053765714 0.99146807 2.7842425e-05
-3.2909224 0.137355 -1.2861812 10 0.11875959 0.053935349 0.99145705 2.8793425e-05
-3.2868035 0.14637887 -1.2847263 10 0.11870502 0.054126211 0.99145317 2.8165317e-05
-3.2901039 0.15573241 -1.2861812 10 0.11874492 0.054309361 0.99143833 2.755035e-05
-3.2877667 0.16540022 -1.2854537 10 0.11873737 0.054506481 0.99142855 2.840066e-05
-3.294733 0.17497617 -1.2883636 11 0.11874795 0.054743946 0.99141419 2.8175455e-05
-3.2923398 0.18464616 -1.2876362 10 0.1187044 0.054854788 0.99141324 2.7684871e-05
-3.293637 0.19452392 -1.2883636 9 0.11870623 0.05504901 0.99140227 2.8153492e-05
-3.3004832 0.20475788 -1.2912736 11 0.11874449 0.055259749 0.99138594 2.9905474e-05
-3.2943583 0.21303661 -1.2890911 10 0.11867637 0.055310287 0.99139136 2.8686547e-05
-3.2955317 0.22351055 -1.2898186 10 0.11872923 0.05547962 0.99137545 2.9647881e-05
-3.2986114 0.23297526 -1.2912736 10 0.11872452 0.055621888 0.99136806 3.147719e-05
-3.2960896 0.24204956 -1.2905461 10 0.11874568 0.055739693 0.99135894 2.8644825e-05
-3.2990725 0.2521123 -1.2920011 9 0.11877412 0.055900812 0.99134648 2.7584607e-05
-3.3002124 0.26147139 -1.2927285 10 0.11878153 0.056031767 0.99133819 2.6480571e-05
-3.2957089 0.27095628 -1.2912736 10 0.11874442 0.056142818 0.99133635 2.4799909e-05
-3.3041718 0.28152466 -1.2949109 11 0.11881402 0.056281216 0.99132013 2.653666e-05
-3.3070843 0.29107744 -1.2963659 11 0.11887999 0.056381475 0.9913066 2.4982151e-05
-3.3006401 0.3003813 -1.2941835 11 0.11882251 0.056478478 0.99130791 2.5484585e-05
-3.3015895 0.31034774 -1.2949109 10 0.11882154 0.0565851 0.99130195 2.615349e-05
-3.3006539 0.32014257 -1.2949109 10 0.11881959 0.056690834 0.99129617 3.0361303e-05
-3.3035119 0.3291522 -1.2963659 10 0.11884088 0.056777731 0.99128866 3.0556625e-05
-3.3080215 0.34009984 -1.2985483 11 0.11886787 0.056861971 0.99128056 3.1614552e-05
-3.3033535 0.34894508 -1.2970934 10 0.11883826 0.056935266 0.9912799 2.99156e-05
-3.3097117 0.35954976 -1.3000033 11 0.11889619 0.057008009 0.99126875 3.1863325e-05
-3.2993729 0.3683342 -1.2963659 10 0.11881863 0.057088304 0.9912734 2.9643363e-05
-3.2983315 0.37754658 -1.2963659 10 0.11881857 0.057179809 0.99126816 2.7519513e-05
-3.3046658 0.38762414 -1.2992759 9 0.11888791 0.057218272 0.99125761 3.0697833e-05
-3.3071308 0.39844999 -1.3007308 11 0.118906 0.057284467 0.99125165 2.9559433e-05
-3.3098454 0.40698388 -1.3021858 11 0.11896934 0.057364233 0.99123949 2.7851704e-05
-3.315944 0.41831365 -1.3050956 12 0.11907813 0.057426088 0.9912228 3.0020346e-05
-3.3036025 0.42671788 -1.3007308 10 0.118985 0.05747427 0.99123114 2.4642914e-05
-3.3061681 0.43585166 -1.3021858 10 0.11900449 0.057551473 0.99122441 2.3932849e-05
-3.3066287 0.44648641 -1.3029132 10 0.11907128 0.057609782 0.9912129 1.9018817e-05
-3.3109055 0.45648131 -1.3050956 11 0.11911743 0.057659775 0.99120456 1.4851961e-05
-3.3114626 0.46598509 -1.3058231 11 0.11916426 0.057709765 0.99119604 1.6729278e-05
-3.3082213 0.47554266 -1.3050956 10 0.11912367 0.057745464 0.99119878 1.3484111e-05
-3.3141692 0.48643866 -1.3080056 11 0.11931532 0.057737827 0.99117613 1.3922966e-05
-3.3128843 0.49511373 -1.3080056 11 0.11931404 0.057776064 0.9911741 1.3396907e-05
-3.3057873 0.50467485 -1.3058231 10 0.11924528 0.057820402 0.99117976 7.130503e-06
-3.3135693 0.5153361 -1.3094605 11 0.11940669 0.05785181 0.99115849 6.1326109e-06
-3.3065972 0.52371323 -1.307278 10 0.1193267 0.05789623 0.99116552 2.9005662e-06
-3.3068683 0.5338189 -1.3080056 10 0.11940662 0.057927463 0.99115407 3.6752347e-06
-3.3126228 0.54483777 -1.3109155 11 0.11957636 0.057919599 0.99113411 1.1920114e-07
-3.3092511 0.55377907 -1.3101881 10 0.11953767 0.058007259 0.99113369 0
-3.3112667 0.56422061 -1.311643 11 0.11959866 0.05802238 0.9911254 0
-3.3077421 0.57372463 -1.3109155 11 0.11956992 0.058031697 0.99112833 0
-3.313364 0.58483112 -1.3138254 11 0.11974998 0.058001172 0.99110842 0
-3.3080506 0.59342378 -1.3123704 10 0.11969101 0.058057398 0.99111223 0
-3.3044426 0.60290217 -1.311643 10 0.11967968 0.058093686 0.99111146 0
-3.3044708 0.61304402 -1.3123704 10 0.11971962 0.058100183 0.99110627 0
-3.3065162 0.62238169 -1.3138254 10 0.1198151 0.05810824 0.99109423 0
-3.3101444 0.6332407 -1.3160079 11 0.11988395 0.058082759 0.99108744 0
-3.3082509 0.64305872 -1.3160079 11 0.11991163 0.058087774 0.99108374 0
-3.3099837 0.65359366 -1.3174628 11 0.12001922 0.058080625 0.99107116 0
-3.3063188 0.66246849 -1.3167353 11 0.11997745 0.058095708 0.99107528 0
-3.3008049 0.67095608 -1.3152803 10 0.11996438 0.058126483 0.9910751 0
-3.3062167 0.68167609 -1.3181902 11 0.12011477 0.058083206 0.99105942 0
-3.3058822 0.69244164 -1.3189178 11 0.12016487 0.058093097 0.99105275 0
-3.3057585 0.70205718 -1.3196453 11 0.12019707 0.058105912 0.9910481 0
-3.3035364 0.71243918 -1.3196453 11 0.12021763 0.058135111 0.99104393 0
-3.3017859 0.72050941 -1.3196453 11 0.12024435 0.058155634 0.99103945 0
-3.3013246 0.73128092 -1.3203727 11 0.12026929 0.058170442 0.99103558 0
-3.3008289 0.74205762 -1.3211001 11 0.1203395 0.058177602 0.99102664 0
-3.2953727 0.749295 -1.3196453 10 0.120276 0.058200926 0.99103296 0
-3.302079 0.76173723 -1.3232826 11 0.12048867 0.058159698 0.99100953 0
-3.3016183 0.77195555 -1.32401 12 0.12052222 0.058188401 0.99100381 0
-3.2976367 0.78074348 -1.3232826 11 0.1205336 0.0581876 0.99100244 0
-3.2954438 0.78994942 -1.3232826 12 0.12052791 0.05823002 0.99100065 0
-3.2965662 0.80117768 -1.3247375 11 0.12057664 0.058249343 0.99099356 1.8001901e-07
-3.2962668 0.81025034 -1.3254651 11 0.12056947 0.058296084 0.99099171 2.9696639e-06
-3.2992716 0.82137734 -1.3276474 11 0.12074903 0.058283266 0.99097061 3.8103415e-06
-3.2914007 0.82979679 -1.3254651 11 0.12057605 0.058357567 0.9909873 9.0830554e-06
-3.2964377 0.84025168 -1.328375 11 0.12076066 0.058366138 0.99096429 7.3845413e-06
-3.2883706 0.84920543 -1.3261925 10 0.1206902 0.058419682 0.99096972 7.9678621e-06
-3.2912436 0.86037225 -1.328375 11 0.1208026 0.058441214 0.99095476 8.3370833e-06
-3.2925823 0.86993784 -1.3298299 11 0.12090559 0.05843839 0.99094236 1.2925118e-05
-3.2899864 0.87970346 -1.3298299 11 0.12088829 0.058495253 0.99094111 1.1109789e-05
-3.2872066 0.8900342 -1.3298299 11 0.1209082 0.058530122 0.99093664 1.3903403e-05
-3.2848654 0.89863735 -1.3298299 12 0.12093225 0.058563396 0.99093175 1.2938128e-05
-3.2895257 0.90979278 -1.3327398 11 0.12110436 0.058581084 0.99090976 2.1133163e-05
-3.2830627 0.91911912 -1.3312849 13 0.12105896 0.058642685 0.9909116 2.0777507e-05
-3.2860236 0.92923123 -1.3334672 11 0.12140381 0.058210749 0.99089479 3.2761145e-05
-3.283088 0.93955016 -1.3334672 11 0.12165956 0.05784614 0.9908849 4.6383513e-05
-3.283865 0.9503231 -1.3349222 12 0.12184302 0.057606116 0.99087626 5.361361e-05
-3.2831542 0.95943904 -1.3356497 12 0.12196366 0.057398632 0.99087346 5.890576e-05
-3.2872701 0.97186148 -1.3385596 12 0.12209264 0.057135344 0.9908728 6.6567496e-05
-3.2809732 0.97997057 -1.3371047 11 0.12212645 0.056958061 0.99087888 7.3455914e-05
-3.281791 0.99020547 -1.3385596 11 0.12219393 0.056695942 0.99088556 8.3542727e-05
-3.2786636 1.0005115 -1.3385596 11 0.12222213 0.05656663 0.99088949 8.5838707e-05
-3.2776377 1.0102109 -1.3392872 12 0.12228914 0.056436576 0.9908886 8.5964333e-05
-3.2783616 1.0204674 -1.340742 11 0.12233301 0.056282513 0.99089199 8.683301e-05
-3.2788734 1.0313082 -1.3421969 11 0.12236868 0.056072079 0.9908995 8.8472094e-05
-3.2704728 1.0393398 -1.3400146 11 0.12236561 0.055901069 0.99090952 9.1337519e-05
-3.2728791 1.0501764 -1.3421969 12 0.12243725 0.055747017 0.99090946 8.7015418e-05
-3.2732935 1.0610309 -1.343652 12 0.12282617 0.055313464 0.99088556 9.7752316e-05
-3.2722747 1.0701768 -1.3443794 12 0.12292463 0.055168372 0.99088138 9.9939592e-05
-3.2688968 1.080451 -1.3443794 13 0.12294513 0.055125024 0.99088132 0.00010422552
-3.2676339 1.0901651 -1.345107 12 0.12320315 0.05473109 0.99087107 0.00011143016
-3.2663429 1.0998806 -1.3458345 12 0.12320329 0.054609783 0.99087775 0.00011612354
-3.2646348 1.1107361 -1.3465619 10 0.12332079 0.054419067 0.99087358 0.00011977156
-3.2650445 1.1210586 -1.3480169 12 0.12328278 0.054395422 0.99087965 0.00012991832
-3.2583804 1.1289524 -1.3465619 12 0.12326216 0.054294612 0.9908877 0.00013670682
-3.2618518 1.1416444 -1.3494718 11 0.12311231 0.054540284 0.99089289 0.00016100469
-3.2570944 1.1495609 -1.3487443 14 0.12309166 0.054388709 0.99090379 0.00016499541
-3.2606893 1.1617203 -1.3516542 13 0.12307844 0.05441197 0.99090415 0.00017346491
-3.2554748 1.1707596 -1.3509268 11 0.1231026 0.054359891 0.99090397 0.00017083247
-3.2504413 1.1792109 -1.3501992 14 0.12308633 0.05421751 0.99091381 0.00017619703
-3.2523847 1.1902033 -1.3523817 11 0.12311644 0.054208912 0.99091053 0.00017856027
-3.2470913 1.1992022 -1.3516542 13 0.12310084 0.054139089 0.99091631 0.00017870787
-3.2470102 1.2101334 -1.3531092 12 0.12306682 0.054305967 0.99091142 0.00018357314
-3.2488499 1.2211618 -1.3552916 12 0.12305883 0.054370675 0.99090886 0.00018355173
-3.2434702 1.2301356 -1.3545642 11 0.12303139 0.05430463 0.99091583 0.00018985903
-3.2435029 1.2405187 -1.3560191 11 0.12288486 0.054594588 0.99091816 0.00019778835
-3.2398078 1.2501371 -1.3560191 14 0.12277765 0.054653544 0.99092817 0.00020660054
-3.2378206 1.2604203 -1.3567467 13 0.12278878 0.054494467 0.99093556 0.00020718237
-3.2377563 1.2708187 -1.3582015 12 0.12267883 0.054614246 0.99094266 0.00021274085
-3.2324626 1.2791699 -1.3574741 13 0.12258192 0.054789282 0.99094486 0.00022391428
-3.2336187 1.2913909 -1.3596565 13 0.12247851 0.055147003 0.99093789 0.0002377085
-3.2297723 1.3009806 -1.3596565 12 0.12224301 0.055848237 0.99092764 0.00026134777
-3.2315342 1.3115329 -1.3618389 11 0.12210904 0.056174129 0.99092573 0.00027045119
-3.2256742 1.320972 -1.3611114 12 0.12199272 0.056506895 0.99092114 0.00028301991
-3.2293258 1.331691 -1.3640214 14 0.1218091 0.056957338 0.99091792 0.0003010346
-3.2234063 1.3411142 -1.3632939 12 0.12170126 0.05731998 0.99091029 0.00031394543
-3.2208953 1.3519546 -1.3640214 14 0.12138728 0.058141503 0.99090093 0.00033743266
-3.2205386 1.3623956 -1.3654764 12 0.12140732 0.058182783 0.99089605 0.00033978748
-3.2218628 1.3735759 -1.3676587 12 0.12126087 0.058695607 0.99088371 0.0003523964
-3.2177732 1.3831295 -1.3676587 14 0.12107009 0.058970924 0.9908908 0.00035930096
-3.2124317 1.3908081 -1.3669313 13 0.12091783 0.059349336 0.99088669 0.00036750003
-3.2117054 1.4018248 -1.3683861 13 0.1207601 0.059914786 0.99087197 0.0003840781
-3.2106962 1.4134086 -1.3698412 13 0.12071341 0.060197297 0.99086052 0.00039642741
-3.210391 1.4233189 -1.3712962 14 0.12044726 0.06124977 0.99082839 0.00042565787
-3.2061534 1.432839 -1.3712962 12 0.12034328 0.061639681 0.99081689 0.0004357509
-3.203335 1.4436692 -1.3720236 13 0.12012432 0.06248726 0.99079037 0.00045282449
-3.203191 1.4530317 -1.3734787 14 0.12010536 0.062703483 0.99077898 0.00046715955
-3.2036929 1.4654125 -1.375661 14 0.11982548 0.06346482 0.99076432 0.00048946083
-3.2044065 1.4772516 -1.3778434 13 0.11966869 0.063835315 0.99075955 0.00050164951
-3.1954587 1.4832821 -1.375661 13 0.11952426 0.064108439 0.99075931 0.00051244441
-3.1975324 1.4964725 -1.3785709 13 0.11926696 0.064683832 0.990753 0.0005304247
-3.1933413 1.5053953 -1.3785709 13 0.11908925 0.064876631 0.99076176 0.00054091349
-3.1924908 1.5159053 -1.3800259 14 0.11877754 0.065686777 0.99074578 0.00056521629
-3.1930206 1.5277835 -1.3822083 13 0.11864479 0.066260785 0.99072343 0.0005772459
-3.1918294 1.5388689 -1.3836633 14 0.11871386 0.066474877 0.99070078 0.00063406525
-3.1841679 1.5461489 -1.3822083 15 0.11866951 0.06691961 0.99067616 0.00063839636
-3.184587 1.5580453 -1.3843907 14 0.11825023 0.068031736 0.99065053 0.00066025287
-3.17995 1.5674875 -1.3843907 15 0.11826177 0.068596542 0.99061024 0.0006678832
-3.1775043 1.5766355 -1.3851182 14 0.11815903 0.069472969 0.99056143 0.00067576743
-3.1758683 1.5882761 -1.3865732 13 0.11802986 0.069921277 0.99054527 0.0006823492
-3.1730845 1.5979768 -1.3873006 14 0.11806219 0.070427656 0.99050558 0.00068966288
-3.1702712 1.6076742 -1.3880281 15 0.11790534 0.070774965 0.9904995 0.00069484219
-3.1618867 1.6159306 -1.3865732 18 0.11783297 0.071088217 0.99048567 0.0006969744
-3.1623316 1.6273116 -1.3887556 24 0.1177341 0.071780048 0.99044752 0.00071583339
-3.1627371 1.6387074 -1.390938 30 0.11757102 0.072202072 0.9904362 0.0007204875
-3.1575737 1.6486348 -1.390938 30 0.11735386 0.072443493 0.99044442 0.00072700949
-3.1595538 1.6609136 -1.3938479 30 0.11700388 0.073459156 0.99041098 0.0007416748
-3.1549029 1.6697305 -1.3938479 32 0.11694097 0.073707171 0.99039996 0.00074557133
-3.1548674 1.6817125 -1.3960304 30 0.11673354 0.074557014 0.9903608 0.00075824611
-3.1471703 1.688205 -1.3945755 24 0.11651246 0.074834086 0.99036598 0.00076344231
-3.146471 1.7012905 -1.3967578 24 0.11654972 0.075167067 0.99033636 0.00079140178
-3.1417077 1.7100706 -1.3967578 26 0.11647048 0.07559067 0.99031341 0.00079440128
-3.1388543 1.7191843 -1.3974854 28 0.11624114 0.076114498 0.99030024 0.00080221036
-3.1370025 1.7302889 -1.3989403 23 0.11612678 0.076570369 0.99027854 0.00081799598
-3.143255 1.7459215 -1.4040326 19 0.11599351 0.077604167 0.99021363 0.00083011831
-3.1351151 1.7528741 -1.4025778 15 0.11578812 0.077692114 0.99023074 0.00082876446
-3.1396406 1.7676526 -1.4069426 15 0.11574747 0.07835336 0.99018341 0.00084444095
-3.136003 1.7778785 -1.40767 15 0.11564939 0.078436792 0.9901883 0.00084410788
-3.1342621 1.7884758 -1.409125 15 0.11569218 0.0791547 0.99012619 0.00085540471
-3.1337879 1.800552 -1.4113075 15 0.11574286 0.079775169 0.99007046 0.00087269326
-3.1319728 1.8111618 -1.4127624 14 0.11572471 0.080117933 0.99004489 0.00087477616
-3.1285129 1.820838 -1.4134898 15 0.11571983 0.080603957 0.99000603 0.00087922544
-3.127599 1.8334835 -1.4156723 17 0.11562577 0.081264548 0.989963 0.00088674534
-3.1176529 1.8393705 -1.4134898 15 0.1154784 0.081345558 0.98997355 0.00088205148
-3.1221159 1.8537765 -1.4178548 16 0.11538395 0.082127057 0.98992002 0.00090010685
-3.1197996 1.8649437 -1.4193097 16 0.11523363 0.082457751 0.98991007 0.00091335503
-3.1161759 1.8746092 -1.4200373 16 0.11522173 0.082962632 0.98986924 0.00091893418
-3.1121941 1.8848114 -1.4207647 28 0.11529429 0.083598331 0.98980731 0.00092112378
-3.1065879 1.8940371 -1.4207647 32 0.11532045 0.084213585 0.98975217 0.000919991
-3.1012864 1.9027054 -1.4207647 34 0.11523353 0.084921524 0.98970175 0.00092013885
-3.0972128 1.912877 -1.4214921 47 0.11520143 0.085408583 0.9896636 0.00092016213
-3.0946877 1.9240258 -1.422947 59 0.11524122 0.085998021 0.98960793 0.00093389372
-3.0829852 1.9287081 -1.4200373 46 0.11522677 0.086426742 0.98957223 0.00092123926
-3.0901997 1.9452498 -1.4258569 59 0.11532626 0.086903162 0.98951894 0.00095972588
-3.0856476 1.9559454 -1.4265845 52 0.11517403 0.087495685 0.98948437 0.00096192746
-3.0691783 1.9575419 -1.4214921 49 0.11498892 0.087355644 0.98951834 0.0009362282
-3.0668356 1.9681176 -1.422947 46 0.11478303 0.087808855 0.98950219 0.00093496544
-3.0622025 1.9787533 -1.4236746 44 0.11477943 0.088298589 0.98945898 0.00094328489
-3.0526714 1.9831852 -1.4214921 44 0.11458117 0.088430136 0.98947024 0.00092985301
-3.0401895 1.9886864 -1.4185822 29 0.11458825 0.088587753 0.98945528 0.00092855497
-3.0261476 1.993104 -1.4149448 22 0.11442076 0.088678427 0.98946655 0.0009156309
-3.0010176 2.000674 -1.4083976 29 0.11362667 0.088373587 0.98958528 0.00090058794
-2.9933083 1.9819784 -1.4018502 29 0.11382485 0.087698497 0.98962259 0.00090308004
