# .PCD v0.7 - Point Cloud Data file format
VERSION 0.7
FIELDS x y z intensity normal_x normal_y normal_z curvature
SIZE 4 4 4 4 4 4 4 4
TYPE F F F F F F F F
COUNT 1 1 1 1 1 1 1 1
WIDTH 188
HEIGHT 1
VIEWPOINT 0 0 0 1 0 0 0
POINTS 188
DATA ascii
2.5857923 3.5800192 -2.2182226 12 0.097968206 0.063766487 0.99314457 0.0017873109
2.5863242 3.5597715 -2.2101433 14 0.097345643 0.063368611 0.99323124 0.0017936662
2.5783288 3.5280044 -2.1948824 21 0.096571416 0.06347277 0.99330014 0.0017529981
2.5819857 3.50981 -2.1885984 29 0.096236236 0.063553847 0.9933275 0.0017434559
2.5885887 3.4982755 -2.1859055 30 0.095608972 0.063943595 0.99336308 0.0016908067
2.6239569 3.5254419 -2.2074502 16 0.096157759 0.065068044 0.99323702 0.00167921
2.6419041 3.5276549 -2.2137341 13 0.095845111 0.06552016 0.9932375 0.0016787827
2.6405294 3.5040996 -2.2038593 11 0.095200717 0.066070437 0.99326313 0.0015965373
2.6487525 3.4934027 -2.2020638 12 0.094288796 0.066414855 0.99332702 0.0015117285
2.6639175 3.4930973 -2.2065525 15 0.094302304 0.066828907 0.99329799 0.0015148378
2.6780121 3.4913173 -2.2101433 16 0.094181761 0.067178309 0.99328595 0.0014943135
2.674768 3.4644969 -2.1984732 9 0.094068304 0.067055017 0.99330497 0.0014709759
2.6918759 3.4466865 -2.1966777 7 0.091838442 0.068912268 0.99338657 0.0012750591
2.6756644 3.4457204 -2.1912916 7 0.092824958 0.067123249 0.99341732 0.0014148649
2.7093186 3.4466426 -2.2020638 7 0.09131781 0.069939099 0.99336272 0.0011976672
2.7205503 3.4423416 -2.2038593 7 0.090684973 0.070474856 0.99338287 0.0011416685
2.7363129 3.4412489 -2.2083478 8 0.090563558 0.071356215 0.99333102 0.0010936919
2.7538099 3.4410086 -2.2137341 8 0.091221258 0.071672849 0.99324811 0.001087651
2.7756524 3.4509804 -2.2245066 7 0.092369542 0.071791716 0.99313331 0.0010843796
2.7921016 3.4491892 -2.2289948 9 0.092802651 0.071575999 0.99310857 0.0010948355
2.8000672 3.4381175 -2.2271996 16 0.092837431 0.072171442 0.99306214 0.0010857678
2.8169839 3.4404554 -2.2334836 19 0.093504883 0.072663218 0.99296373 0.0010930379
2.8317225 3.4376018 -2.2370744 18 0.093979441 0.072658196 0.99291927 0.001093454
2.8379481 3.4231832 -2.2334836 17 0.094288267 0.07232751 0.99291414 0.0010820621
2.8497341 3.4203596 -2.2361767 16 0.094704263 0.072317488 0.99287528 0.001086591
2.8662076 3.4182365 -2.240665 19 0.09504053 0.072273925 0.99284631 0.0010863107
2.8751843 3.4083517 -2.2397676 17 0.095410578 0.072210394 0.99281543 0.0010853297
2.8875647 3.4049022 -2.2424605 16 0.095781244 0.07186278 0.992805 0.0010794022
2.9005685 3.3985319 -2.2442558 13 0.09658508 0.071502417 0.99275309 0.0010719631
2.9077191 3.387707 -2.2424605 14 0.096733056 0.070511311 0.99280959 0.001066879
2.9171691 3.3795731 -2.2424605 15 0.097475365 0.07052581 0.99273592 0.0010679151
2.9283547 3.3722527 -2.2433581 16 0.097820446 0.070108928 0.99273151 0.0010680906
2.9383469 3.3635497 -2.2433581 12 0.098185159 0.06984318 0.99271423 0.0010634616
2.948909 3.356673 -2.2442558 12 0.098550849 0.06913761 0.9927274 0.0010649924
2.9635909 3.3532646 -2.2478468 13 0.098795719 0.069111563 0.99270487 0.0010645468
2.9735248 3.3444586 -2.2478468 14 0.099014513 0.069043219 0.99268782 0.0010374204
2.9834359 3.3356204 -2.2478468 16 0.099298187 0.068970166 0.99266464 0.0010234173
2.9951301 3.3299325 -2.2496421 13 0.099439554 0.068808265 0.99266171 0.0010175314
3.0025969 3.318383 -2.2478468 15 0.09984111 0.068487816 0.99264354 0.001006833
3.0112751 3.3105099 -2.2478468 13 0.099591471 0.068945684 0.99263692 0.00098625501
3.0252817 3.3049874 -2.25054 10 0.099576548 0.068846732 0.99264526 0.00096464599
3.033288 3.2952113 -2.2496421 5 0.09918797 0.069659598 0.9926275 0.0008938564
3.043051 3.2861977 -2.2496421 5 0.099471688 0.069930837 0.99258 0.00088067591
3.0552258 3.2797689 -2.2514377 5 0.10013968 0.06997738 0.99250954 0.00086791423
3.0643721 3.271225 -2.2514377 4 0.099888057 0.070541292 0.992495 0.00084106234
3.0710433 3.2600534 -2.2496421 4 0.10018688 0.070549674 0.9924643 0.00084058678
3.082593 3.2540605 -2.2514377 5 0.1006238 0.070529237 0.99242151 0.00083227339
3.0928016 3.2443595 -2.2514377 8 0.10072522 0.070987545 0.99237853 0.00078121753
3.1018488 3.2357104 -2.2514377 8 0.10096971 0.070830822 0.99236494 0.00077792333
3.1095181 3.223376 -2.2496421 9 0.10150244 0.070545375 0.99233091 0.00076789578
3.1173844 3.2157688 -2.2496421 9 0.10219694 0.071091905 0.99222058 0.00073528668
3.1312153 3.2097983 -2.2523353 8 0.10275762 0.070908643 0.99217582 0.0007197758
3.1389143 3.1997664 -2.2514377 8 0.10334803 0.070500366 0.99214357 0.00072094117
3.1509061 3.1929824 -2.253233 9 0.10391296 0.070395194 0.99209201 0.00070292159
3.1585524 3.1829014 -2.2523353 8 0.104439 0.070097573 0.99205786 0.00070074148
3.1710613 3.1754928 -2.2541306 8 0.10460716 0.070640571 0.99200165 0.0006704093
3.1799159 3.1666255 -2.2541306 8 0.10470597 0.070472993 0.99200308 0.00066680781
3.1925571 3.1615047 -2.2568238 7 0.1052118 0.070454344 0.99195093 0.00065706158
3.2011991 3.1502066 -2.2559259 8 0.10588494 0.070180327 0.99189872 0.0006434833
3.2114418 3.144875 -2.2577214 10 0.10601301 0.070656724 0.99185127 0.00054308801
3.2213051 3.1347709 -2.2577214 7 0.10688295 0.069984131 0.99180555 0.00051599543
3.226738 3.1214721 -2.2550282 11 0.10731379 0.070120215 0.99174947 0.00049949728
3.2374754 3.1154914 -2.2568238 7 0.1081405 0.069696829 0.99168944 0.00048423879
3.2441216 3.1034017 -2.2550282 4 0.10839727 0.069398053 0.99168241 0.00047524067
3.2494309 3.0900667 -2.2523353 4 0.10867809 0.069260798 0.99166131 0.00046487901
3.2515543 3.0748415 -2.2478468 6 0.10886512 0.068958506 0.99166179 0.00046370112
3.2684755 3.0725255 -2.253233 4 0.10920442 0.070327125 0.99152839 0.00028261854
3.2820294 3.0659029 -2.2559259 4 0.10927182 0.070421845 0.99151421 0.00027466597
3.2939732 3.0609486 -2.2586191 4 0.1091226 0.070319541 0.99153793 0.00024379189
3.2964761 3.0450988 -2.2541306 4 0.10949074 0.069646113 0.99154484 0.0002351658
3.3120797 3.0413475 -2.2586191 4 0.10985413 0.069328189 0.99152696 0.00022194271
3.3147516 3.0278454 -2.2550282 4 0.11021145 0.069022454 0.99150866 0.00021271556
3.3255703 3.0186186 -2.2559259 4 0.11021666 0.068825446 0.99152172 0.00020604652
3.3353145 3.0105164 -2.2568238 4 0.11026812 0.068377972 0.99154693 0.00019816514
3.3423779 2.9999976 -2.2559259 4 0.11047558 0.067799583 0.99156362 0.00018807741
3.3571208 2.9942417 -2.259517 4 0.11075788 0.067283086 0.99156737 0.00018091337
3.3654699 2.984854 -2.259517 4 0.11076021 0.066986531 0.99158716 0.0001781804
3.3761706 2.9754486 -2.2604146 4 0.1107319 0.066447303 0.99162662 0.00017437583
3.3844662 2.9660096 -2.2604146 4 0.11072569 0.065874897 0.99166542 0.00017497793
3.3859997 2.950675 -2.2559259 3 0.11057635 0.065061994 0.99173582 0.00017254366
3.4014945 2.9464653 -2.2604146 4 0.11057838 0.064742267 0.99175644 0.00016508205
3.4064887 2.9352174 -2.2586191 3 0.11055841 0.064282082 0.99178869 0.00015573841
3.4224806 2.9303138 -2.2631078 4 0.11042365 0.06429439 0.99180275 0.00015495985
3.4265668 2.9172697 -2.2604146 3 0.11053604 0.063752733 0.99182528 0.00014996246
3.4338429 2.905936 -2.259517 3 0.11033496 0.063600972 0.99185735 0.00013238085
3.4455419 2.9003885 -2.2622101 3 0.11027206 0.063505247 0.99187046 0.0001327334
3.4573774 2.8918433 -2.2640054 3 0.11024398 0.063069075 0.99190152 0.00012893014
3.4654405 2.8821762 -2.2640054 3 0.11025634 0.06304694 0.99190152 0.00012694937
3.473475 2.872488 -2.2640054 3 0.11025769 0.062373471 0.99194396 0.00012223571
3.481982 2.8621702 -2.2640054 3 0.11017162 0.061858479 0.99198574 0.00010846706
3.4895723 2.8500876 -2.2631078 3 0.11009964 0.06169533 0.99200398 0.00010688473
3.5025713 2.8454485 -2.2666986 3 0.11007927 0.061368745 0.99202639 0.00010164148
3.5054359 2.8305531 -2.2631078 3 0.11006446 0.060881194 0.9920581 9.3752984e-05
3.5189021 2.8252275 -2.2666986 3 0.11003595 0.060263392 0.99209899 8.900051e-05
3.5235682 2.8108156 -2.2640054 3 0.11002855 0.059923023 0.99212039 8.5575426e-05
3.5328035 2.8020763 -2.2649031 3 0.11010546 0.059639622 0.99212897 8.2937586e-05
3.5396991 2.7904742 -2.2640054 3 0.11020231 0.059183922 0.99214554 8.1690734e-05
3.5507765 2.7821651 -2.265801 3 0.11029771 0.058731936 0.99216181 7.6264805e-05
3.5552292 2.7706609 -2.2640054 3 0.11042507 0.058454569 0.99216402 7.1100199e-05
3.5681551 2.7627616 -2.2666986 3 0.11043648 0.058089141 0.99218422 6.8803623e-05
3.5767908 2.7545013 -2.267596 3 0.11042568 0.057914943 0.99219567 6.6244225e-05
3.5816319 2.7423286 -2.265801 3 0.11051341 0.057739202 0.99219608 6.919312e-05
3.5935507 2.7326007 -2.267596 3 0.11053669 0.057489272 0.992208 6.231523e-05
3.5978427 2.7210262 -2.265801 3 0.11056317 0.057371631 0.99221182 6.1932558e-05
3.6068552 2.7120433 -2.2666986 3 0.11046833 0.057265822 0.99222851 6.2512263e-05
3.6110611 2.6974902 -2.2640054 3 0.11057951 0.057348959 0.99221128 6.4615982e-05
3.6238487 2.692291 -2.267596 3 0.11054126 0.057499349 0.99220687 5.9665501e-05
3.630852 2.6798313 -2.2666986 3 0.11047439 0.057162058 0.99223381 5.7744342e-05
3.64311 2.6722183 -2.2693915 3 0.11036643 0.057176623 0.99224502 5.0146555e-05
3.6457615 2.6595123 -2.2666986 3 0.11026464 0.057139922 0.99225837 4.4441385e-05
3.6579781 2.6518292 -2.2693915 3 0.11015084 0.057142038 0.99227089 4.4116601e-05
3.6672795 2.6420095 -2.2702892 3 0.11014589 0.056938615 0.99228317 4.4858512e-05
3.6790018 2.6348805 -2.2729824 3 0.11019268 0.056698665 0.99229169 4.3613119e-05
3.685807 2.6222708 -2.2720847 3 0.11006492 0.0565826 0.99231249 4.2605938e-05
3.6912003 2.6115806 -2.2711871 3 0.11006032 0.056453366 0.99232042 4.1692892e-05
3.6989322 2.6006181 -2.2711871 3 0.11002484 0.056306418 0.99233264 4.3488082e-05
3.7037015 2.5875852 -2.2693915 3 0.11006215 0.056198854 0.99233466 4.6837824e-05
3.7138495 2.5792701 -2.2711871 3 0.11002906 0.056057263 0.99234629 4.2753523e-05
3.7189913 2.5655611 -2.2693915 3 0.11006103 0.055918954 0.99235058 4.4372686e-05
3.7217202 2.5521324 -2.2666986 3 0.10997587 0.055759363 0.99236894 4.6029898e-05
3.7328186 2.5454013 -2.2693915 3 0.10996679 0.055652101 0.99237597 4.4139004e-05
3.7447927 2.5373228 -2.2720847 3 0.10999385 0.055472344 0.99238306 4.6165311e-05
3.7468154 2.5215533 -2.2684939 3 0.10998149 0.055214252 0.99239886 4.7346886e-05
3.7563739 2.5137241 -2.2702892 3 0.11002178 0.055114988 0.99239987 4.8601414e-05
3.766793 2.5045455 -2.2720847 3 0.11006176 0.05496699 0.99240363 5.1910021e-05
3.7786796 2.496316 -2.2747779 3 0.11007855 0.054846469 0.99240845 5.3114833e-05
3.784143 2.4847724 -2.2738802 3 0.11006194 0.054682959 0.99241936 5.1391762e-05
3.7874386 2.4699435 -2.2711871 3 0.11006873 0.054499239 0.99242866 5.3574659e-05
3.7938914 2.4600203 -2.2711871 3 0.11004022 0.05431607 0.99244189 5.6685472e-05
3.8037515 2.4513512 -2.2729824 3 0.11000749 0.05418266 0.99245286 5.8894966e-05
3.8069189 2.4364979 -2.2702892 3 0.11005871 0.053960957 0.99245918 6.1085586e-05
3.8137064 2.4258602 -2.2702892 3 0.11010348 0.053821247 0.9924618 6.2791354e-05
3.8249986 2.4180646 -2.2729824 3 0.11011285 0.053649966 0.99247003 6.2494393e-05
3.8321571 2.4067037 -2.2729824 3 0.11012301 0.053487297 0.99247772 6.6248263e-05
3.8434107 2.3988323 -2.2756755 2 0.11012648 0.053347141 0.99248487 6.6234534e-05
3.8505106 2.387419 -2.2756755 3 0.11011613 0.053136855 0.99249727 6.6745371e-05
3.8530133 2.3731709 -2.2729824 3 0.11016217 0.052917115 0.99250394 6.4165215e-05
3.8604493 2.3610554 -2.2729824 2 0.11016437 0.05274193 0.99251294 6.7274355e-05
3.8681443 2.3518698 -2.2738802 2 0.11015255 0.052597787 0.992522 6.8261506e-05
3.8812253 2.3440771 -2.2774711 2 0.1101921 0.052454341 0.99252516 6.8772577e-05
3.8846905 2.3313909 -2.2756755 2 0.1102079 0.052202608 0.99253666 7.3541589e-05
3.8988619 2.3251095 -2.280164 2 0.11017885 0.052024871 0.99254918 7.0100563e-05
3.9015331 2.3101184 -2.2774711 2 0.11008991 0.051725339 0.99257475 7.3206502e-05
3.9068289 2.2976267 -2.2765732 2 0.11003787 0.051542759 0.99259013 6.8087254e-05
3.9178586 2.2894135 -2.2792664 2 0.11008357 0.051320158 0.99259651 6.9329035e-05
3.9226916 2.2775655 -2.2783687 2 0.11007151 0.051138978 0.99260718 6.6513065e-05
3.9356246 2.2694883 -2.2819593 2 0.11011145 0.050872799 0.99261653 6.8710258e-05
3.9497015 2.2629304 -2.286448 2 0.11020301 0.050659575 0.99261725 6.649943e-05
3.9428089 2.2425592 -2.2783687 2 0.11013486 0.05032159 0.99264199 6.2092789e-05
3.9576106 2.238198 -2.2837548 2 0.11024971 0.050163034 0.99263716 6.713633e-05
3.9599481 2.2231278 -2.2810616 1 0.11022301 0.04966278 0.99266541 7.264383e-05
3.9692631 2.2138009 -2.2828572 1 0.11021918 0.04928074 0.99268484 7.4446623e-05
3.9754283 2.2027106 -2.2828572 1 0.11025758 0.048921973 0.99269831 7.4854062e-05
3.9803808 2.1900425 -2.2819593 1 0.11023079 0.048662707 0.99271399 7.3094838e-05
3.9868617 2.1782217 -2.2819593 1 0.11023072 0.048478577 0.99272305 7.3644173e-05
3.994499 2.1679351 -2.2828572 1 0.11037191 0.047873806 0.99273664 7.6113778e-05
3.9899008 2.1501374 -2.2765732 1 0.1103297 0.047572508 0.99275595 7.7674886e-05
4.0072947 2.1441908 -2.2828572 1 0.11033195 0.047513708 0.99275839 8.0845552e-05
4.0104809 2.1306171 -2.2810616 1 0.11027174 0.047333822 0.99277377 7.9438025e-05
4.022738 2.1227446 -2.2846525 1 0.11018144 0.047163162 0.99279189 7.6658995e-05
4.0242696 2.10831 -2.2819593 1 0.11014717 0.047016237 0.99280262 7.4867734e-05
4.0281901 2.0969429 -2.2810616 1 0.11010192 0.046851393 0.99281549 7.6951634e-05
4.0442848 2.0892 -2.286448 1 0.11015614 0.046829801 0.99281043 7.204272e-05
4.0485134 2.0770807 -2.2855501 1 0.10998394 0.046766225 0.99283248 6.7742614e-05
4.0582037 2.0659742 -2.2873456 1 0.10992021 0.046416547 0.99285603 7.1457544e-05
4.0620036 2.0545368 -2.286448 1 0.10981041 0.046216723 0.99287742 6.6278415e-05
4.0712767 2.0440781 -2.2882433 1 0.10991809 0.046172932 0.99286765 6.2981613e-05
4.0769687 2.0327017 -2.2882433 1 0.10985069 0.046012152 0.99288255 5.8770474e-05
4.0794263 2.0197217 -2.286448 1 0.10980058 0.045824569 0.99289674 5.9582566e-05
4.0921674 2.0100484 -2.2900388 1 0.10996597 0.045910954 0.99287444 6.0836603e-05
4.0945516 1.9970468 -2.2882433 1 0.11012489 0.045737546 0.99286479 5.9673272e-05
4.0956321 1.9825538 -2.2855501 1 0.10996057 0.045445208 0.99289644 6.0488739e-05
4.1095524 1.9742616 -2.2900388 1 0.11018045 0.045456599 0.99287158 5.7922734e-05
4.1218443 1.9651369 -2.2936296 1 0.11019215 0.045395069 0.99287307 5.8906087e-05
4.1330938 1.9581208 -2.2972202 1 0.11016463 0.045457456 0.99287325 5.9157614e-05
4.126286 1.9390446 -2.2900388 1 0.11000555 0.044939633 0.9929145 5.6008415e-05
4.1333036 1.9282706 -2.2909365 1 0.10994876 0.044870567 0.99292386 5.9084105e-05
4.144207 1.9175282 -2.2936296 1 0.10983403 0.044828568 0.99293858 5.4995104e-05
4.1641631 1.9126604 -2.3017089 1 0.10988973 0.044901934 0.9929291 5.6441102e-05
4.1532254 1.8936108 -2.292732 1 0.10973596 0.044425335 0.99296749 6.2585132e-05
4.1552415 1.8805304 -2.2909365 1 0.10960141 0.044103619 0.99299669 6.059734e-05
4.1653676 1.8711171 -2.2936296 1 0.10960196 0.043986138 0.99300188 6.40734e-05
4.1940808 1.8682038 -2.3061974 1 0.10966399 0.044106506 0.99298966 6.4406624e-05
4.1813016 1.848534 -2.2963226 1 0.10949831 0.04359274 0.99303061 5.9946473e-05
4.1749907 1.8318247 -2.2900388 1 0.10936113 0.043256395 0.99306041 6.650875e-05
4.1807246 1.8187003 -2.2900388 1 0.1092618 0.043037303 0.99308079 6.6994042e-05
4.2182856 1.8219224 -2.3079927 1 0.1095342 0.043270845 0.99304068 8.0668942e-05
4.2466726 1.8192501 -2.3205605 1 0.10968923 0.042937297 0.99303806 8.418769e-05
