# .PCD v0.7 - Point Cloud Data file format
VERSION 0.7
FIELDS x y z intensity normal_x normal_y normal_z curvature
SIZE 4 4 4 4 4 4 4 4
TYPE F F F F F F F F
COUNT 1 1 1 1 1 1 1 1
WIDTH 471
HEIGHT 1
VIEWPOINT 0 0 0 1 0 0 0
POINTS 471
DATA ascii
-2.7278571 -3.6543748 -1.3076237 24 0.021816347 0.020535773 0.99955106 0.061918296
-2.7218909 -3.6252191 -1.2999058 12 0.02515691 0.032734357 0.99914736 0.065445073
-2.7233644 -3.6048548 -1.2954956 11 0.023968121 0.045786425 0.99866366 0.069858342
-2.7154336 -3.5722699 -1.2866752 19 0.02608343 0.057326432 0.99801469 0.07016021
-2.7253981 -3.5646737 -1.2866752 14 0.022486312 0.059656955 0.99796557 0.069782391
-2.7359629 -3.5565712 -1.2866752 19 0.022962905 0.06269177 0.99776876 0.068726078
-2.7500339 -3.5529988 -1.2883291 21 0.022642059 0.063489236 0.99772567 0.0651429
-2.7581458 -3.5442698 -1.2877779 19 0.021964015 0.066409007 0.99755067 0.064202778
-2.7941611 -3.5673714 -1.2993546 16 0.020309528 0.052840307 0.9983964 0.056717422
-2.8047328 -3.5590658 -1.2993546 19 0.016728209 0.057875305 0.99818361 0.056480616
-2.8194375 -3.557246 -1.3015597 29 0.013338456 0.062549293 0.99795276 0.055890594
-2.8096027 -3.5233119 -1.292188 37 0.018529257 0.071698889 0.99725419 0.05604364
-2.8495018 -3.5529463 -1.30597 47 0.011481714 0.056873448 0.99831539 0.050680064
-2.8594422 -3.5424807 -1.3054185 49 0.013580824 0.06068391 0.99806464 0.049460504
-2.8511333 -3.5145802 -1.2977008 42 0.014311189 0.071450353 0.99734157 0.051949438
-2.8767509 -3.5234773 -1.304316 49 0.015671913 0.062196001 0.9979409 0.04751201
-2.8975589 -3.5288019 -1.3092774 49 0.01374846 0.060663112 0.99806356 0.044800159
-2.9135232 -3.5281086 -1.3120339 49 0.010895791 0.060790911 0.99809104 0.044573754
-2.9233632 -3.5174601 -1.3114827 57 0.01236871 0.062733561 0.99795365 0.043349046
-2.9356406 -3.5122333 -1.3125851 65 0.0093606729 0.062328115 0.99801177 0.042927008
-2.9454374 -3.5040214 -1.3125851 70 0.011679501 0.062527142 0.99797493 0.041625936
-2.9552104 -3.4957829 -1.3125851 65 0.017092999 0.061475493 0.9979623 0.038194098
-2.9661794 -3.4864807 -1.3125851 65 0.021196676 0.057687674 0.99810964 0.035220496
-2.9708652 -3.4698439 -1.3098289 75 0.026834164 0.06369596 0.99760854 0.034403428
-2.9805877 -3.4640319 -1.3103801 70 0.029664949 0.062010527 0.99763453 0.032616884
-2.996491 -3.4604635 -1.3125851 75 0.031798612 0.059678011 0.99771112 0.030742198
-3.0055397 -3.4526076 -1.3125851 65 0.035740938 0.057205528 0.99772251 0.028918931
-3.010704 -3.4378891 -1.3103801 65 0.037428338 0.057693724 0.9976325 0.028136026
-3.0259743 -3.4347119 -1.3125851 46 0.045926724 0.047693022 0.99780566 0.02381211
-3.0329244 -3.420872 -1.3109313 65 0.049814411 0.049880166 0.99751216 0.022449415
-3.0437453 -3.4138238 -1.3114827 46 0.0521028 0.045573365 0.99760133 0.021324981
-3.0481312 -3.3995862 -1.3092774 31 0.05460652 0.046882518 0.99740678 0.020757055
-3.0556304 -3.3876715 -1.308175 31 0.059195459 0.046659756 0.99715537 0.019341415
-3.0657799 -3.3810849 -1.3087262 22 0.063394584 0.040954392 0.99714792 0.017159058
-3.0737951 -3.3685966 -1.3076237 19 0.067066662 0.039350327 0.99697226 0.015626809
-3.077276 -3.3523798 -1.3048673 14 0.070607729 0.041650906 0.99663424 0.014817309
-3.0821311 -3.3400731 -1.3032135 14 0.07279814 0.041269548 0.99649245 0.014297432
-3.0888314 -3.3286347 -1.302111 18 0.075810328 0.040321052 0.99630672 0.013399364
-3.0919783 -3.3099442 -1.2988033 24 0.077335514 0.04133486 0.99614787 0.013119756
-3.098 -3.2990351 -1.2977008 29 0.080859944 0.039144855 0.99595648 0.012261824
-3.1090944 -3.2912266 -1.298252 37 0.086825602 0.03312555 0.99567264 0.010508622
-3.1109004 -3.2736259 -1.2949444 37 0.089356594 0.033590525 0.99543309 0.010077468
-3.1168044 -3.2626894 -1.2938418 37 0.091923267 0.032446299 0.99523735 0.0096991314
-3.1278031 -3.2548132 -1.2943931 39 0.095791295 0.028655339 0.99498892 0.0086723398
-3.1334383 -3.2413716 -1.2927393 35 0.10044657 0.026372472 0.99459291 0.007906694
-3.1451583 -3.2353659 -1.2938418 28 0.10485597 0.022556594 0.99423152 0.0068217888
-3.1499288 -3.2199726 -1.2916367 14 0.10908288 0.020207878 0.99382716 0.0059597963
-3.1548636 -3.2070518 -1.2899829 14 0.11231232 0.018592905 0.99349898 0.0051311716
-3.1624556 -3.1968627 -1.2894317 14 0.1160645 0.016402863 0.99310625 0.0044261608
-3.1711259 -3.1855495 -1.2888803 13 0.11828513 0.015397492 0.99286032 0.0041003167
-3.1800094 -3.1766813 -1.2888803 13 0.12060777 0.013253733 0.99261177 0.0036300763
-3.1834128 -3.1623688 -1.2866752 13 0.12348515 0.011944573 0.99227452 0.003035051
-3.188678 -3.1488569 -1.2850214 13 0.12605506 0.01086002 0.9919638 0.002505257
-3.1952617 -3.1366887 -1.2839189 13 0.12792942 0.0096952319 0.99173588 0.0021718948
-3.2007115 -3.125627 -1.2828163 12 0.12933104 0.0082566794 0.99156708 0.0019643097
-3.2077568 -3.1128776 -1.2817137 12 0.13153218 0.0067807436 0.99128866 0.0016228233
-3.2145116 -3.1031344 -1.2811625 14 0.13278608 0.0057699461 0.99112791 0.0014641979
-3.2242448 -3.0930202 -1.2811625 14 0.13400638 0.0051247007 0.99096721 0.0013112143
-3.2264512 -3.0768058 -1.278406 13 0.13378653 0.0056422767 0.9909941 0.001285312
-3.2330999 -3.0670261 -1.2778548 12 0.13490716 0.0046775108 0.99084723 0.0011402471
-3.2427204 -3.0568531 -1.2778548 12 0.1359054 0.0036940265 0.99071485 0.0010135
-3.2422974 -3.0404632 -1.2745472 12 0.13540459 0.0037591625 0.99078327 0.00096201088
-3.2498975 -3.0295193 -1.2739959 12 0.13622659 0.0030646739 0.99067301 0.0008367179
-3.257462 -3.0185568 -1.2734447 13 0.13705426 0.0019148458 0.99056172 0.0007218665
-3.263576 -3.0062728 -1.2723421 15 0.13733897 0.0019300173 0.99052221 0.00069920166
-3.2691231 -2.99455 -1.2712395 17 0.13771354 0.0017248067 0.99047059 0.0006480501
-3.2794147 -2.9861324 -1.2717909 14 0.13775226 0.0024021147 0.99046379 0.00062914571
-3.2806151 -2.97051 -1.2690344 11 0.13749577 0.0025797493 0.99049902 0.00061127223
-3.2860405 -2.9587646 -1.2679319 12 0.13737769 0.0025360242 0.99051547 0.00060551817
-3.2991028 -2.952848 -1.2695858 13 0.13710295 0.0028756408 0.99055266 0.00060828711
-3.2997434 -2.9348037 -1.2662781 11 0.13697989 0.0022443763 0.99057126 0.00059046014
-3.3045356 -2.9236069 -1.2651755 12 0.1369302 0.0020481811 0.99057859 0.0005922126
-3.3117521 -2.9125192 -1.2646242 11 0.13688098 0.0019264581 0.99058568 0.00058842218
-3.3184257 -2.9019942 -1.264073 12 0.13663475 0.0016615577 0.99062008 0.00057032955
-3.3275259 -2.8915555 -1.264073 12 0.13648869 0.001625056 0.99064028 0.00056384894
-3.3341327 -2.8809943 -1.2635217 11 0.13601364 0.00011728055 0.99070698 0.00048661116
-3.3382912 -2.8673313 -1.2618679 11 0.1359165 -1.1042889e-06 0.99072033 0.00048144587
-3.3448236 -2.8567488 -1.2613167 11 0.13588834 -0.00021809948 0.99072409 0.00048108961
-3.3483922 -2.8436637 -1.2596627 12 0.13598327 -0.00066485821 0.99071091 0.00047240715
-3.3543699 -2.830651 -1.2585602 11 0.13589202 -0.0008222399 0.99072337 0.00046517863
-3.3588238 -2.8193884 -1.2574577 11 0.13596965 -0.0011174198 0.99071234 0.0004573348
-3.3647125 -2.8063586 -1.256355 11 0.13604708 -0.001491831 0.99070132 0.00044700832
-3.3695765 -2.7944968 -1.2552526 11 0.13611378 -0.0017812543 0.99069154 0.00043647047
-3.3763692 -2.7832642 -1.2547013 10 0.13620256 -0.0020789474 0.99067879 0.00042639801
-3.3821571 -2.7731969 -1.25415 8 0.13635552 -0.0029726455 0.99065554 0.00040010232
-3.3878722 -2.7601283 -1.2530475 9 0.13639802 -0.0034597013 0.99064809 0.00038947185
-3.3910854 -2.7470274 -1.2513937 9 0.13649581 -0.0037371065 0.99063361 0.00038592707
-3.3992212 -2.7369537 -1.2513937 9 0.1363167 -0.0039839875 0.99065727 0.00037930781
-3.4048741 -2.7268426 -1.2508423 8 0.13622881 -0.0045692888 0.99066693 0.00036277113
-3.4159575 -2.7191236 -1.251945 10 0.13593571 -0.0061363354 0.9906987 0.00031420399
-3.4194877 -2.7053976 -1.2502911 10 0.13597225 -0.0076039173 0.99068344 0.00025919653
-3.4274995 -2.6952398 -1.2502911 10 0.13608851 -0.0097667761 0.99064851 0.00016350397
-3.4304686 -2.6821058 -1.2486373 10 0.13634835 -0.012198495 0.99058586 7.282383e-05
-3.4328055 -2.6665969 -1.2464322 10 0.13648783 -0.013494411 0.99054986 2.7012395e-05
-3.4402382 -2.657001 -1.2464322 10 0.1365173 -0.013950453 0.99053943 2.2705768e-05
-3.4476447 -2.6473835 -1.2464322 8 0.136557 -0.01418493 0.99053067 2.0657042e-05
-3.4493709 -2.6324775 -1.2442272 10 0.13663146 -0.014295945 0.99051881 1.7342672e-05
-3.4567089 -2.6228347 -1.2442272 10 0.13662684 -0.014708615 0.99051338 1.1368742e-05
-3.461406 -2.6102517 -1.2431246 8 0.1366265 -0.014815507 0.99051183 8.7953576e-06
-3.4660585 -2.5976636 -1.2420219 8 0.13666308 -0.014915536 0.99050528 6.3072248e-06
-3.476382 -2.5902724 -1.2431246 8 0.13664958 -0.014967029 0.99050641 5.2345254e-06
-3.4769731 -2.5765836 -1.2409195 8 0.13669407 -0.01501537 0.99049956 3.965969e-06
-3.4835019 -2.5645072 -1.2403681 8 0.13672182 -0.015088162 0.99049455 5.0557187e-06
-3.4859965 -2.5513635 -1.2387145 8 0.13677041 -0.015156 0.9904868 4.2176257e-06
-3.4919963 -2.5398777 -1.238163 8 0.13674927 -0.015202428 0.99048907 5.7070097e-06
-3.4948423 -2.5261278 -1.2365092 9 0.13677235 -0.015244942 0.99048525 5.9766426e-06
-3.5034442 -2.5174801 -1.2370605 8 0.1367581 -0.015269451 0.9904868 5.7193606e-06
-3.5042024 -2.503217 -1.2348554 8 0.1367702 -0.015329059 0.99048412 1.0932892e-05
-3.510047 -2.4916961 -1.2343042 8 0.13676891 -0.015358118 0.99048394 9.3876934e-06
-3.5142827 -2.479054 -1.2332015 8 0.13679105 -0.015394546 0.9904803 1.0075102e-05
-3.5153258 -2.4642017 -1.2309965 9 0.13680501 -0.015439743 0.99047762 1.0343234e-05
-3.5253479 -2.4565744 -1.2320991 8 0.13678564 -0.015473315 0.99047977 7.5743164e-06
-3.5274529 -2.4434357 -1.2304453 8 0.13680078 -0.01551939 0.99047703 1.2382743e-05
-3.5335283 -2.4312522 -1.229894 9 0.1367825 -0.015548699 0.99047905 1.5515476e-05
-3.5387161 -2.4202902 -1.2293426 9 0.13675867 -0.015529118 0.99048269 1.4744347e-05
-3.5422819 -2.408237 -1.2282401 8 0.13674748 -0.015559277 0.9904837 1.4877986e-05
-3.5450499 -2.3938687 -1.2265863 9 0.13674097 -0.01557825 0.99048436 1.2055144e-05
-3.5544972 -2.3867226 -1.2276888 9 0.1367605 -0.015610319 0.9904812 1.2358587e-05
-3.5583642 -2.3740323 -1.2265863 8 0.13672744 -0.015672341 0.99048471 1.0336236e-05
-3.560998 -2.3596551 -1.2249324 10 0.13673633 -0.015708618 0.99048293 9.3393646e-06
-3.5603321 -2.3467152 -1.2227274 10 0.13678396 -0.015722841 0.99047607 1.1936885e-05
-3.5709038 -2.3376243 -1.2238299 11 0.13675067 -0.01579831 0.99047959 1.3389495e-05
-3.5762119 -2.3259711 -1.2232786 8 0.13674951 -0.015826894 0.99047923 1.186811e-05
-3.5806751 -2.3155568 -1.2227274 10 0.13673104 -0.015862484 0.9904812 1.3098631e-05
-3.5875299 -2.3049223 -1.2227274 8 0.13677168 -0.015883308 0.99047524 1.2393292e-05
-3.5898905 -2.2905385 -1.2210736 8 0.13676305 -0.015902927 0.99047613 1.3151347e-05
-3.5974991 -2.2821612 -1.2216249 8 0.13674755 -0.01593316 0.9904778 1.2471526e-05
-3.5912426 -2.2632778 -1.2172147 7 0.13677159 -0.015913729 0.9904747 1.0621156e-05
-3.5999644 -2.2530038 -1.2177659 9 0.13674915 -0.015906805 0.99047798 1.419021e-05
-3.607091 -2.2452173 -1.2183172 8 0.13674541 -0.015900869 0.99047858 1.3464657e-05
-3.609221 -2.2308407 -1.2166634 8 0.13674226 -0.015901621 0.99047893 1.7968097e-05
-3.6125472 -2.218111 -1.2155608 10 0.13674714 -0.015889317 0.99047858 1.8261158e-05
-3.6199827 -2.2096481 -1.216112 8 0.1367837 -0.015901316 0.99047333 1.9414747e-05
-3.6203306 -2.1942773 -1.213907 8 0.13676812 -0.015903613 0.99047542 2.4574369e-05
-3.6235304 -2.1815434 -1.2128044 7 0.13676943 -0.015846469 0.99047613 2.7383989e-05
-3.6242807 -2.1690874 -1.2111505 7 0.13677944 -0.015822006 0.99047512 2.4399995e-05
-3.6319764 -2.1599407 -1.211702 7 0.13678011 -0.015803272 0.99047536 2.3749333e-05
-3.635433 -2.1465645 -1.2105993 8 0.13678615 -0.01579882 0.99047464 2.5834199e-05
-3.6364384 -2.1334863 -1.2089455 7 0.13678285 -0.015780021 0.99047536 2.3910205e-05
-3.6444135 -2.1236548 -1.2094967 8 0.13679636 -0.015783232 0.99047345 2.1584598e-05
-3.6473711 -2.1109061 -1.2083943 7 0.13683331 -0.015746158 0.99046892 1.8573881e-05
-3.6495514 -2.0994337 -1.2072916 7 0.13683471 -0.015706407 0.9904694 1.7149385e-05
-3.6540956 -2.0876422 -1.2067404 8 0.13685843 -0.015690101 0.99046636 1.7239237e-05
-3.6552572 -2.0739446 -1.2050866 7 0.13684262 -0.015605965 0.99046993 1.6542839e-05
-3.6610346 -2.0637288 -1.2050866 8 0.13686198 -0.015581797 0.99046761 1.3697238e-05
-3.6607888 -2.0484626 -1.2028816 8 0.13686353 -0.015469632 0.9904691 1.128182e-05
-3.6698556 -2.0400996 -1.203984 8 0.13686216 -0.015418177 0.99047005 1.0277718e-05
-3.667124 -2.0251966 -1.2012277 8 0.13685262 -0.015339428 0.99047261 9.1365255e-06
-3.6751537 -2.0145905 -1.2017789 8 0.1368179 -0.015278389 0.9904784 7.8024268e-06
-3.6787274 -2.0040421 -1.2012277 8 0.13680665 -0.015266399 0.99048007 5.1532224e-06
-3.6778932 -1.9894593 -1.1990227 7 0.13683465 -0.015196194 0.99047732 3.7519858e-06
-3.6871669 -1.9803569 -1.2001251 8 0.13681537 -0.015146622 0.99048078 6.9995126e-06
-3.6875944 -1.9673378 -1.1984712 7 0.13682826 -0.015072353 0.99048007 2.5123652e-06
-3.6930742 -1.9570322 -1.1984712 8 0.13683096 -0.015014207 0.99048066 5.1471866e-06
-3.6923976 -1.9418417 -1.1962662 8 0.1368621 -0.01492791 0.99047756 3.2291791e-06
-3.7008767 -1.933949 -1.1973687 9 0.1368338 -0.014886875 0.99048209 1.2693604e-06
-3.6997726 -1.9194182 -1.1951637 7 0.13683504 -0.014808536 0.99048322 1.6853099e-06
-3.705451 -1.9084331 -1.1951637 8 0.13683088 -0.014738983 0.99048477 0
-3.7039194 -1.8945756 -1.1929585 7 0.13684131 -0.014624999 0.99048501 2.8451459e-06
-3.7112389 -1.8844478 -1.1935098 8 0.13681687 -0.014582702 0.99048907 2.0666512e-06
-3.7150967 -1.8725624 -1.1929585 7 0.13682383 -0.014471154 0.99048966 2.5209251e-06
-3.7185924 -1.8613199 -1.1924073 8 0.1367898 -0.014357932 0.99049598 4.3584e-06
-3.7172117 -1.8468574 -1.1902022 7 0.13677198 -0.014236071 0.99050027 5.6267913e-06
-3.7226751 -1.83582 -1.1902022 8 0.1367805 -0.014141425 0.99050051 5.79068e-06
-3.730921 -1.8277597 -1.1913047 9 0.13678497 -0.014072456 0.99050075 3.7949997e-06
-3.732553 -1.8156519 -1.1902022 9 0.13677578 -0.013915964 0.99050421 8.5701595e-06
-3.743433 -1.8064241 -1.191856 8 0.13673557 -0.01382113 0.99051118 7.9777346e-06
-3.7397938 -1.7918096 -1.1890996 9 0.13673766 -0.01366245 0.99051315 7.2884764e-06
-3.7381489 -1.7774031 -1.1868945 7 0.13672701 -0.013494946 0.99051684 8.1771568e-06
-3.7486219 -1.7687659 -1.1885483 8 0.13668732 -0.013353929 0.99052417 8.2659972e-06
-3.7483237 -1.7558441 -1.1868945 7 0.13664795 -0.013193565 0.9905318 9.6598169e-06
-3.7497258 -1.7437483 -1.185792 7 0.13663843 -0.013026576 0.99053544 9.3523631e-06
-3.7531376 -1.7318093 -1.1852407 7 0.13663961 -0.012845022 0.99053758 1.1255495e-05
-3.7600076 -1.7214659 -1.185792 7 0.13659303 -0.012717906 0.99054563 1.093541e-05
-3.7650983 -1.7103028 -1.185792 7 0.13656919 -0.012528211 0.99055123 1.2400992e-05
-3.766355 -1.6982015 -1.1846894 8 0.1365557 -0.012348226 0.99055541 1.5964155e-05
-3.7728372 -1.6884621 -1.1852407 8 0.1365114 -0.012210236 0.99056321 1.7227148e-05
-3.7722669 -1.6755784 -1.1835868 7 0.13652168 -0.011942462 0.99056506 2.0881887e-05
-3.7757523 -1.6629449 -1.1830356 8 0.13650063 -0.011725791 0.99057055 2.0960029e-05
-3.7821431 -1.6531644 -1.1835868 8 0.13645197 -0.011557911 0.99057925 2.3062983e-05
-3.7802622 -1.6382164 -1.1813818 7 0.13642943 -0.011205344 0.9905864 2.5344736e-05
-3.7845383 -1.6283137 -1.1813818 8 0.13637692 -0.011002519 0.99059588 2.662587e-05
-3.7840478 -1.6148136 -1.1797279 7 0.1363295 -0.010729525 0.99060547 2.5890078e-05
-3.7855608 -1.6014203 -1.1786253 7 0.1362865 -0.010421637 0.99061459 2.6591351e-05
-3.7894623 -1.5921662 -1.1786253 7 0.13624714 -0.010178794 0.99062258 2.9316072e-05
-3.794446 -1.5802523 -1.1786253 8 0.13618651 -0.0099164601 0.99063361 2.9244256e-05
-3.8026717 -1.5704554 -1.1797279 8 0.13610169 -0.0096303094 0.99064803 2.9590869e-05
-3.8032124 -1.5590359 -1.1786253 8 0.13607255 -0.0092950677 0.9906553 2.9818224e-05
-3.7989163 -1.544126 -1.175869 7 0.13594481 -0.0089897402 0.99067563 2.7022665e-05
-3.8037491 -1.5321826 -1.175869 7 0.13589415 -0.0086366227 0.99068576 2.785699e-05
-3.8059621 -1.5215061 -1.1753178 8 0.1357922 -0.0083411848 0.99070227 2.9014833e-05
-3.8122466 -1.5109161 -1.175869 8 0.13583612 -0.0080764052 0.9906984 3.1004078e-05
-3.814924 -1.498894 -1.1753178 8 0.13575649 -0.0076089399 0.99071306 3.2475455e-05
-3.8152521 -1.4875052 -1.1742152 8 0.13549942 -0.0073587978 0.99075007 3.2703185e-05
-3.819649 -1.4761785 -1.1742152 7 0.13543843 -0.00699963 0.99076104 3.4311226e-05
-3.818881 -1.462109 -1.1725614 7 0.13517681 -0.0066316412 0.99079931 3.5589252e-05
-3.822696 -1.4521058 -1.1725614 8 0.13518265 -0.006327217 0.9908005 3.1337382e-05
-3.8267362 -1.4414248 -1.1725614 7 0.13506576 -0.0059600598 0.99081868 3.4605051e-05
-3.8224888 -1.4253685 -1.169805 7 0.13486759 -0.0055414997 0.99084812 3.7944057e-05
-3.829813 -1.4166909 -1.1709075 7 0.1347622 -0.0052038636 0.99086434 3.9434188e-05
-3.8337543 -1.4059902 -1.1709075 7 0.13477033 -0.0048047048 0.99086523 3.9392024e-05
-3.8399589 -1.3945961 -1.1714587 8 0.13471439 -0.0043666596 0.99087489 4.1846684e-05
-3.8345537 -1.3812805 -1.1687025 7 0.13448784 -0.0039994624 0.99090719 4.4071134e-05
-3.8352523 -1.3679351 -1.1675999 7 0.13439354 -0.003487906 0.99092185 4.5235047e-05
-3.844732 -1.3584718 -1.1692537 8 0.13446389 -0.0030826619 0.99091375 4.6257075e-05
-3.8464615 -1.3477647 -1.1687025 7 0.13435239 -0.0026338899 0.99093014 5.0330196e-05
-3.8449943 -1.3344557 -1.1670486 7 0.13419564 -0.0020794584 0.99095267 5.2399075e-05
-3.850755 -1.3236663 -1.1675999 7 0.13412069 -0.0015526018 0.99096376 5.5880795e-05
-3.8598959 -1.3147671 -1.1692537 8 0.13407929 -0.0011944475 0.99096984 5.6581175e-05
-3.8567202 -1.3001785 -1.1670486 8 0.13393779 -0.00060951349 0.99098957 5.8957998e-05
-3.8566887 -1.2881851 -1.165946 7 0.13382249 -0.0002624339 0.9910053 5.8848127e-05
-3.856621 -1.276202 -1.1648436 7 0.13370444 0.00032751315 0.99102122 5.8944475e-05
-3.8601694 -1.2654281 -1.1648436 7 0.13362296 0.00070450804 0.991032 6.0648494e-05
-3.8657358 -1.2545632 -1.1653948 8 0.13354155 0.0012059065 0.99104249 6.2512125e-05
-3.8637331 -1.2419978 -1.163741 7 0.13338657 0.0017096163 0.99106264 6.529544e-05
-3.8676162 -1.2298524 -1.163741 7 0.13328689 0.0022975064 0.9910748 6.7586392e-05
-3.8708224 -1.2197233 -1.163741 7 0.13323092 0.0027487495 0.99108118 6.698184e-05
-3.8762598 -1.2088052 -1.1642922 8 0.13314375 0.0032552958 0.99109143 6.7523186e-05
-3.8761554 -1.1961658 -1.1631898 7 0.13300876 0.0037666645 0.9911077 6.9295806e-05
-3.8760099 -1.1835365 -1.1620871 7 0.13296002 0.0043213204 0.99111199 7.0481656e-05
-3.8829806 -1.1738205 -1.1631898 7 0.13288836 0.004789378 0.99111938 7.013882e-05
-3.8846042 -1.1617441 -1.1626385 7 0.13279228 0.0053591062 0.99112946 7.4594318e-05
-3.8876326 -1.151569 -1.1626385 7 0.13272622 0.0059051993 0.99113518 7.2640716e-05
-3.8893857 -1.1388105 -1.1620871 8 0.13253687 0.0064639281 0.991157 7.6104938e-05
-3.8909011 -1.1267304 -1.1615359 7 0.13241252 0.0070798714 0.99116945 8.07045e-05
-3.8886821 -1.1135939 -1.1598821 7 0.13236892 0.0076787691 0.99117076 8.2961138e-05
-3.9008327 -1.1060305 -1.1626385 8 0.13223557 0.0080533987 0.99118561 8.1295933e-05
-3.8966918 -1.0923764 -1.1604333 7 0.13214545 0.008716723 0.99119204 8.5192514e-05
-3.8978751 -1.0809767 -1.1598821 7 0.13200426 0.009207001 0.99120641 8.9860579e-05
-3.9047737 -1.070423 -1.1609846 8 0.13194092 0.0097615151 0.99120951 8.9349138e-05
-3.9079323 -1.0588332 -1.1609846 7 0.13181539 0.01041837 0.99121958 9.1498543e-05
-3.9054852 -1.0457416 -1.1593308 7 0.13164037 0.010846186 0.99123818 9.4533723e-05
-3.912107 -1.0358151 -1.1604333 8 0.13149565 0.011386788 0.99125135 9.6613046e-05
-3.9058635 -1.0217701 -1.1576769 7 0.13134441 0.01204944 0.99126357 0.00010652533
-3.9141088 -1.0129868 -1.1593308 7 0.13120857 0.012458739 0.9912765 0.00010724113
-3.9154093 -1.0002092 -1.1587795 7 0.13107239 0.013161433 0.99128544 0.0001125526
-3.9181871 -0.98927116 -1.1587795 7 0.13098465 0.013739705 0.9912892 0.0001164112
-3.9172034 -0.97739547 -1.1576769 7 0.13085645 0.01422203 0.99129927 0.00012054302
-3.9258552 -0.96646297 -1.1593308 7 0.1307326 0.014830086 0.99130672 0.0001211198
-3.919198 -0.95322406 -1.1565744 7 0.13048242 0.015368207 0.99133146 0.00012715594
-3.9276178 -0.94293767 -1.1582283 8 0.13038708 0.01609084 0.99133259 0.00012397561
-3.928365 -0.93152213 -1.1576769 8 0.13027295 0.016721502 0.99133718 0.00012668691
-3.9345338 -0.92211252 -1.1587795 8 0.13016428 0.017213361 0.99134302 0.00012683801
-3.9336646 -0.90888244 -1.1576769 8 0.13001551 0.017954974 0.9913494 0.00013009446
-3.9419677 -0.89848757 -1.1593308 8 0.12989661 0.018479895 0.9913553 0.00013090395
-3.9368043 -0.8864758 -1.1571257 8 0.12975232 0.019067844 0.99136305 0.00013540548
-3.93957 -0.87410343 -1.1571257 7 0.12960045 0.019707361 0.99137044 0.00013906149
-3.9362109 -0.86255175 -1.1554719 7 0.12948874 0.020310242 0.99137288 0.00013741957
-3.9387527 -0.85086876 -1.1554719 7 0.12934496 0.020946009 0.99137843 0.00013859506
-3.9469011 -0.84038037 -1.1571257 7 0.12926149 0.021659762 0.99137396 0.0001417263
-3.9437323 -0.82748133 -1.1554719 8 0.12915061 0.022107916 0.99137855 0.00014034437
-3.9497929 -0.81724387 -1.1565744 7 0.1289383 0.022881262 0.99138862 0.00014063291
-3.9521999 -0.80552173 -1.1565744 7 0.1288677 0.02350522 0.99138314 0.00013992068
-3.9506648 -0.79372436 -1.1554719 7 0.12870315 0.024077991 0.99139076 0.00014101261
-3.9566374 -0.78343552 -1.1565744 7 0.12865822 0.024651464 0.9913826 0.00014314732
-3.9590793 -0.77100134 -1.1565744 7 0.12846218 0.025434302 0.99138814 0.00014634196
-3.9593289 -0.75958008 -1.1560231 7 0.12832671 0.025925267 0.99139303 0.00014443391
-3.9633236 -0.74887717 -1.1565744 7 0.1281767 0.026598612 0.99139458 0.00014514978
-3.9653993 -0.73780823 -1.1565744 7 0.1281126 0.02714438 0.99138808 0.00014279418
-3.9600065 -0.72465497 -1.1543694 7 0.12797625 0.027737936 0.99138927 0.00014195309
-3.9659238 -0.71358198 -1.1554719 7 0.12788013 0.028393812 0.99138308 0.00013984204
-3.9718094 -0.70248199 -1.1565744 7 0.12779289 0.029015204 0.99137634 0.00014048706
-3.9737554 -0.69138855 -1.1565744 7 0.12768503 0.029634703 0.99137199 0.00013747071
-3.9757895 -0.67959398 -1.1565744 7 0.12754828 0.03024625 0.9913711 0.00013416866
-3.983243 -0.67014062 -1.1582283 7 0.12746832 0.030757017 0.99136561 0.00013298815
-3.9834318 -0.65731037 -1.1576769 7 0.12735268 0.031454436 0.99135864 0.00013343486
-3.9890471 -0.6468001 -1.1587795 7 0.12726206 0.031877235 0.99135679 0.00013191301
-3.987262 -0.63366038 -1.1576769 7 0.12716675 0.032615114 0.99134505 0.00012847529
-3.9909158 -0.62282044 -1.1582283 7 0.12703854 0.033153389 0.99134356 0.00012992386
-3.9888389 -0.61109078 -1.1571257 7 0.12697044 0.033676688 0.99133468 0.00012587037
-3.9943318 -0.60052079 -1.1582283 7 0.12678808 0.034298066 0.9913367 0.00012169212
-3.997998 -0.58894765 -1.1587795 7 0.12664488 0.034906771 0.99133372 0.00011998748
-4.0016308 -0.57735717 -1.1593308 7 0.12661783 0.035510741 0.99131572 0.00011792451
-4.0053287 -0.56505114 -1.1598821 7 0.12654394 0.036070861 0.99130493 0.00011324949
-3.9990799 -0.55420661 -1.1576769 7 0.12639345 0.036564447 0.99130607 0.00011283338
-4.0084219 -0.54267287 -1.1598821 7 0.12634523 0.037088566 0.99129277 0.00011112554
-4.0079231 -0.53192377 -1.1593308 7 0.1262069 0.037579391 0.99129188 0.00011029341
-4.0113902 -0.52027673 -1.1598821 8 0.1261352 0.038141824 0.99127954 0.00010570694
-4.0091019 -0.50788891 -1.1587795 7 0.12608409 0.038730282 0.99126321 0.00010524139
-4.0164013 -0.4959991 -1.1604333 7 0.12596245 0.039294448 0.99125648 0.00010146465
-4.0195951 -0.48571286 -1.1609846 7 0.12590215 0.039712127 0.99124748 9.6577744e-05
-4.0191088 -0.47355911 -1.1604333 7 0.12577607 0.040333763 0.99123842 9.3821043e-05
-4.022326 -0.4625532 -1.1609846 8 0.12569396 0.04075557 0.99123156 9.1633701e-05
-4.0275803 -0.45034245 -1.1620871 7 0.12557024 0.041353926 0.99122244 8.6546788e-05
-4.026834 -0.43958873 -1.1615359 8 0.12547322 0.041808799 0.99121571 8.2507351e-05
-4.0262842 -0.42673218 -1.1609846 7 0.12534739 0.042326871 0.99120957 8.1872342e-05
-4.0292993 -0.41638812 -1.1615359 7 0.12526016 0.042848952 0.99119824 7.6611293e-05
-4.0381684 -0.40519869 -1.163741 7 0.12526891 0.043426935 0.9911719 7.0319205e-05
-4.0392842 -0.39392015 -1.163741 8 0.12513177 0.043864701 0.99116999 6.6414686e-05
-4.036674 -0.38086709 -1.1626385 7 0.12509352 0.044332758 0.99115396 6.5944703e-05
-4.0415506 -0.36994424 -1.163741 7 0.12500599 0.044769116 0.99114543 6.398432e-05
-4.0426307 -0.35795087 -1.163741 7 0.12484923 0.045223728 0.99114448 6.1800398e-05
-4.0493007 -0.34785941 -1.1653948 8 0.1249041 0.045684729 0.99111646 5.8829606e-05
-4.0446253 -0.33466163 -1.163741 7 0.12475227 0.046135943 0.99111462 5.733284e-05
-4.0456004 -0.3226583 -1.163741 7 0.12469217 0.046615943 0.99109983 5.5007731e-05
-4.0464854 -0.3113603 -1.163741 7 0.12457377 0.04702609 0.9910953 5.1633495e-05
-4.0531435 -0.29977894 -1.1653948 8 0.1245628 0.04745708 0.99107617 4.9789469e-05
-4.0520473 -0.28832254 -1.1648436 7 0.12444469 0.047891892 0.99107009 4.5440913e-05
-4.0586395 -0.27669069 -1.1664973 8 0.12441038 0.048248753 0.9910571 4.3894739e-05
-4.0612679 -0.26618963 -1.1670486 8 0.12435619 0.048645187 0.99104446 4.2817188e-05
-4.0601659 -0.25331059 -1.1664973 8 0.12431376 0.049045265 0.9910301 4.1964318e-05
-4.0646954 -0.2421999 -1.1675999 8 0.12420597 0.049395259 0.99102622 3.9693616e-05
-4.0692348 -0.23035574 -1.1687025 8 0.1241379 0.049813207 0.99101388 3.7582067e-05
-4.064065 -0.21939048 -1.1670486 7 0.12409966 0.050113425 0.99100351 3.4701767e-05
-4.068574 -0.20681679 -1.1681513 8 0.12400184 0.050565008 0.99099278 3.1668111e-05
-4.0729761 -0.19563955 -1.1692537 7 0.123966 0.050971769 0.99097645 3.0881129e-05
-4.0715866 -0.18417776 -1.1687025 8 0.12394958 0.051233966 0.99096495 2.6370286e-05
-4.077877 -0.17233962 -1.1703563 8 0.12388091 0.051652685 0.99095178 2.994953e-05
-4.0745282 -0.16008836 -1.1692537 7 0.12381078 0.051928509 0.99094617 2.8259992e-05
-4.0768552 -0.14949185 -1.169805 7 0.12377403 0.0521589 0.99093866 2.9257635e-05
-4.0773048 -0.13668311 -1.169805 7 0.12370687 0.052541826 0.99092686 2.9064537e-05
-4.0853567 -0.12553348 -1.1720102 8 0.12372973 0.052880101 0.99090594 2.628429e-05
-4.0876131 -0.11417793 -1.1725614 7 0.12376923 0.053148121 0.99088669 2.5633281e-05
-4.08603 -0.10128793 -1.1720102 7 0.12364032 0.053365257 0.9908911 2.4627714e-05
-4.0901561 -0.089247636 -1.1731126 8 0.12366489 0.053654429 0.99087244 2.2174314e-05
-4.0942202 -0.078613803 -1.1742152 8 0.12366114 0.053900588 0.99085957 2.1626529e-05
-4.0925136 -0.066434234 -1.173664 8 0.12355809 0.05411616 0.99086064 2.4928006e-05
-4.0888476 -0.054239977 -1.1725614 7 0.12348856 0.054305993 0.99085891 2.6337553e-05
-4.0986099 -0.041491348 -1.1753178 8 0.12356507 0.054597471 0.9908334 2.6510874e-05
-4.1063948 -0.030819444 -1.1775229 8 0.12365119 0.054829162 0.99080992 2.5642463e-05
-4.0968552 -0.018591542 -1.1747664 7 0.12348193 0.054913852 0.99082625 2.6481477e-05
-4.0988126 -0.0078693097 -1.1753178 8 0.1234681 0.055099446 0.99081767 2.6169408e-05
-4.1084294 0.0050184731 -1.1780741 8 0.1235761 0.055370644 0.99078912 2.5929985e-05
-4.1122417 0.017224738 -1.1791767 8 0.12356211 0.055514961 0.99078274 2.5909947e-05
-4.1102495 0.029412398 -1.1786253 8 0.12352362 0.055640969 0.99078041 2.7048189e-05
-4.1082296 0.040871419 -1.1780741 7 0.12342478 0.055788778 0.99078453 2.7314971e-05
-4.1119442 0.052392863 -1.1791767 8 0.12348665 0.055926584 0.99076897 2.3387269e-05
-4.117537 0.064682849 -1.1808306 8 0.1234752 0.056039315 0.99076402 2.0483838e-05
-4.1173539 0.075462632 -1.1808306 8 0.12347906 0.056156889 0.99075693 1.9237197e-05
-4.1209402 0.088480026 -1.181933 8 0.12342347 0.056304932 0.9907555 1.8657736e-05
-4.1187553 0.099941157 -1.1813818 8 0.12340385 0.056398686 0.99075264 1.9407697e-05
-4.1242061 0.11231757 -1.1830356 7 0.1233974 0.05646887 0.9907493 1.6491287e-05
-4.123898 0.12311465 -1.1830356 8 0.12340091 0.056544427 0.99074465 1.4579776e-05
-4.1253886 0.13685322 -1.1835868 8 0.12339855 0.056582518 0.9907428 1.4893319e-05
-4.1230946 0.14758453 -1.1830356 7 0.12338787 0.056641646 0.99074078 1.4260966e-05
-4.1284299 0.15931952 -1.1846894 8 0.12336744 0.05671443 0.99073911 1.498435e-05
-4.1240673 0.17212841 -1.1835868 7 0.12338313 0.056753598 0.99073493 1.3410437e-05
-4.1293321 0.18390118 -1.1852407 8 0.12338845 0.056804445 0.99073136 1.1698038e-05
-4.1326437 0.19561282 -1.1863433 8 0.12338478 0.056838803 0.99072975 1.1684641e-05
-4.1358852 0.20806719 -1.1874458 8 0.12336779 0.056916717 0.99072748 8.106007e-06
-4.133368 0.21951427 -1.1868945 8 0.12337361 0.056971777 0.99072355 1.1166088e-05
-4.1307793 0.23166883 -1.1863433 7 0.12339997 0.057014089 0.99071783 9.8594774e-06
-4.1358314 0.24426436 -1.1879971 8 0.12340886 0.057030465 0.9907158 8.5725778e-06
-4.1293316 0.25617862 -1.1863433 7 0.12344044 0.057021983 0.9907124 4.6445562e-06
-4.1363211 0.26748392 -1.1885483 8 0.12345943 0.057005264 0.99071091 1.8953752e-06
-4.1354604 0.28047645 -1.1885483 8 0.12347615 0.057008535 0.99070865 0
-4.1384964 0.29229489 -1.1896509 8 0.12347724 0.057014126 0.99070817 0
-4.1376638 0.30385089 -1.1896509 8 0.12350345 0.057022646 0.99070448 0
-4.1405783 0.31641945 -1.1907535 9 0.12352737 0.057042491 0.9907003 0
-4.1435118 0.32828486 -1.191856 9 0.1235598 0.057046 0.99069613 0
-4.1444349 0.34073418 -1.1924073 9 0.12359222 0.057060231 0.99069124 0
-4.1414905 0.35286653 -1.191856 7 0.12360154 0.057068083 0.99068958 2.1627025e-06
-4.1424041 0.3645992 -1.1924073 8 0.12362303 0.057048813 0.99068803 1.8355778e-06
-4.147048 0.37741032 -1.1940612 9 0.12364259 0.056986786 0.99068916 2.6475973e-06
-4.1401672 0.38917366 -1.1924073 10 0.12370358 0.056973223 0.99068236 0
-4.1543026 0.40294108 -1.1968174 9 0.12371664 0.05689697 0.99068511 6.352725e-06
-4.1494074 0.41343474 -1.195715 8 0.12376495 0.056896377 0.99067903 8.188902e-06
-4.1480885 0.42646766 -1.195715 8 0.12373562 0.056830894 0.99068654 1.191405e-05
-4.1468811 0.43804991 -1.195715 9 0.12376666 0.05678422 0.99068528 1.3026664e-05
-4.1493855 0.45076749 -1.1968174 8 0.12381569 0.056738645 0.99068177 9.4912621e-06
-4.149941 0.46328962 -1.1973687 8 0.12385275 0.056663696 0.99068141 1.0285932e-05
-4.1524506 0.47531411 -1.1984712 9 0.12388726 0.056573 0.99068236 1.176544e-05
-4.1530166 0.48713234 -1.1990227 8 0.12393165 0.056512412 0.99068022 1.2293599e-05
-4.1495571 0.49994722 -1.1984712 10 0.12394953 0.056479424 0.99067986 1.4085639e-05
-4.1540475 0.51078826 -1.2001251 9 0.12399399 0.056446183 0.99067622 1.4481636e-05
-4.1486077 0.52335602 -1.1990227 9 0.12400533 0.056387808 0.99067813 1.3705834e-05
-4.1527567 0.53640097 -1.2006764 8 0.12405326 0.056358311 0.99067378 1.4218072e-05
-4.1532445 0.54752165 -1.2012277 8 0.12407925 0.056330446 0.99067205 1.532731e-05
-4.1572194 0.56133968 -1.2028816 8 0.12409152 0.05628255 0.9906733 1.2874777e-05
-4.1575403 0.57320857 -1.2034328 8 0.12409468 0.056236912 0.99067551 1.4108374e-05
-4.1540194 0.58454871 -1.2028816 9 0.12413635 0.056186821 0.99067312 1.3863486e-05
-4.15417 0.59714413 -1.2034328 8 0.12413597 0.056107722 0.99067765 1.5344522e-05
-4.1637926 0.61114252 -1.2067404 8 0.12417021 0.056014787 0.99067861 1.3305065e-05
-4.1583753 0.62147319 -1.2056378 8 0.12420432 0.055976562 0.99067652 1.4166294e-05
-4.1583033 0.63482338 -1.2061892 8 0.12425203 0.055882942 0.99067581 1.0381068e-05
-4.1622133 0.64731973 -1.2078431 8 0.12430974 0.055720147 0.99067771 1.3702996e-05
-4.1622882 0.65924126 -1.2083943 8 0.12436401 0.055584632 0.99067855 1.003886e-05
-4.1603136 0.67158836 -1.2083943 8 0.12443782 0.055466343 0.99067593 1.1361725e-05
-4.1564059 0.68361759 -1.2078431 8 0.12455852 0.055104699 0.99068087 1.4412065e-05
-4.162065 0.6964913 -1.2100481 8 0.12463368 0.054729853 0.9906922 2.2143995e-05
-4.1618752 0.70915937 -1.2105993 8 0.12480934 0.054283913 0.9906947 3.0725158e-05
-4.1578593 0.72117656 -1.2100481 9 0.12483487 0.054219238 0.99069494 3.1334908e-05
-4.1613808 0.73451179 -1.211702 9 0.12534866 0.053294815 0.99068028 4.5690012e-05
-4.1593132 0.74612993 -1.211702 7 0.12562847 0.052680202 0.99067771 5.6617544e-05
-4.1608634 0.7591579 -1.2128044 8 0.12575839 0.052386604 0.99067676 5.9225604e-05
-4.1642637 0.77255237 -1.2144582 8 0.12581758 0.052031673 0.99068797 6.6434877e-05
-4.1641164 0.78380668 -1.2150095 8 0.12594059 0.051531807 0.9906984 7.5826167e-05
-4.1617723 0.79615968 -1.2150095 8 0.12595786 0.051314279 0.99070758 7.8569574e-05
-4.1650529 0.80960411 -1.2166634 9 0.12601781 0.051035181 0.99071437 8.2419399e-05
-4.1607466 0.82158637 -1.216112 10 0.12603781 0.050761871 0.99072587 8.3849256e-05
-4.1640911 0.83433551 -1.2177659 9 0.12604539 0.050528821 0.99073684 9.152454e-05
-4.1673975 0.84710878 -1.2194197 8 0.12607054 0.050421689 0.99073905 9.357465e-05
-4.1631327 0.8583551 -1.2188685 8 0.1261479 0.050458197 0.99072737 9.0752983e-05
-4.1604156 0.87142992 -1.2188685 10 0.12619542 0.050354026 0.99072659 9.1423943e-05
-4.1579661 0.88304389 -1.2188685 10 0.12624304 0.050296921 0.99072343 8.775256e-05
-4.160809 0.89731818 -1.2205222 9 0.12621322 0.050206713 0.99073178 8.8937981e-05
-4.1642385 0.90871221 -1.2221761 8 0.12622929 0.050047789 0.9907378 8.984864e-05
-4.1632409 0.92220515 -1.2227274 7 0.12625012 0.0499091 0.99074215 9.1679765e-05
-4.1584468 0.93485826 -1.2221761 7 0.1262814 0.049784452 0.99074441 9.6710639e-05
-4.1636491 0.94672197 -1.2243812 8 0.12627028 0.049547538 0.9907577 0.00010003108
-4.1606545 0.95979697 -1.2243812 10 0.12627174 0.04935126 0.99076736 0.00010510064
-4.1615324 0.97301316 -1.2254838 10 0.12629902 0.049160149 0.99077338 0.0001094174
-4.1625404 0.98551673 -1.2265863 9 0.12611711 0.049379092 0.9907856 0.00013649433
-4.1635108 0.9980334 -1.2276888 10 0.12614027 0.049384333 0.99078238 0.00015941921
-4.1622238 1.0115619 -1.2282401 9 0.12574926 0.050456557 0.99077809 0.0002047124
-4.1576939 1.0219964 -1.2276888 10 0.12570302 0.05046406 0.99078357 0.00021453568
-4.1565094 1.0347929 -1.2282401 10 0.12565699 0.050469279 0.99078918 0.00023929891
-4.1571484 1.048061 -1.2293426 10 0.12537548 0.051581133 0.9907676 0.00027586438
-4.1543903 1.0589411 -1.2293426 11 0.12526315 0.051845074 0.99076802 0.00028775245
-4.1566281 1.0734286 -1.2309965 11 0.12515292 0.05233857 0.99075598 0.00030431448
-4.1590047 1.0872158 -1.2326503 11 0.12496173 0.053108308 0.99073917 0.00032418894
-4.1561441 1.0981007 -1.2326503 10 0.12483428 0.053410076 0.99073899 0.00033783153
-4.1528673 1.1104276 -1.2326503 9 0.12481159 0.054118827 0.9907034 0.00035713904
-4.1493587 1.1234678 -1.2326503 9 0.12483229 0.054868173 0.99065959 0.00037849057
-4.1575294 1.1373712 -1.235958 8 0.12450782 0.056020554 0.99063587 0.00040765092
-4.1524844 1.1484636 -1.2354068 10 0.1242656 0.056655739 0.99063021 0.00042326748
-4.1525583 1.1625412 -1.2365092 10 0.12378199 0.058560256 0.99057996 0.00047116741
-4.151351 1.173931 -1.2370605 10 0.12365743 0.059825547 0.99051994 0.00050597271
-4.1550355 1.189083 -1.2392657 11 0.1233588 0.061249137 0.99047017 0.00053075398
-4.1496425 1.2008719 -1.2387145 11 0.12321413 0.062347636 0.99041963 0.00056719506
-4.1501751 1.2128093 -1.2398169 10 0.12328628 0.063218847 0.99035543 0.00058950583
-4.150032 1.2269318 -1.2409195 11 0.12304953 0.064314328 0.99031436 0.00061413919
-4.1502733 1.2396157 -1.2420219 10 0.12275332 0.065503456 0.99027318 0.00063478004
-4.1449552 1.2506455 -1.2414707 11 0.12269084 0.066126212 0.9902395 0.00065154477
-4.1465216 1.2653457 -1.2431246 11 0.12228376 0.067303419 0.99021059 0.00066930969
-4.1466475 1.278051 -1.2442272 11 0.12200175 0.068347596 0.99017376 0.00068789843
-4.1467333 1.2907685 -1.2453296 11 0.121838 0.069423787 0.9901191 0.00070256123
-4.1428847 1.3030667 -1.2453296 10 0.12166533 0.069872819 0.99010879 0.00072131876
-4.1390004 1.3153534 -1.2453296 12 0.12141021 0.07056728 0.99009085 0.00073459186
-4.1389723 1.3280816 -1.2464322 12 0.12058268 0.07204809 0.9900853 0.0007595644
-4.1441579 1.3433197 -1.2491885 14 0.12033407 0.073191471 0.99003166 0.00077560602
-4.1369724 1.3529707 -1.2480861 13 0.12033012 0.073904581 0.98997915 0.00078691734
-4.1327019 1.3659598 -1.2480861 13 0.11996763 0.074869603 0.98995066 0.00081334932
-4.137989 1.3805375 -1.2508423 21 0.12005655 0.075715147 0.98987556 0.00080430479
-4.1341176 1.3920878 -1.2508423 24 0.11981365 0.076501235 0.9898445 0.00082641758
-4.1279044 1.4044487 -1.2502911 26 0.11957687 0.077098951 0.9898268 0.00084727543
-4.1257839 1.4165951 -1.2508423 24 0.11941984 0.078027725 0.98977298 0.00085123285
-4.1272621 1.4299995 -1.2524962 26 0.11933832 0.078838505 0.98971856 0.00085947529
-4.126379 1.4442279 -1.2535988 24 0.11915969 0.079913996 0.98965383 0.00087303406
-4.12077 1.4543872 -1.2530475 24 0.11867166 0.080465227 0.98966783 0.00087376096
-4.1164365 1.4666065 -1.2530475 24 0.11827356 0.081052519 0.98966759 0.00087631983
-4.1193037 1.4814166 -1.2552526 24 0.11826447 0.08154536 0.98962814 0.0008778086
-4.1223803 1.495537 -1.2574577 16 0.11793559 0.082236722 0.9896102 0.00088374299
-4.1254096 1.509685 -1.2596627 14 0.1180435 0.082974985 0.98953563 0.00088522735
-4.1263223 1.5239161 -1.2613167 14 0.11770032 0.083987713 0.98949116 0.0008862355
-4.1217823 1.5361536 -1.2613167 14 0.11717638 0.084492192 0.98951036 0.00088341517
-4.1264753 1.5510393 -1.264073 17 0.11700934 0.085200652 0.98946941 0.00088360673
-4.1218548 1.5632763 -1.264073 15 0.11676988 0.085547917 0.98946774 0.0008838728
-4.1210647 1.5761534 -1.2651755 14 0.1167803 0.086138695 0.98941523 0.00088969246
-4.1217504 1.5904503 -1.2668294 14 0.11642867 0.086851947 0.98939431 0.00088697433
-4.1170135 1.6026729 -1.2668294 15 0.11646117 0.087199189 0.98935997 0.00088024669
-4.1143112 1.6148664 -1.2673806 15 0.11627171 0.087522961 0.9893536 0.00088902115
-4.1133614 1.6277645 -1.2684832 17 0.11593229 0.087804303 0.98936856 0.00089313101
-4.1100125 1.641391 -1.2690344 22 0.11575628 0.088193983 0.98935443 0.00090020848
-4.0979905 1.6507065 -1.2668294 43 0.11573242 0.088593662 0.98932153 0.00090523076
-4.0918746 1.6607058 -1.2662781 49 0.11552437 0.088937908 0.98931503 0.00090842578
-4.0955324 1.6771945 -1.2690344 47 0.11521438 0.089026541 0.98934311 0.0009553408
-4.0931997 1.6879303 -1.2695858 42 0.11479814 0.087873384 0.98949468 0.0010674373
-4.0914264 1.7022582 -1.2706883 44 0.11476405 0.088431105 0.98944896 0.0010725983
-4.0807405 1.7128704 -1.2690344 37 0.11415756 0.088220492 0.98953784 0.001098653
-4.0741706 1.7235105 -1.2684832 27 0.11401753 0.088283263 0.98954844 0.0010958128
-4.0587306 1.7303575 -1.2651755 19 0.1136525 0.08827889 0.98959076 0.0010862157
-4.0412149 1.7370781 -1.2613167 20 0.11360715 0.088521607 0.98957431 0.0010772984
-4.0295968 1.7445961 -1.2591115 15 0.11383279 0.088911541 0.98951346 0.0010794712
-4.0120683 1.7511621 -1.2552526 22 0.11394906 0.089066014 0.98948616 0.0010857345
-3.9995086 1.7606585 -1.2530475 14 0.11303122 0.089490101 0.98955321 0.0010693121
-3.982583 1.7656683 -1.2491885 12 0.11319599 0.089456484 0.98953736 0.0010750141
-3.9632847 1.771203 -1.2447784 10 0.11347461 0.089684568 0.98948479 0.0010877808
-3.9559484 1.7828546 -1.2442272 11 0.113378 0.090060957 0.98946172 0.0010948823
-3.9480784 1.7909274 -1.2431246 16 0.11335646 0.090063438 0.98946398 0.0011061959
-3.951174 1.8073204 -1.2458808 31 0.1133607 0.090614401 0.98941314 0.0011144459
