# .PCD v0.7 - Point Cloud Data file format
VERSION 0.7
FIELDS x y z intensity normal_x normal_y normal_z curvature
SIZE 4 4 4 4 4 4 4 4
TYPE F F F F F F F F
COUNT 1 1 1 1 1 1 1 1
WIDTH 110
HEIGHT 1
VIEWPOINT 0 0 0 1 0 0 0
POINTS 110
DATA ascii
2.2266579 3.082799 -2.1366777 3 0.095845953 0.065123826 0.99326354 0.0015469645
2.2342324 3.0751586 -2.1356981 3 0.095732637 0.065722242 0.99323505 0.0015261567
2.2448699 3.0717225 -2.1376576 3 0.095547475 0.066445172 0.99320471 0.0014786134
2.2524419 3.061846 -2.1356981 3 0.095181853 0.067439459 0.99317282 0.0014324024
2.2651327 3.0611498 -2.1396167 3 0.093966268 0.06690184 0.99332494 0.0013951217
2.2736716 3.0548129 -2.1396167 3 0.093522415 0.06782189 0.99330443 0.0013426484
2.2858605 3.0522406 -2.142556 3 0.092966378 0.068471909 0.99331206 0.0012474196
2.2980556 3.0496221 -2.1454949 4 0.092673659 0.068185963 0.99335909 0.0012286854
2.3091991 3.0455704 -2.1474545 4 0.092067324 0.068116635 0.99342018 0.0012038379
2.3113515 3.0307906 -2.1415763 4 0.091449551 0.067581296 0.99351388 0.0011800332
2.3229892 3.028475 -2.1445153 4 0.090679407 0.067606464 0.99358267 0.001157328
2.3324914 3.0211627 -2.1445153 4 0.089663103 0.068858087 0.99358898 0.0010494828
2.3419895 3.0160139 -2.1454949 4 0.089241527 0.068750672 0.9936344 0.0010380127
2.3482556 3.0067141 -2.1435359 4 0.089443587 0.068528108 0.9936316 0.0010464775
2.3620009 3.0048046 -2.1474545 4 0.088659532 0.067757562 0.99375468 0.0010381421
2.3687794 2.997242 -2.1464748 4 0.088139281 0.068086311 0.99377847 0.0010050272
2.3754909 2.9874711 -2.1445153 4 0.088074431 0.068117253 0.9937821 0.00097811269
2.3914008 2.9881623 -2.1503935 4 0.087324321 0.067293189 0.99390453 0.00096616131
2.3986962 2.9823093 -2.1503935 4 0.087032795 0.066885807 0.99395752 0.00095976237
2.4058588 2.9720488 -2.1484339 4 0.086956695 0.066635177 0.99398106 0.00096250413
2.4157681 2.9662485 -2.1494136 3 0.086502373 0.066259101 0.99404585 0.00095554971
2.4224205 2.9585652 -2.1484339 3 0.086552896 0.066520065 0.99402398 0.00095380429
2.4311862 2.9513664 -2.1484339 3 0.086194232 0.065629259 0.99411428 0.00095350365
2.4404485 2.9437122 -2.1484339 3 0.086007468 0.065495923 0.99413931 0.00095105346
2.4431679 2.9323835 -2.1445153 3 0.086172789 0.064995684 0.99415785 0.00096972421
2.4613314 2.9353814 -2.1523526 3 0.085858129 0.064535186 0.99421507 0.0009755693
2.463284 2.9200697 -2.1464748 3 0.086020827 0.064479366 0.99420464 0.00097186031
2.4765584 2.9202602 -2.1513731 2 0.085117653 0.063563414 0.99434131 0.00096732075
2.4857213 2.9124646 -2.1513731 3 0.085506521 0.063325271 0.99432313 0.00096741266
2.4938443 2.9055123 -2.1513731 3 0.086466946 0.065599181 0.99409264 0.00082716363
2.5065062 2.9038157 -2.1552918 3 0.086020388 0.065024793 0.99416918 0.00081979058
2.5162539 2.8976831 -2.1562715 2 0.086165898 0.064860128 0.99416733 0.00080863934
2.5213985 2.8862655 -2.1533325 3 0.085828431 0.064561121 0.99421597 0.00081419019
2.5294497 2.8792124 -2.1533325 3 0.085847199 0.064501174 0.99421823 0.00081444811
2.5426009 2.8769197 -2.1572511 2 0.085679725 0.065453298 0.99417049 0.00072812842
2.5522821 2.8706679 -2.1582308 2 0.085970134 0.065401629 0.99414873 0.00072626059
2.5642765 2.8669806 -2.1611698 2 0.086010203 0.065233327 0.99415636 0.00072424317
2.5699413 2.8572149 -2.1592104 2 0.085923217 0.064948156 0.99418253 0.00072500686
2.5807455 2.852165 -2.1611698 2 0.085853815 0.064705312 0.99420434 0.0007110209
2.5858579 2.8428183 -2.1592104 2 0.085842945 0.064854398 0.99419564 0.00072888786
2.5947769 2.8346798 -2.1592104 2 0.086163811 0.065103948 0.99415147 0.0007210889
2.6050441 2.8299887 -2.1611698 2 0.08620961 0.065516993 0.99412048 0.00071382831
2.6110594 2.8196888 -2.1592104 3 0.085981213 0.064363025 0.99421561 0.00071137608
2.6158497 2.8081012 -2.1562715 3 0.08582782 0.06375768 0.99426776 0.00070782256
2.6272566 2.8046031 -2.1592104 3 0.085839532 0.06398169 0.99425244 0.00070138794
2.6410558 2.803602 -2.164109 3 0.085942239 0.063275337 0.99428874 0.0006887138
2.6488743 2.7962162 -2.164109 2 0.086060017 0.063125864 0.99428809 0.00068770087
2.6588495 2.7891421 -2.1650884 2 0.086048879 0.06264396 0.9943195 0.00069922459
2.6642141 2.7791893 -2.1631293 3 0.086042143 0.061741214 0.9943766 0.00070491206
2.6693013 2.7670405 -2.1601903 3 0.085866205 0.061261419 0.99442148 0.00071979465
2.6833358 2.7680218 -2.1660683 2 0.086196713 0.061431866 0.99438226 0.00071117631
2.694453 2.7620749 -2.1680276 2 0.08657895 0.061238479 0.99436104 0.0007192191
2.6972713 2.7495613 -2.164109 3 0.086561598 0.060782842 0.99439049 0.00073382095
2.7103171 2.74651 -2.1680276 2 0.087315679 0.06257648 0.99421334 0.00067264185
2.724118 2.7451179 -2.1729259 2 0.08816126 0.061724804 0.99419194 0.00064613286
2.7413526 2.7451837 -2.1797838 2 0.089387417 0.062658072 0.9940241 0.00062336441
2.7391231 2.7276752 -2.1719463 2 0.088539861 0.060228176 0.99425012 0.00064033311
2.7467306 2.7200146 -2.1719463 2 0.088496439 0.059869375 0.99427557 0.00063669344
2.7552617 2.7113726 -2.1719463 2 0.088647336 0.058975037 0.99431568 0.00063198834
2.7693541 2.711951 -2.1778243 2 0.090328105 0.060205974 0.99409056 0.000595188
2.7828579 2.7081017 -2.1817429 2 0.091437623 0.061284628 0.99392325 0.00057972339
2.7883742 2.6974092 -2.1797838 2 0.091431022 0.060637172 0.99396348 0.00058721087
2.787889 2.6828449 -2.1739056 2 0.089679614 0.058057304 0.99427712 0.00059525343
2.8059158 2.6842039 -2.1817429 2 0.092426658 0.061202552 0.99383682 0.00054323935
2.8138685 2.6758659 -2.1817429 2 0.092655331 0.060512517 0.9938578 0.0005317434
2.8137286 2.6608105 -2.1758652 2 0.090289034 0.057802904 0.99423677 0.00056559715
2.8241513 2.654839 -2.1778243 2 0.091094203 0.057840362 0.99416113 0.00055082876
2.8388481 2.6519058 -2.1827228 2 0.09362749 0.059775215 0.99381125 0.00051384448
2.8496137 2.6480243 -2.1856618 1 0.094465278 0.060172912 0.99370801 0.00049854122
2.852334 2.6348252 -2.1817429 1 0.094626844 0.058592651 0.99378699 0.00049732992
2.8614247 2.6275294 -2.1827228 1 0.095079191 0.058929473 0.99372399 0.00049490581
2.8734426 2.6247334 -2.1866415 1 0.096038729 0.059249025 0.99361265 0.00045834485
2.8790915 2.6133499 -2.1846821 1 0.096851952 0.059409369 0.99352419 0.00045637917
2.8902619 2.6088037 -2.1876211 1 0.097877167 0.059774026 0.99340177 0.00042838437
2.8897495 2.593735 -2.1817429 1 0.097938657 0.058856718 0.99345052 0.0004310481
2.9030888 2.589287 -2.1856618 1 0.099339917 0.059260577 0.99328732 0.00039647921
2.9142222 2.5846398 -2.188601 1 0.10051429 0.059611466 0.99314821 0.00038071582
2.9236352 2.5766251 -2.1895804 1 0.1011448 0.058997285 0.99312085 0.00035019143
2.9295075 2.5673022 -2.188601 1 0.10206654 0.059055328 0.99302304 0.0003211218
2.9327226 2.5556738 -2.1856618 1 0.10142037 0.058047328 0.99314874 0.00032040919
2.9455647 2.5515268 -2.1895804 1 0.10274314 0.058566701 0.99298227 0.00028230986
2.956197 2.5472214 -2.1925197 1 0.10370703 0.0587551 0.99287093 0.00025420226
2.9588864 2.5333865 -2.188601 1 0.1038016 0.058023516 0.99290407 0.00024179507
2.9739144 2.5318959 -2.1944788 1 0.10567913 0.059361335 0.99262691 0.00020123161
2.9814134 2.5230613 -2.1944788 1 0.1066514 0.059377883 0.99252194 0.00017903533
2.9880092 2.5152464 -2.1944788 1 0.10767881 0.059053764 0.99243033 0.00015324249
2.9945586 2.5047293 -2.1934991 1 0.10867297 0.05941803 0.99230015 0.00012853192
2.9961798 2.4918964 -2.1895804 1 0.10934451 0.059277959 0.99223483 0.00011364212
3.0085011 2.4879649 -2.1934991 1 0.10978991 0.05960016 0.99216628 9.8043754e-05
3.0239513 2.4856715 -2.1993773 1 0.11048321 0.059633158 0.99208736 8.9703091e-05
3.031745 2.4761598 -2.1993773 1 0.11052384 0.059422545 0.99209547 8.5112959e-05
3.0368645 2.4671137 -2.1983976 1 0.11051401 0.058932215 0.99212581 8.3693456e-05
3.0468836 2.4602833 -2.200357 1 0.11039785 0.058795433 0.99214685 8.6115804e-05
3.0523837 2.4506729 -2.1993773 1 0.11040639 0.058507182 0.992163 7.902606e-05
3.0532515 2.4356351 -2.1944788 1 0.11013083 0.057224043 0.99226838 9.9313213e-05
3.0682373 2.4336014 -2.200357 1 0.11037222 0.057081688 0.99224979 8.5688647e-05
3.0781841 2.426645 -2.2023163 1 0.11029017 0.056773197 0.99227661 8.7220404e-05
3.0903141 2.4083433 -2.2013369 1 0.11020809 0.055995669 0.9923299 8.8306879e-05
3.0990951 2.428256 -2.2121131 1 0.11042658 0.056993254 0.99224883 7.5881573e-05
3.0909708 2.393286 -2.1964383 1 0.11001728 0.055247042 0.99239314 9.2939212e-05
3.095844 2.3841224 -2.1954587 1 0.10969302 0.054324646 0.99247986 9.5652984e-05
3.1343322 2.399847 -2.2179914 1 0.11041675 0.05553342 0.99233276 8.0899896e-05
3.1436605 2.390496 -2.2189708 1 0.11035524 0.054876674 0.99237603 7.9669175e-05
3.1540809 2.385412 -2.22191 1 0.11042277 0.054786317 0.99237353 7.8718724e-05
3.1440058 2.3640206 -2.2101536 1 0.11015488 0.053826943 0.99245584 7.5390926e-05
3.1667829 2.3656111 -2.2209303 1 0.11046885 0.054141343 0.99240386 7.3362688e-05
3.1757638 2.3593922 -2.2228894 1 0.11039587 0.053956125 0.9924221 7.3889991e-05
3.1677294 2.3380134 -2.2121131 1 0.11007452 0.052905519 0.99251425 7.8514211e-05
3.1830878 2.3347924 -2.2179914 1 0.11029764 0.052967787 0.99248618 7.6310957e-05
3.1664326 2.2954862 -2.197418 1 0.10881554 0.050552946 0.99277568 8.5479747e-05
