# .PCD v0.7 - Point Cloud Data file format
VERSION 0.7
FIELDS x y z intensity normal_x normal_y normal_z curvature
SIZE 4 4 4 4 4 4 4 4
TYPE F F F F F F F F
COUNT 1 1 1 1 1 1 1 1
WIDTH 236
HEIGHT 1
VIEWPOINT 0 0 0 1 0 0 0
POINTS 236
DATA ascii
6.7407913 4.4261894 -2.7248356 27 0.12287412 0.093507469 0.98800725 0.000813052
6.7403789 4.3956766 -2.7190738 35 0.12258326 0.092244834 0.98816204 0.0007832087
6.769351 4.3893561 -2.7261164 48 0.12300601 0.092418633 0.98809326 0.00081044639
6.7799892 4.3694062 -2.7254758 38 0.12288295 0.091918819 0.98815519 0.0008009153
6.8032598 4.3542109 -2.7293172 15 0.11788726 0.094925471 0.98847955 0.00041600628
6.8010011 4.3260484 -2.7235553 12 0.11782701 0.093668595 0.98860657 0.0004055624
6.8130569 4.3070374 -2.7235553 12 0.11780725 0.093070433 0.9886654 0.00040566546
6.8258076 4.2868013 -2.7235553 15 0.11700407 0.094893813 0.98858744 0.00037477002
6.8409657 4.269731 -2.7248356 16 0.11672071 0.094205908 0.9886868 0.00038132706
6.8536034 4.2494164 -2.7248356 13 0.11693715 0.093612686 0.9887175 0.00038492179
6.86941 4.2310481 -2.7261164 13 0.11650998 0.09454529 0.98867923 0.00036595296
6.884284 4.2104363 -2.7267566 12 0.11640474 0.093456462 0.9887951 0.00036544094
6.8969007 4.1933837 -2.7273967 12 0.11671607 0.093103215 0.9887917 0.00036697081
6.9109359 4.1738796 -2.7280369 14 0.1166223 0.092578337 0.98885208 0.00038487327
6.9144406 4.1496906 -2.7248356 15 0.11669684 0.091545567 0.98893946 0.00038341724
6.9243755 4.1293926 -2.7241955 21 0.11677005 0.090848111 0.98899513 0.00038556696
6.9389439 4.1085858 -2.7248356 18 0.11686588 0.090023473 0.98905921 0.00040044135
6.9511032 4.0879803 -2.7248356 19 0.11677542 0.089040339 0.98915893 0.00039772296
6.9657636 4.0704665 -2.7261164 19 0.11685637 0.088911973 0.98916095 0.00040340624
6.980381 4.0528994 -2.7273967 15 0.11654618 0.087560959 0.98931795 0.00041544714
6.9972987 4.0350108 -2.7293172 9 0.11665022 0.086812764 0.9893716 0.0004274559
7.0052528 4.0135694 -2.7280369 10 0.1169215 0.085950196 0.98941493 0.00043172078
7.0211201 3.9934163 -2.7293172 8 0.11668533 0.084817223 0.98954064 0.00044287732
7.0308561 3.9762497 -2.7293172 9 0.11681773 0.082345001 0.98973376 0.00044176859
7.0515766 3.9587781 -2.7325184 10 0.11679164 0.080881961 0.98985744 0.0004318807
7.057641 3.9363003 -2.730598 7 0.11721918 0.079301432 0.98993486 0.00041469329
7.07026 3.9174988 -2.7312381 7 0.11684527 0.077342615 0.990134 0.00040291145
7.0785336 3.894675 -2.7299578 8 0.11702365 0.075486168 0.99025619 0.00037663046
7.0933843 3.8754702 -2.7312381 6 0.11693524 0.073630907 0.99040627 0.00035685333
7.1041765 3.8556511 -2.7312381 7 0.11690824 0.073191322 0.99044204 0.00035249381
7.1155863 3.8345535 -2.7312381 7 0.11679153 0.069735989 0.99070513 0.0003046809
7.133616 3.8169978 -2.733799 7 0.11665285 0.067982517 0.9908433 0.00028056672
7.1499276 3.7984869 -2.7357197 7 0.11655592 0.067793064 0.99086773 0.00028055927
7.1538043 3.7749662 -2.7331586 7 0.11651218 0.067371853 0.99090159 0.00027148696
7.1666536 3.754601 -2.733799 7 0.11655565 0.065598227 0.99101543 0.00025129289
7.174777 3.734952 -2.7331586 6 0.11641292 0.06368392 0.99115711 0.00021943558
7.188158 3.7132645 -2.733799 7 0.11631808 0.061996546 0.99127519 0.00018681545
7.2035584 3.6957698 -2.7357197 6 0.11621855 0.060466476 0.99138141 0.00015647826
7.2134438 3.6722624 -2.7350795 6 0.11581059 0.056214377 0.99167931 6.0165916e-05
7.2247238 3.6542215 -2.7357197 6 0.11575515 0.056149721 0.9916895 6.2086183e-05
7.2321486 3.6310666 -2.7344394 6 0.11569651 0.056026474 0.99170327 5.8213915e-05
7.2405634 3.6100123 -2.733799 6 0.11557694 0.053078804 0.99187928 1.560396e-06
7.255712 3.592299 -2.7357197 6 0.11560465 0.05307829 0.99187618 4.3773452e-06
7.2652597 3.5686526 -2.7350795 6 0.1156636 0.052960068 0.99187559 4.0884815e-06
7.2786021 3.5500126 -2.7363598 6 0.11568858 0.052950427 0.9918732 1.0408152e-05
7.2873979 3.5275769 -2.7357197 6 0.11577865 0.052900776 0.99186528 1.0562472e-05
7.297833 3.5059373 -2.7357197 6 0.1157831 0.052842837 0.9918679 9.7544325e-06
7.3099122 3.4850852 -2.7363598 6 0.11573546 0.052628689 0.99188483 1.1755199e-05
7.3218307 3.468837 -2.7376404 6 0.11576158 0.052559067 0.99188548 8.9984505e-06
7.3361235 3.4474273 -2.7389209 6 0.11582776 0.052540209 0.99187881 1.3008841e-05
7.3474383 3.4277298 -2.7395611 6 0.11582662 0.052464239 0.99188292 1.1565561e-05
7.3547306 3.4030404 -2.7382808 6 0.11590285 0.052433804 0.99187559 1.4230084e-05
7.3693709 3.3848588 -2.7402015 6 0.11602126 0.052448668 0.99186093 1.8070423e-05
7.3753462 3.3626962 -2.7389209 6 0.11604328 0.052409835 0.99186039 1.6232274e-05
7.3829827 3.3413036 -2.7382808 6 0.11608484 0.052324448 0.99186015 2.0024616e-05
7.3940129 3.3214509 -2.7389209 6 0.11613604 0.052227892 0.9918592 1.9487139e-05
7.4044104 3.298207 -2.7389209 6 0.11615751 0.052119832 0.99186236 1.7886356e-05
7.4153261 3.2782815 -2.7395611 6 0.11618409 0.052132525 0.9918586 1.6154607e-05
7.4244514 3.2575624 -2.7395611 6 0.11621168 0.052091017 0.99185753 1.6651766e-05
7.434648 3.2342231 -2.7395611 6 0.1163681 0.052072369 0.99184012 1.579982e-05
7.443089 3.2147493 -2.7395611 6 0.11641253 0.052046321 0.99183637 1.5354501e-05
7.4491119 3.1911566 -2.7382808 6 0.11645368 0.052044958 0.9918316 1.6642496e-05
7.463778 3.1712644 -2.7402015 6 0.11669184 0.051974274 0.99180734 1.2248473e-05
7.4649739 3.1441212 -2.7370002 5 0.11681059 0.051846065 0.99180001 1.6353197e-05
7.4731793 3.1245685 -2.7370002 6 0.11697791 0.051722996 0.99178678 1.5589847e-05
7.4789166 3.1009314 -2.7357197 5 0.1170618 0.051580954 0.99178421 1.4782987e-05
7.4928041 3.0821943 -2.7376404 6 0.11725821 0.051401053 0.99177039 1.6301239e-05
7.5031362 3.0619757 -2.7382808 6 0.11752745 0.051151842 0.99175137 1.6764448e-05
7.5069194 3.0375655 -2.7363598 7 0.11768717 0.05094564 0.99174309 1.7887476e-05
7.5164242 3.0139682 -2.7363598 7 0.11789607 0.050741486 0.99172866 1.688279e-05
7.5212917 2.991564 -2.7350795 6 0.11802619 0.050568786 0.99172199 1.5420599e-05
7.5296164 2.9705503 -2.7350795 5 0.11824267 0.05037621 0.99170613 1.9410012e-05
7.5371456 2.9461923 -2.7344394 5 0.11842926 0.050144661 0.99169552 2.2238051e-05
7.5412989 2.9250808 -2.7331586 5 0.11857836 0.049947683 0.99168766 1.7823339e-05
7.5534835 2.9040501 -2.7344394 5 0.11882135 0.049618408 0.99167508 1.8876552e-05
7.5549836 2.8789284 -2.7318783 5 0.11906762 0.04921503 0.9916656 1.7487107e-05
7.5647659 2.8584907 -2.7325184 5 0.11936481 0.048863057 0.99164736 1.810556e-05
7.5709453 2.8366876 -2.7318783 5 0.11960285 0.048469469 0.99163795 2.1481186e-05
7.578042 2.8122308 -2.7312381 5 0.11998868 0.048072502 0.99161071 1.7246961e-05
7.5871568 2.7930379 -2.7318783 5 0.12031052 0.047595922 0.99159467 1.9746913e-05
7.5936308 2.7698627 -2.7312381 4 0.1206212 0.047103271 0.99158037 2.0853779e-05
7.6040773 2.7466378 -2.7318783 5 0.12090764 0.046629556 0.99156791 2.0287443e-05
7.6076741 2.7254443 -2.730598 5 0.1213733 0.046034813 0.99153888 2.9230065e-05
7.6188264 2.7054548 -2.7318783 5 0.12186583 0.045492545 0.99150348 3.2069529e-05
7.6237149 2.6802473 -2.730598 4 0.12226922 0.044895303 0.99148101 3.2731292e-05
7.6329565 2.6595757 -2.7312381 5 0.12269635 0.044267856 0.99145657 3.5443667e-05
7.6376944 2.6343415 -2.7299578 4 0.12317537 0.043645471 0.99142474 3.755531e-05
7.6391859 2.6124988 -2.7280369 4 0.12347708 0.042898033 0.99141979 4.1576488e-05
7.6446562 2.590549 -2.7273967 4 0.12397183 0.042192627 0.99138832 4.7656107e-05
7.6581454 2.5683289 -2.7293172 4 0.12459913 0.041482672 0.99133962 6.2029576e-05
7.6630464 2.5476711 -2.728677 4 0.12510778 0.040754251 0.99130577 6.8105379e-05
7.6687713 2.524332 -2.7280369 4 0.12547499 0.039951455 0.991292 7.3779993e-05
7.6784663 2.5008121 -2.728677 4 0.1260678 0.039044466 0.9912529 8.3303676e-05
7.6836162 2.4787796 -2.7280369 4 0.12642026 0.038095932 0.99124497 8.9050227e-05
7.6887031 2.4567378 -2.7273967 4 0.12679546 0.037151482 0.99123293 8.8912871e-05
7.6905375 2.4322014 -2.7254758 4 0.12709491 0.036114067 0.99123293 9.4286705e-05
7.7027254 2.4124124 -2.7273967 4 0.12765087 0.035102643 0.99119782 9.9836863e-05
7.7084565 2.3876429 -2.7267566 3 0.12808946 0.034153227 0.99117434 0.00010031189
7.7150931 2.3661087 -2.7267566 3 0.12837821 0.032935966 0.99117827 0.00010743772
7.7144184 2.3423505 -2.7241955 3 0.12867564 0.031940207 0.99117225 0.00010755631
7.7295966 2.3248761 -2.7273967 3 0.12936559 0.03095806 0.9911136 0.00011116821
7.7336311 2.2981534 -2.7261164 3 0.12944266 0.029472332 0.99114883 0.00011291181
7.7378044 2.2773576 -2.7254758 3 0.12935174 0.028753797 0.99118185 0.00011349341
7.7408881 2.253335 -2.7241955 3 0.12956738 0.027337711 0.99119365 0.00011764299
7.7548242 2.2324522 -2.7267566 3 0.13002059 0.026092205 0.9911679 0.00011604468
7.7646728 2.2118235 -2.7280369 3 0.13039252 0.025071718 0.99114543 0.00011771643
7.7744646 2.1911645 -2.7293172 3 0.13065791 0.023640286 0.99114567 0.00012091004
7.7791076 2.167577 -2.728677 3 0.13096908 0.022465378 0.9911319 0.0001223211
7.7891593 2.1454904 -2.7299578 3 0.13133818 0.021278121 0.99110925 0.00012005588
7.7991467 2.1233668 -2.7312381 3 0.13170716 0.020261155 0.9910816 0.00011760899
7.803216 2.1010883 -2.730598 3 0.1318378 0.018821241 0.99109262 0.00012027431
7.8057532 2.0769494 -2.7293172 3 0.13183612 0.017370773 0.99111927 0.0001216728
7.8118806 2.0537813 -2.7293172 3 0.13206846 0.01614878 0.99110907 0.00012221954
7.8194203 2.0324368 -2.7299578 3 0.13218348 0.014704526 0.99111623 0.00012449198
7.8250661 2.0105906 -2.7299578 3 0.13231562 0.013464713 0.99111623 0.00011796621
7.8276696 1.9850674 -2.728677 3 0.1323052 0.011932787 0.99113721 0.00011345198
7.8460474 1.9664264 -2.7331586 3 0.13263005 0.010962016 0.99110502 0.00011508635
7.8570271 1.9458725 -2.7350795 3 0.13295189 0.0099399816 0.99107265 0.00010732135
7.8631005 1.9211808 -2.7350795 3 0.13292556 0.0085541299 0.99108911 0.00010213094
7.8751388 1.9037403 -2.7376404 3 0.13318381 0.0075535816 0.99106252 0.00010671759
7.8810802 1.878992 -2.7376404 3 0.13311023 0.0061283996 0.99108231 9.9218407e-05
7.8943219 1.8559597 -2.7402015 3 0.1330678 0.0049693971 0.99109447 0.00010227734
7.8988338 1.8366621 -2.7402015 3 0.13297504 0.0037500188 0.99111229 0.00010091894
7.906095 1.8136427 -2.7408416 3 0.13305922 0.0025643711 0.99110484 9.8354903e-05
7.926538 1.7921402 -2.7459633 3 0.1332114 0.0016331483 0.9910863 9.2759401e-05
7.9293537 1.7709669 -2.7453232 3 0.13306117 0.00053283642 0.9911077 8.9371679e-05
7.9422808 1.7476779 -2.7478843 3 0.13301857 -0.00061983621 0.99111336 8.6100459e-05
7.9529853 1.7253115 -2.7498047 3 0.13293532 -0.0016298196 0.99112338 8.3733416e-05
7.9608841 1.7066653 -2.7510855 3 0.13294311 -0.0027518356 0.99111986 7.8629622e-05
7.969913 1.6824312 -2.7523658 3 0.13292979 -0.0036340088 0.99111879 7.4734169e-05
7.978581 1.659546 -2.7536461 3 0.13276006 -0.0047554229 0.99113685 7.5703792e-05
7.9921784 1.6405587 -2.7568474 3 0.13285743 -0.0056043747 0.99111927 7.4230862e-05
7.9972925 1.6154439 -2.7568474 3 0.13261904 -0.006771937 0.99114394 6.9622278e-05
8.0020514 1.5917062 -2.7568474 3 0.13239126 -0.0080339424 0.99116504 6.6632347e-05
8.0154867 1.5725765 -2.7600486 3 0.13200502 -0.0088691376 0.99120939 6.476618e-05
8.0291471 1.5519861 -2.7632496 3 0.13212213 -0.0097541278 0.99118543 6.1509141e-05
8.0249443 1.5235828 -2.7600486 3 0.1319591 -0.010987463 0.99119425 5.9513688e-05
8.0419416 1.5050095 -2.7645304 3 0.13180672 -0.011746041 0.99120581 6.2018546e-05
8.0463724 1.4811397 -2.7645304 3 0.13176796 -0.01269487 0.99119925 5.669348e-05
8.0507317 1.4572604 -2.7645304 3 0.13151829 -0.013666564 0.99121952 5.3270658e-05
8.0675755 1.4385082 -2.769012 3 0.13150229 -0.014343202 0.99121207 4.8330479e-05
8.0718088 1.4145625 -2.769012 3 0.13147911 -0.01498088 0.99120569 4.8372756e-05
8.077837 1.3909336 -2.7696521 3 0.1316199 -0.015800126 0.9911744 4.0389692e-05
8.0891619 1.3696333 -2.7722132 3 0.13140735 -0.016437784 0.99119216 3.9723123e-05
8.104641 1.3460741 -2.7760546 3 0.13118395 -0.017595947 0.99120182 3.189006e-05
8.108367 1.3234417 -2.7760546 2 0.13094425 -0.018069232 0.991225 2.9381417e-05
8.1195154 1.3019912 -2.7786155 3 0.13077521 -0.01844736 0.99124038 2.6381646e-05
8.1216936 1.27618 -2.7779751 2 0.13047014 -0.018721517 0.99127549 2.5863659e-05
8.1306238 1.255782 -2.7798958 2 0.13037533 -0.019030981 0.99128211 2.425212e-05
8.1361885 1.2319379 -2.7805362 2 0.1301095 -0.019242657 0.99131286 2.5378042e-05
8.1454306 1.2086238 -2.7824569 2 0.12989755 -0.019504983 0.99133557 2.3606208e-05
8.1543989 1.1866926 -2.7843773 2 0.12961233 -0.019816436 0.99136668 2.144308e-05
8.165184 1.1649847 -2.7869384 2 0.12926207 -0.019972993 0.9914093 1.9497449e-05
8.17068 1.1395906 -2.7875786 2 0.12911724 -0.020039178 0.99142689 2.061112e-05
8.1755123 1.118454 -2.7882187 2 0.12889662 -0.020071011 0.9914549 2.2529022e-05
8.1787958 1.0941894 -2.7882187 2 0.12869351 -0.020077046 0.99148118 2.2162523e-05
8.1972227 1.070454 -2.7933409 2 0.12829377 -0.019971976 0.99153513 2.2481954e-05
8.2039394 1.0480366 -2.7946212 2 0.12812261 -0.019797003 0.9915607 2.1466745e-05
8.2105932 1.0255939 -2.7959015 2 0.12788069 -0.019662518 0.99159467 2.4613038e-05
8.219244 1.0019174 -2.7978225 2 0.12777454 -0.019477392 0.99161196 2.1154907e-05
8.2332983 0.98030657 -2.8016639 1 0.12770319 -0.019507825 0.99162054 1.7891003e-05
8.2361708 0.95587111 -2.8016639 1 0.1275841 -0.019382048 0.99163836 1.8696597e-05
8.2333212 0.93079257 -2.7997432 1 0.12769589 -0.018968906 0.99163193 1.8369128e-05
8.2583303 0.91173106 -2.807426 1 0.1270377 -0.018943449 0.99171704 1.7935445e-05
8.2570772 0.8882581 -2.8061457 1 0.12724277 -0.018560743 0.99169791 1.7499684e-05
8.2579422 0.86211824 -2.8055053 1 0.12715718 -0.018263347 0.99171436 1.4960092e-05
8.2716265 0.84020454 -2.8093464 1 0.12682572 -0.018133922 0.9917593 1.237759e-05
8.2797413 0.81621367 -2.8112674 1 0.12659758 -0.017934266 0.99179202 1.9182491e-05
8.2708092 0.7905634 -2.807426 1 0.12688702 -0.017600261 0.99176103 1.8736418e-05
8.2956247 0.76956558 -2.8151088 0 0.12660493 -0.017398018 0.99180067 2.0335136e-05
8.2958546 0.74622452 -2.8144686 0 0.12649877 -0.017242309 0.99181688 2.3985887e-05
8.3036947 0.72209692 -2.8163891 0 0.12671593 -0.016954789 0.99179411 3.369039e-05
8.3152409 0.69825441 -2.8195903 0 0.12643637 -0.016949978 0.99182993 3.0175132e-05
8.3191643 0.67373002 -2.8202307 0 0.12668353 -0.016699752 0.99180263 3.0410953e-05
8.3266811 0.65093637 -2.8221512 0 0.12706769 -0.016418934 0.99175811 3.0064222e-05
8.3454695 0.6289643 -2.8279135 0 0.12653008 -0.016399339 0.99182719 2.5894757e-05
8.3455162 0.60260838 -2.8272734 0 0.1273911 -0.016107939 0.99172175 2.8166734e-05
8.3509455 0.57956076 -2.8285537 0 0.12729949 -0.015850624 0.99173766 2.9267492e-05
8.3544226 0.55636555 -2.8291938 0 0.12751922 -0.015616108 0.99171317 2.9884952e-05
8.3485651 0.52963847 -2.8266332 0 0.12826368 -0.015080034 0.99162549 3.0366633e-05
8.363163 0.50858259 -2.8311148 1 0.12819836 -0.014894697 0.99163669 3.4381479e-05
8.3627424 0.48365843 -2.8304741 1 0.12860677 -0.014661151 0.99158722 3.9798619e-05
8.3868437 0.46009055 -2.8381572 1 0.12930898 -0.014761453 0.99149448 3.8099373e-05
8.3634205 0.43684876 -2.829834 1 0.12959978 -0.014501669 0.99146038 4.7344449e-05
8.3742867 0.40957275 -2.8330352 1 0.13053553 -0.014291381 0.99134058 4.3690605e-05
8.3735046 0.3860999 -2.8323951 1 0.13112989 -0.014320411 0.99126178 4.1212283e-05
8.3669138 0.36384884 -2.829834 1 0.1312713 -0.014066682 0.9912467 4.0825453e-05
8.3736372 0.33924976 -2.8317549 1 0.13173702 -0.013881486 0.99118751 3.8920636e-05
8.3631907 0.3154338 -2.8279135 1 0.13317469 -0.013278107 0.99100357 3.6719419e-05
8.365984 0.29068965 -2.8285537 2 0.13340811 -0.013027898 0.99097556 3.1700944e-05
8.3592348 0.26562282 -2.8259926 2 0.13364746 -0.012825086 0.99094599 2.9466391e-05
8.3751383 0.24125333 -2.8311148 2 0.13411891 -0.012814865 0.9908824 2.7774913e-05
8.3776731 0.21791528 -2.8317549 2 0.13468733 -0.012694403 0.99080676 2.9670098e-05
8.3801775 0.19310246 -2.8323951 2 0.13551661 -0.012492759 0.99069625 2.5373829e-05
8.371212 0.16950549 -2.8291938 2 0.13569631 -0.011941732 0.99067849 2.4426356e-05
8.3754406 0.14619556 -2.8304741 2 0.13623628 -0.011395726 0.99061084 2.5524663e-05
8.3720703 0.11982603 -2.8291938 2 0.13646425 -0.010647251 0.99058783 3.1147825e-05
8.3742657 0.096469596 -2.829834 2 0.13677114 -0.0095410747 0.99055666 4.3297641e-05
8.3763971 0.073097833 -2.8304741 2 0.13739401 -0.0085661961 0.99047947 5.1054314e-05
8.3746824 0.048238855 -2.829834 2 0.13733755 -0.0076470599 0.99049479 5.8324204e-05
8.3823643 0.024872079 -2.8323951 2 0.13807258 -0.0067619756 0.99039906 6.6386543e-05
8.3861532 -0.024882292 -2.8336754 2 0.1382342 -0.0051379413 0.99038625 8.1263752e-05
8.3765697 -0.049708147 -2.8304741 2 0.13801597 -0.0041150292 0.99042147 9.1991751e-05
8.3839769 -0.073165856 -2.8330352 2 0.12842499 0.0061754887 0.99169999 0.0010503418
8.3875122 -0.09808556 -2.8343155 2 0.12774746 0.0070987968 0.99178123 0.0010836356
8.390995 -0.12156241 -2.8355963 2 0.12738386 0.0073656612 0.99182618 0.0011008442
8.3962803 -0.14655761 -2.8375168 2 0.12651968 0.0082729589 0.99192953 0.0011339969
8.3939133 -0.1714305 -2.8368766 2 0.12691571 0.009028445 0.99187243 0.001095171
8.3990507 -0.19646785 -2.8387973 2 0.12698041 0.0094950106 0.99185973 0.001123045
8.3928251 -0.21830805 -2.8368766 2 0.12716267 0.010393211 0.99182749 0.0010705756
8.3996744 -0.24489464 -2.8394377 2 0.1256589 0.011493937 0.9920069 0.0011756147
8.4028387 -0.26553786 -2.840718 2 0.12430316 0.012145482 0.99216992 0.0012505944
8.4057503 -0.29206643 -2.8419986 3 0.11983393 0.013257052 0.99270546 0.0012955413
8.4028978 -0.31840059 -2.8413584 3 0.12167141 0.013737863 0.99247539 0.0012522861
8.4020948 -0.33893177 -2.8413584 3 0.12199309 0.014247643 0.99242866 0.0012538296
8.4047737 -0.36549067 -2.8426387 3 0.1183681 0.0086716553 0.9929319 0.0017375089
8.4007101 -0.41233298 -2.8419986 9 0.12386305 0.011705875 0.9922303 0.0018160216
8.3936968 -0.43842605 -2.8400779 10 0.12517768 0.011794369 0.99206418 0.0016297628
8.3942499 -0.46343303 -2.840718 10 0.1239401 0.012214584 0.99221456 0.0017236944
8.3911171 -0.48529819 -2.8400779 8 0.1267525 0.015577042 0.99181211 0.0019404665
8.4085522 -0.511343 -2.8464801 3 0.13029854 0.015911225 0.99134713 0.0027321915
8.4164524 -0.53689247 -2.8496814 3 0.13495389 0.016030975 0.99072218 0.0030249399
8.4225817 -0.55942726 -2.8522425 3 0.13490717 0.016215852 0.99072558 0.0031330732
8.418891 -0.58575314 -2.8516018 3 0.13458455 0.016673684 0.99076182 0.0032548003
8.4190063 -0.61086708 -2.8522425 5 0.14840437 0.019019136 0.98874384 0.0034786619
8.396594 -0.63134313 -2.8451998 13 0.12734957 0.021062961 0.99163425 0.0028462196
8.3910198 -0.65449363 -2.8439193 16 0.12540889 0.021781465 0.99186605 0.0026537876
8.3906927 -0.68246925 -2.8445597 17 0.12967286 0.025906293 0.99121833 0.003088421
8.3907652 -0.70459223 -2.8451998 16 0.12962182 0.026851153 0.99119985 0.0031650816
8.3943005 -0.72997743 -2.8471203 17 0.1316556 0.027326344 0.99091882 0.0034988902
8.3920975 -0.75488055 -2.8471203 18 0.13698687 0.017982787 0.99040955 0.0039554313
8.3957539 -0.7773726 -2.8490412 18 0.15801553 0.0018525616 0.98743492 0.0048242984
8.374547 -0.80047679 -2.8426387 18 0.13661051 0.0028173078 0.99062085 0.0036592688
8.3363094 -0.82178921 -2.8304741 18 0.14071122 0.00043962491 0.99005055 0.0038515825
8.3075905 -0.84238935 -2.821511 21 0.14263265 0.00034435789 0.98977566 0.0038316031
8.2973652 -0.86769593 -2.8189502 18 0.14491881 -0.0040671444 0.9894352 0.0039626812
