# .PCD v0.7 - Point Cloud Data file format
VERSION 0.7
FIELDS x y z intensity normal_x normal_y normal_z curvature
SIZE 4 4 4 4 4 4 4 4
TYPE F F F F F F F F
COUNT 1 1 1 1 1 1 1 1
WIDTH 219
HEIGHT 1
VIEWPOINT 0 0 0 1 0 0 0
POINTS 219
DATA ascii
4.000288 -0.4056291 -2.2591376 1 0.14091881 -0.0029582616 0.99001676 0.00011627025
3.9851215 -0.41674358 -2.2513003 1 0.14154266 -0.003170243 0.98992711 0.00013910607
3.9440677 -0.42358804 -2.2287676 1 0.14234976 -0.0029199857 0.98981214 0.00014690559
3.9359374 -0.43383619 -2.224849 1 0.14227161 -0.003252743 0.98982239 0.00014856261
3.9276249 -0.44541326 -2.2209303 1 0.14220223 -0.0035814438 0.98983115 0.00014612074
3.9402213 -0.45798996 -2.2287676 1 0.14226933 -0.0038497362 0.98982054 0.00014706329
3.9268072 -0.46754834 -2.22191 1 0.14213908 -0.0043929322 0.98983699 0.00014417822
3.9167485 -0.47814086 -2.2170115 1 0.14205955 -0.0047602155 0.98984665 0.00014172519
3.9257791 -0.49037331 -2.2228894 1 0.14199769 -0.0050346544 0.98985416 0.00014636143
3.914017 -0.50000852 -2.2170115 1 0.14194137 -0.0052953968 0.98986089 0.00014315093
3.9158845 -0.51275504 -2.2189708 1 0.1418687 -0.0054664742 0.98987037 0.00013901597
3.9110723 -0.52254319 -2.2170115 1 0.1417812 -0.005697737 0.98988163 0.00012808239
3.9146874 -0.5348534 -2.2199504 1 0.14168268 -0.0058516501 0.98989481 0.00012789402
3.9026268 -0.54570031 -2.2140725 1 0.14155905 -0.0060391626 0.98991138 0.00012448319
3.9062662 -0.5573352 -2.2170115 1 0.1414903 -0.0062500332 0.9899199 0.00012148927
3.9064202 -0.56849253 -2.2179914 1 0.1414253 -0.0064831171 0.98992765 0.00011732525
3.9029915 -0.57982439 -2.2170115 1 0.14134935 -0.0066548828 0.98993737 0.00011570418
3.915149 -0.59280962 -2.224849 1 0.14136983 -0.0069128699 0.98993278 0.00011773783
3.8840787 -0.59989893 -2.2081945 2 0.14124766 -0.0070197559 0.98994946 0.00010731378
3.8943386 -0.6133194 -2.2150521 2 0.14126949 -0.0072017657 0.98994499 0.00010964798
3.8907795 -0.62459499 -2.2140725 2 0.14123233 -0.0074130972 0.98994869 0.00011002199
3.8961258 -0.63522243 -2.2179914 2 0.14121541 -0.0076632458 0.98994923 0.00010947687
3.8734708 -0.64402747 -2.2062349 2 0.14110275 -0.0078155892 0.98996413 0.00011180666
3.8682184 -0.6542601 -2.2042756 2 0.14110059 -0.0080291471 0.9899627 0.00010780957
3.8766868 -0.66683328 -2.2101536 2 0.14112172 -0.0081990529 0.98995835 0.00010904283
3.8694203 -0.67810595 -2.2072146 2 0.14104952 -0.0083916094 0.98996699 0.0001044092
3.8640788 -0.68829721 -2.2052555 2 0.14104341 -0.0085897697 0.98996615 0.00010582137
3.8587098 -0.69846392 -2.2032959 2 0.14100683 -0.008729565 0.98997009 0.00010709076
3.8547821 -0.71026701 -2.2023163 2 0.14104475 -0.0089653758 0.98996258 0.00010563967
3.8527834 -0.72102875 -2.2023163 3 0.14110261 -0.0091170855 0.98995304 0.00010532269
3.8558939 -0.73276156 -2.2052555 2 0.14112724 -0.0093440721 0.98994732 0.00010236919
3.8554146 -0.74452955 -2.2062349 2 0.14116952 -0.0095317261 0.98993957 0.00010772367
3.848187 -0.75428683 -2.2032959 3 0.14114079 -0.0095480103 0.98994344 0.00010228054
3.8443558 -0.76468992 -2.2023163 3 0.1411767 -0.0097417962 0.98993647 0.000100861
3.8504796 -0.77849114 -2.2072146 3 0.1412017 -0.0098804152 0.98993158 0.00010368468
3.836334 -0.78678858 -2.200357 3 0.14119081 -0.0099038854 0.98993289 9.8121862e-05
3.8355508 -0.79919255 -2.2013369 3 0.1412666 -0.010231089 0.98991871 9.6889307e-05
3.8267617 -0.80712271 -2.197418 3 0.14125957 -0.010327318 0.98991877 9.840756e-05
3.8361418 -0.82169724 -2.2042756 3 0.14132728 -0.010480099 0.98990744 9.5371746e-05
3.8236089 -0.8301869 -2.1983976 3 0.14128344 -0.010636357 0.98991209 9.4974523e-05
3.8212759 -0.8408612 -2.1983976 3 0.14127466 -0.010782376 0.98991174 9.4339048e-05
3.8186154 -0.85286188 -2.1983976 3 0.14131008 -0.010939328 0.989905 9.1788512e-05
3.8126667 -0.86341792 -2.1964383 3 0.14126287 -0.01097534 0.98991132 9.1849579e-05
3.8086939 -0.873007 -2.1954587 3 0.14132111 -0.011194111 0.98990047 8.8847446e-05
3.80269 -0.88351452 -2.1934991 3 0.14129269 -0.011320112 0.98990321 9.2295188e-05
3.8036025 -0.89492887 -2.1954587 3 0.14136198 -0.011542886 0.98989064 9.2367452e-05
3.8058603 -0.90808785 -2.1983976 3 0.14147186 -0.011821589 0.98987174 9.3297233e-05
3.8016145 -0.91830271 -2.197418 3 0.14161086 -0.012131494 0.98984808 9.8179713e-05
3.7936301 -0.92899704 -2.1944788 3 0.14160715 -0.012281003 0.98984671 9.1837617e-05
3.7964263 -0.93952048 -2.197418 3 0.14173631 -0.012462866 0.98982596 8.7424043e-05
3.7985299 -0.95271528 -2.200357 3 0.14194342 -0.01291861 0.9897905 0.00010201461
3.7923067 -0.9631232 -2.1983976 3 0.14195429 -0.013164368 0.98978567 0.00010039852
3.791291 -0.97414345 -2.1993773 4 0.14200468 -0.013449145 0.98977453 0.00010765708
3.7868686 -0.98428828 -2.1983976 4 0.14208727 -0.01408937 0.98975384 0.00011379475
3.7820711 -0.99573624 -2.197418 4 0.14216761 -0.014313788 0.98973918 0.00011454451
3.780961 -1.0067426 -2.1983976 4 0.142178 -0.014292021 0.98973793 0.00011578268
3.7783124 -1.0166377 -2.1983976 4 0.14221559 -0.014421488 0.98973066 0.00011272821
3.7750998 -1.0285026 -2.1983976 4 0.14278583 -0.015620027 0.98963028 0.00014090326
3.772213 -1.0390406 -2.1983976 4 0.14283697 -0.016021805 0.98961657 0.00014518236
3.7674336 -1.0497602 -2.197418 4 0.14349833 -0.017035069 0.98950392 0.00016653657
3.7626243 -1.0604609 -2.1964383 4 0.14376961 -0.017461758 0.98945707 0.00017202567
3.7665429 -1.0722172 -2.200357 5 0.1445362 -0.018692736 0.98932296 0.0002000089
3.7616699 -1.0829059 -2.1993773 5 0.14485085 -0.019077871 0.98926955 0.00020843376
3.7549007 -1.0937427 -2.197418 5 0.14495747 -0.019573824 0.98924428 0.00021722438
3.7587159 -1.1055373 -2.2013369 5 0.14555338 -0.021461369 0.98911762 0.00025988123
3.7485387 -1.1153512 -2.197418 5 0.14569062 -0.021809852 0.98908979 0.0002649714
3.7470798 -1.1263168 -2.1983976 5 0.14567126 -0.021841355 0.98909193 0.00026414674
3.7422512 -1.1362693 -2.197418 5 0.1459894 -0.022630205 0.98902726 0.00027519578
3.737397 -1.1462041 -2.1964383 5 0.14603382 -0.023083568 0.98901021 0.00028461131
3.73085 -1.1556045 -2.1944788 5 0.14608258 -0.023888258 0.98898399 0.00030403203
3.7288656 -1.1678408 -2.1954587 5 0.14601594 -0.024022305 0.98899055 0.00030736573
3.7255898 -1.1782492 -2.1954587 5 0.14603809 -0.024497703 0.98897558 0.00031363996
3.7222848 -1.1886485 -2.1954587 5 0.14640059 -0.025016045 0.98890907 0.00032454671
3.7187417 -1.1996875 -2.1954587 5 0.14684927 -0.025934851 0.98881882 0.00034747037
3.7168236 -1.2112561 -2.1964383 5 0.14682508 -0.026026484 0.98882002 0.00034669021
3.7101138 -1.2205409 -2.1944788 5 0.14777654 -0.027334752 0.98864305 0.00038207893
3.703167 -1.2304441 -2.1925197 5 0.14871338 -0.029038105 0.98845387 0.00041857726
3.7061119 -1.2436451 -2.1964383 6 0.14924453 -0.03056086 0.98832792 0.00045039924
3.6945851 -1.250548 -2.1915398 5 0.14905784 -0.030931894 0.98834461 0.00045523848
3.6889889 -1.2615845 -2.1905601 5 0.14906554 -0.03159773 0.98832232 0.00046538687
3.6936924 -1.2747254 -2.1954587 6 0.1497051 -0.033336133 0.98816854 0.00051051046
3.6833076 -1.2833843 -2.1915398 5 0.14969124 -0.033453412 0.98816669 0.00051505276
3.6797094 -1.2936648 -2.1915398 5 0.14969213 -0.034130123 0.98814344 0.0005302155
3.6739843 -1.3046353 -2.1905601 5 0.14969116 -0.034870159 0.98811775 0.00055028382
3.6771221 -1.3166002 -2.1944788 5 0.15032771 -0.03626287 0.98797089 0.0005771704
3.6764796 -1.3286901 -2.1964383 6 0.15067153 -0.03763622 0.98786712 0.00060224935
3.6626925 -1.3360076 -2.1905601 5 0.15125354 -0.03864862 0.98773915 0.0006251834
3.6638567 -1.3480368 -2.1934991 6 0.15106963 -0.039188467 0.987746 0.00062293897
3.650033 -1.35526 -2.1876211 5 0.1512997 -0.039686654 0.98769093 0.00063885393
3.647629 -1.3666958 -2.188601 6 0.15146326 -0.040933639 0.98761499 0.00064983516
3.6402957 -1.3762792 -2.1866415 6 0.15182194 -0.041976929 0.98751605 0.00068207062
3.635051 -1.3851839 -2.1856618 6 0.15223463 -0.043122966 0.98740321 0.00070462067
3.6358075 -1.3978404 -2.188601 6 0.15249531 -0.044130746 0.98731846 0.00072260672
3.6348953 -1.4098828 -2.1905601 6 0.15290938 -0.045675706 0.98718417 0.00073306833
3.6323197 -1.4212968 -2.1915398 6 0.15344162 -0.0470552 0.98703671 0.00074696238
3.6267147 -1.430795 -2.1905601 6 0.15371604 -0.048304252 0.98693371 0.00076039456
3.6175931 -1.439615 -2.1876211 6 0.15397754 -0.049546741 0.98683137 0.00078004884
3.6186671 -1.451028 -2.1905601 6 0.15441903 -0.050922133 0.98669231 0.00079307961
3.6011603 -1.4571569 -2.1827228 6 0.15410846 -0.051475633 0.9867121 0.00080779893
3.6003056 -1.4685245 -2.1846821 6 0.15469936 -0.052994363 0.9865393 0.00081817457
3.5978038 -1.479236 -2.1856618 6 0.15489364 -0.054115854 0.98644787 0.0008259922
3.5904374 -1.4879421 -2.1837025 6 0.15520747 -0.055182625 0.98633951 0.00083118858
3.5921795 -1.5019046 -2.1876211 8 0.15539286 -0.056500491 0.98623568 0.00084201794
3.586365 -1.511253 -2.1866415 8 0.15568979 -0.057559606 0.98612761 0.00085441081
3.5773158 -1.5192175 -2.1837025 8 0.15574948 -0.058444705 0.9860661 0.00087085046
3.5709231 -1.5297617 -2.1827228 8 0.15613656 -0.05925313 0.98595661 0.00086544018
3.566637 -1.5397278 -2.1827228 8 0.15608972 -0.060867917 0.98586565 0.00087590248
3.5575268 -1.547595 -2.1797838 8 0.15623888 -0.061891299 0.98577827 0.00087389676
3.5529191 -1.5581435 -2.1797838 10 0.15628532 -0.062689863 0.98572046 0.0008785947
3.5469596 -1.5673543 -2.1788042 13 0.15620714 -0.063238196 0.98569787 0.00087929564
3.5359223 -1.5750335 -2.1748853 17 0.15613821 -0.064143911 0.9856503 0.00088334532
3.5328243 -1.5862321 -2.1758652 18 0.15600017 -0.065137282 0.98560697 0.00088986981
3.526792 -1.5953728 -2.1748853 18 0.15593122 -0.066000111 0.98556048 0.00090036134
3.5191503 -1.6037691 -2.1729259 18 0.15596312 -0.067218445 0.98547316 0.00089498301
3.5159607 -1.6149313 -2.1739056 18 0.15583266 -0.06813027 0.98543113 0.00090286019
3.5095711 -1.6246238 -2.1729259 18 0.1558183 -0.069018714 0.98537153 0.0009068849
3.5034401 -1.6336811 -2.1719463 18 0.15554211 -0.069949158 0.9853496 0.00091107556
3.4969997 -1.6433272 -2.1709666 18 0.15537918 -0.070792243 0.98531508 0.00091999449
3.4918196 -1.6543053 -2.1709666 18 0.15511303 -0.072105043 0.98526174 0.00092322828
3.484329 -1.6619397 -2.1690071 18 0.15503696 -0.073035657 0.98520517 0.00092622614
3.4762399 -1.6707602 -2.167048 17 0.1548399 -0.073770747 0.98518139 0.00092653959
3.4715607 -1.680461 -2.167048 14 0.15440512 -0.07493449 0.98516184 0.00091907318
3.4668543 -1.6901489 -2.167048 9 0.15415044 -0.075883932 0.98512912 0.00091798027
3.4615276 -1.701032 -2.167048 8 0.15386675 -0.076835856 0.98509973 0.00091397262
3.4564652 -1.711295 -2.167048 8 0.15359055 -0.077871211 0.98506147 0.00091246795
3.450413 -1.7195604 -2.1660683 7 0.15333229 -0.07853096 0.98504931 0.0009167277
3.4449937 -1.7303917 -2.1660683 7 0.15293565 -0.079482712 0.98503464 0.00090751995
3.4417038 -1.7407923 -2.167048 8 0.15245947 -0.080628149 0.98501533 0.0009130892
3.4349701 -1.7502048 -2.1660683 8 0.15251316 -0.081050135 0.98497236 0.00090849044
3.4282107 -1.7595925 -2.1650884 8 0.15243316 -0.081849009 0.98491871 0.00090180931
3.4217346 -1.7683585 -2.164109 8 0.15231122 -0.08260382 0.98487461 0.00090052735
3.4152365 -1.7771021 -2.1631293 8 0.15218025 -0.08337447 0.98482984 0.00089653529
3.4102604 -1.7866323 -2.1631293 8 0.15226535 -0.083943799 0.98476827 0.000891876
3.4021735 -1.7945216 -2.1611698 8 0.15219752 -0.084454484 0.98473519 0.00088402326
3.3937545 -1.802972 -2.1592104 8 0.1521582 -0.08483763 0.98470831 0.00087590725
3.389611 -1.8144476 -2.1601903 8 0.15221442 -0.085311681 0.98465866 0.00086867047
3.3817787 -1.8216617 -2.1582308 9 0.15234303 -0.085777961 0.98459822 0.00086617778
3.3748264 -1.8308562 -2.1572511 8 0.15206608 -0.085963592 0.98462486 0.00086173776
3.3663189 -1.8391893 -2.1552918 7 0.15233116 -0.086351551 0.98454988 0.00086279568
3.3584366 -1.846316 -2.1533325 7 0.15237176 -0.086838946 0.98450083 0.00085930171
3.3495688 -1.8551682 -2.1513731 5 0.15235709 -0.087504119 0.9844442 0.00085849816
3.3443754 -1.8645146 -2.1513731 5 0.15241943 -0.087905556 0.98439884 0.00086151488
3.334594 -1.8712867 -2.1484339 5 0.1525379 -0.088405132 0.98433566 0.00085937825
3.3317344 -1.8834696 -2.1503935 6 0.15236782 -0.088844828 0.98432243 0.00084857625
3.3203998 -1.8893169 -2.1464748 6 0.1525825 -0.089284897 0.98424935 0.0008484532
3.3174734 -1.901473 -2.1484339 6 0.15258202 -0.089799099 0.98420262 0.00084378454
3.3109736 -1.9092807 -2.1474545 6 0.15257469 -0.090062872 0.98417968 0.00083455245
3.3022783 -1.917345 -2.1454949 6 0.15267892 -0.090536639 0.98412007 0.00083642971
3.2999222 -1.9283189 -2.1474545 6 0.15257104 -0.090811819 0.98411149 0.00082495657
3.2941861 -1.9381014 -2.1474545 6 0.15274431 -0.091012582 0.98406601 0.00082618807
3.2929218 -1.9505327 -2.1503935 11 0.15279657 -0.090970129 0.98406184 0.00082097802
3.2949505 -1.9641848 -2.1552918 20 0.15270886 -0.091299102 0.98404491 0.00081266393
3.2876132 -1.9730551 -2.1543121 19 0.15278582 -0.091591947 0.98400587 0.00081493414
3.2832367 -1.9837025 -2.1552918 26 0.15276745 -0.092149936 0.98395658 0.00081557513
3.2806644 -1.994675 -2.1572511 28 0.15283896 -0.092460126 0.9839164 0.00081128889
3.2795434 -2.0065587 -2.1601903 31 0.15274386 -0.092631578 0.98391503 0.00080586289
3.2780292 -2.0190237 -2.1631293 28 0.15290053 -0.092713073 0.98388296 0.00080257998
3.2812703 -2.0336809 -2.1690071 24 0.15284452 -0.093011908 0.98386341 0.00080158736
3.2859349 -2.0492949 -2.1758652 24 0.15280569 -0.093388878 0.98383373 0.00079725479
3.2883399 -2.065172 -2.1817429 25 0.15293036 -0.093641557 0.98379046 0.00079870661
3.2810864 -2.073415 -2.1807635 27 0.15285954 -0.093933962 0.98377359 0.00080198108
3.2620411 -2.0741496 -2.1719463 28 0.15338337 -0.094237946 0.9836629 0.00080851937
3.2499983 -2.0800593 -2.1680276 28 0.15347061 -0.09439557 0.98363417 0.00081524072
3.2482095 -2.092526 -2.1709666 25 0.15361832 -0.094975121 0.98355532 0.00082111801
3.2322469 -2.1361339 -2.1768446 24 0.15383792 -0.096535273 0.98336911 0.00082452851
3.2208347 -2.140728 -2.1729259 24 0.15407051 -0.096894376 0.98329747 0.00083292654
3.2575181 -2.1389756 -2.1895804 27 0.15342049 -0.09661115 0.98342687 0.00081878918
3.2376573 -2.1657863 -2.188601 21 0.1538922 -0.097782873 0.98323745 0.00082083984
3.2825792 -2.1292887 -2.1983976 25 0.15316831 -0.095808424 0.98354465 0.00081224513
3.2846684 -2.1420658 -2.2032959 30 0.15315862 -0.096208319 0.98350722 0.00080838695
3.2424068 -2.1837389 -2.1964383 21 0.15382661 -0.098228186 0.98320317 0.00082427112
3.2217894 -2.2109642 -2.1954587 25 0.15462291 -0.099240869 0.98297662 0.00084243406
3.2597773 -2.2078652 -2.2121131 20 0.15207693 -0.097461745 0.98355162 0.00086114521
3.2517715 -2.2165451 -2.2111335 20 0.15288869 -0.098010346 0.98337126 0.000855739
3.2079582 -2.2279289 -2.1944788 18 0.15509546 -0.099964514 0.98282886 0.00086132489
3.1991544 -2.2069488 -2.1837025 18 0.15522701 -0.099116735 0.98289382 0.00085970748
3.219913 -2.2504225 -2.2072146 20 0.15343274 -0.098934881 0.98319393 0.00090514048
3.2211435 -2.2638574 -2.2121131 18 0.14803566 -0.093083732 0.98459172 0.0010360901
3.2258005 -2.2814593 -2.2199504 24 0.14530404 -0.090242237 0.98526293 0.0010938414
3.2190173 -2.2910202 -2.2199504 23 0.14510651 -0.089581944 0.9853524 0.0011156003
3.2055185 -2.2949257 -2.2150521 23 0.14558378 -0.090446658 0.98520291 0.0011188692
3.1930361 -2.3003497 -2.2111335 23 0.14691503 -0.092264786 0.98483658 0.0011108089
3.1904318 -2.3128836 -2.2140725 24 0.14503263 -0.090644807 0.98526597 0.0011505706
3.1938226 -2.3289754 -2.2209303 19 0.14447246 -0.089763485 0.98542899 0.0011596121
3.1957419 -2.3440726 -2.2268081 23 0.14372486 -0.087929964 0.98570359 0.0011818918
3.1757381 -2.34478 -2.2179914 25 0.14395773 -0.089785017 0.98550236 0.0011985631
3.1723881 -2.3551643 -2.2199504 19 0.14353687 -0.088712081 0.98566091 0.0012146338
3.1621804 -2.3630319 -2.2179914 23 0.14290594 -0.089060359 0.98572105 0.0012338978
3.1485999 -2.3666146 -2.2130928 23 0.14383134 -0.09005332 0.98549628 0.0012444312
3.1405883 -2.3743465 -2.2121131 21 0.14428794 -0.089878544 0.98544556 0.0012528724
3.1358883 -2.386313 -2.2140725 21 0.14383949 -0.089959905 0.98550361 0.0012770452
3.1375198 -2.4014192 -2.2199504 18 0.1427902 -0.08901827 0.98574167 0.0012818527
3.1359069 -2.4149735 -2.2238693 20 0.14270736 -0.089299172 0.98572826 0.0012999866
3.1342411 -2.4285393 -2.227788 19 0.14218208 -0.089655869 0.98577189 0.0013340678
3.1219459 -2.4329951 -2.2238693 23 0.14138496 -0.089974396 0.98585737 0.0013470522
3.1123948 -2.4395523 -2.22191 19 0.14184311 -0.090476617 0.98574573 0.0013657598
3.1010354 -2.4455369 -2.2189708 23 0.14213091 -0.090770759 0.98567718 0.0013789926
3.0850587 -2.446064 -2.2121131 32 0.14199403 -0.091498017 0.98562968 0.0013912279
3.0810182 -2.4595444 -2.2150521 32 0.14173102 -0.091475822 0.98566955 0.0014135895
3.080936 -2.4735963 -2.2199504 31 0.14147827 -0.090931766 0.98575616 0.0014245878
3.0839467 -2.48932 -2.2268081 25 0.14097106 -0.090750821 0.98584557 0.0014412402
3.0693448 -2.4934993 -2.22191 18 0.14129519 -0.091025226 0.9857738 0.0014528658
3.0655074 -2.5037324 -2.2238693 18 0.1410785 -0.091070667 0.98580068 0.0014737841
3.0580649 -2.5128171 -2.2238693 17 0.14118993 -0.091209859 0.98577183 0.0014904755
3.0532835 -2.5241008 -2.2258286 14 0.14060619 -0.091353051 0.98584199 0.0015113398
3.0471213 -2.5342641 -2.2268081 9 0.14075029 -0.091283895 0.98582786 0.0015433804
3.0386951 -2.5416446 -2.2258286 8 0.14095531 -0.091338649 0.98579341 0.0015630163
3.0284724 -2.5484042 -2.2238693 7 0.14118311 -0.09136562 0.98575842 0.0015760831
3.0133584 -2.5500932 -2.2179914 7 0.14179164 -0.091805443 0.98563021 0.0016002051
3.0128644 -2.5641482 -2.2228894 8 0.14128192 -0.091352984 0.98574543 0.0016198305
3.0061183 -2.5747354 -2.2238693 6 0.14123373 -0.091216169 0.98576504 0.0016467691
2.9989169 -2.5831201 -2.2238693 4 0.14215587 -0.091285624 0.98562604 0.0016639673
2.983784 -2.5846348 -2.2179914 4 0.14299548 -0.091711693 0.98546499 0.0016997537
2.9721584 -2.5900397 -2.2150521 3 0.14373301 -0.091956548 0.98533487 0.0017239013
2.9557347 -2.5902851 -2.2081945 3 0.14398819 -0.092363581 0.98525959 0.001762427
2.9545758 -2.6048086 -2.2130928 2 0.1436377 -0.092032291 0.98534173 0.0017884013
2.9716194 -2.635546 -2.2317066 1 0.1418383 -0.090439141 0.98574984 0.0018371851
2.9611845 -2.6420295 -2.2297473 1 0.14259559 -0.091015272 0.98558748 0.0018671161
2.9641776 -2.6596041 -2.2375848 1 0.14158364 -0.090173423 0.98581076 0.0018937158
