# .PCD v0.7 - Point Cloud Data file format
VERSION 0.7
FIELDS x y z intensity normal_x normal_y normal_z curvature
SIZE 4 4 4 4 4 4 4 4
TYPE F F F F F F F F
COUNT 1 1 1 1 1 1 1 1
WIDTH 128
HEIGHT 1
VIEWPOINT 0 0 0 1 0 0 0
POINTS 128
DATA ascii
-3.6021848 2.1388204 -1.4155574 50 0.11255464 0.094568983 0.98913503 0.0011889109
-3.6137121 2.1601932 -1.4225999 51 0.11336345 0.094091579 0.98908824 0.0012219651
-3.6092889 2.171253 -1.4232401 56 0.11353394 0.094053365 0.98907232 0.0012166417
-3.6157968 2.1898041 -1.428362 46 0.11370852 0.094016396 0.98905575 0.0012461536
-3.6128142 2.2165384 -1.4322033 51 0.11414552 0.094067022 0.98900062 0.0012671653
-3.6078343 2.2282431 -1.4328437 45 0.11443915 0.094132252 0.98896039 0.0012675333
-3.6060345 2.2419395 -1.4347644 51 0.11476436 0.094279408 0.98890877 0.0012861484
-3.5756648 2.2369273 -1.4251608 46 0.11505808 0.094338119 0.98886907 0.0012439771
-3.5661969 2.2448852 -1.4238805 66 0.11497563 0.094415292 0.98887128 0.0012381128
-3.5799313 2.2692645 -1.4322033 46 0.11531812 0.094247423 0.98884743 0.0012739833
-3.5208633 2.2456295 -1.4110756 71 0.11587287 0.094985671 0.98871189 0.0012203373
-3.5193627 2.2585232 -1.4129963 60 0.11600938 0.094906665 0.98870343 0.0012175065
-3.5265727 2.2788231 -1.4187584 66 0.11656024 0.094391443 0.98868799 0.00123419
-3.5305274 2.293627 -1.4225999 56 0.11637242 0.094530798 0.98869681 0.0012511375
-3.527123 2.3230603 -1.4270815 71 0.116583 0.094511971 0.98867381 0.001275248
-3.5502603 2.3223403 -1.4334838 66 0.11636654 0.094182812 0.98873073 0.0012891864
-3.5561926 2.3546846 -1.4411666 71 0.1169581 0.094004802 0.98867786 0.0013445894
-3.5582364 2.3721523 -1.4450082 56 0.11710674 0.093871877 0.98867291 0.0013649919
-3.5354488 2.3721418 -1.4386058 43 0.11684648 0.093960948 0.9886952 0.0013194636
-3.5527861 2.3972857 -1.4482092 39 0.11668304 0.093251511 0.98878163 0.001371766
-3.5405345 2.4052422 -1.4462885 66 0.11694465 0.093343623 0.98874211 0.0013607435
-3.5318189 2.4146667 -1.4456483 56 0.11734114 0.093327202 0.98869663 0.0013631734
-3.5332916 2.4292722 -1.4488494 56 0.11749216 0.09299542 0.98870999 0.0013773505
-3.5323017 2.444057 -1.4514104 60 0.1177258 0.092691623 0.9887107 0.0013948304
-3.5188143 2.4501958 -1.4488494 71 0.11750709 0.092962362 0.98871136 0.0013860079
-3.5216997 2.4659204 -1.4526908 51 0.11797139 0.092361733 0.98871237 0.0013994426
-3.5247767 2.4846129 -1.4571724 56 0.11833192 0.091804639 0.98872113 0.0014433662
-3.5127528 2.4917717 -1.4552517 56 0.11841726 0.09179569 0.98871171 0.0014342733
-3.483079 2.4844558 -1.4456483 60 0.11747309 0.09228655 0.98877871 0.0013697003
-3.4561148 2.4798121 -1.4373252 66 0.11724828 0.092434824 0.98879147 0.0013582703
-3.4750614 2.5247805 -1.4514104 56 0.11790886 0.091399394 0.98880923 0.0014040078
-3.4386578 2.4846015 -1.4334838 51 0.11673265 0.092537589 0.9888429 0.0013441812
-3.4679985 2.5344734 -1.4514104 60 0.11802664 0.090821505 0.98884839 0.0014229941
-3.4890168 2.5666895 -1.4635748 66 0.11899807 0.08864823 0.98892915 0.0014722447
-3.494472 2.5848286 -1.4686967 51 0.11910225 0.087542944 0.9890151 0.0014790142
-3.4837475 2.5929232 -1.4674162 56 0.11931197 0.087313309 0.9890101 0.0014897286
-3.4710348 2.6004469 -1.4654955 75 0.11935823 0.08688622 0.98904216 0.001471767
-3.4778366 2.6197851 -1.4712577 60 0.11937617 0.085828364 0.98913234 0.0014775717
-3.4620392 2.624975 -1.4680566 66 0.1198208 0.085808739 0.98908025 0.0014568308
-3.4516821 2.6323352 -1.466776 56 0.11969008 0.085537732 0.98911965 0.0014461997
-3.4533389 2.6488812 -1.4706174 51 0.1199652 0.083960071 0.98922145 0.0014474406
-3.4399276 2.6538851 -1.4680566 45 0.12035066 0.083985612 0.98917246 0.0014619655
-3.4360621 2.6681662 -1.4699771 51 0.1205247 0.082415216 0.98928332 0.001486261
-3.4375579 2.6847482 -1.4738185 51 0.12063533 0.080953091 0.98939055 0.0014913213
-3.425108 2.6914229 -1.4718978 60 0.12107245 0.081098646 0.98932528 0.0014928799
-3.4210231 2.7027311 -1.4731784 41 0.12118071 0.080267526 0.98937976 0.001493562
-3.3985319 2.7188425 -1.4706174 41 0.12165263 0.079559647 0.98937905 0.0015037189
-3.3818405 2.6881099 -1.4597335 56 0.12073166 0.08218272 0.98927748 0.0014655661
-3.3928778 2.728919 -1.4712577 56 0.12171337 0.078796342 0.98943263 0.0014956599
-3.3921313 2.7449329 -1.4744589 60 0.12204514 0.078037933 0.98945194 0.0015064446
-3.3790834 2.7519865 -1.4725381 46 0.12168748 0.077220105 0.98956007 0.0015087837
-3.3459568 2.7386324 -1.4610139 60 0.12162411 0.078962252 0.98943043 0.0014997445
-3.3665853 2.7732255 -1.4738185 60 0.12222768 0.073462702 0.98977959 0.0015662528
-3.3729312 2.7952921 -1.4802209 66 0.12227645 0.069218084 0.99007946 0.0016152712
-3.3558908 2.7980072 -1.4763794 60 0.12222744 0.069373883 0.99007457 0.0016051116
-3.3538718 2.812238 -1.4789405 71 0.12230745 0.068061322 0.99015582 0.0016041668
-3.3368235 2.8148458 -1.4750991 75 0.12178829 0.067598701 0.99025142 0.0016082952
-3.3496737 2.840729 -1.4840623 66 0.12215903 0.064199999 0.99043196 0.00163372
-3.3556445 2.8629534 -1.4904647 56 0.12429611 0.058057435 0.99054515 0.0016558939
-3.3428214 2.8691952 -1.4885439 71 0.12407254 0.058131605 0.99056888 0.0016391055
-3.3376658 2.8809946 -1.4898244 71 0.12386301 0.055718981 0.99073374 0.0017806235
-3.3319633 2.8933706 -1.4911048 60 0.12486809 0.053157333 0.99074835 0.0017710101
-3.33478 2.9132159 -1.4962268 51 0.12541556 0.051504802 0.99076647 0.0017853228
-3.3170383 2.9305408 -1.4955866 60 0.12562294 0.048710696 0.9908815 0.00181103
-3.3385313 2.9319382 -1.5013486 56 0.12603354 0.048083391 0.99085993 0.0018160768
-3.3163106 2.9485004 -1.4994279 56 0.12612145 0.042716689 0.99109465 0.0018062365
-3.3010023 2.9514351 -1.4962268 51 0.12566571 0.043167554 0.99113303 0.0018571775
-3.2936382 2.9624841 -1.4968669 56 0.12607701 0.037587501 0.99130809 0.0017566661
-3.3022161 2.9869225 -1.5045499 51 0.12756926 0.029306106 0.99139667 0.0016814424
-3.2561221 2.9784629 -1.4911048 56 0.12506884 0.032973137 0.99159998 0.0020434733
-3.3045506 3.0069077 -1.5096717 60 0.12770458 0.022992097 0.99154574 0.0019005379
-3.2565081 2.9976602 -1.4955866 66 0.12507984 0.026112104 0.99180299 0.0020068949
-3.2481241 3.0067422 -1.4955866 60 0.12449932 0.023294318 0.99194628 0.0021306202
-3.2613742 3.0370262 -1.5058302 60 0.12458745 0.017908605 0.99204701 0.0022269019
-3.253412 3.0455544 -1.5058302 75 0.12401666 0.016653689 0.99214035 0.0023059577
-3.2501905 3.0628233 -1.5090314 66 0.12462569 0.013842305 0.99210721 0.0023131131
-3.258667 3.0869589 -1.5167143 51 0.1254434 0.011284902 0.99203664 0.0023783671
-3.2445459 3.0908191 -1.5141532 60 0.12554175 0.011524234 0.99202138 0.0023927763
-3.2329686 3.1165926 -1.5173545 71 0.12570387 0.010422385 0.99201304 0.0024428009
-3.2337756 3.1348407 -1.5218362 60 0.12606969 0.0083225295 0.99198645 0.0024196273
-3.2252676 3.1463079 -1.5224763 60 0.12624709 0.0079657594 0.99196684 0.0024247749
-3.2183723 3.1560678 -1.5231167 56 0.12632161 0.0077934945 0.99195868 0.0024389415
-3.217087 3.1735871 -1.5269581 66 0.12676378 0.0068489034 0.99190933 0.002470586
-3.2157264 3.1911252 -1.5307994 66 0.12680778 0.0064490042 0.99190634 0.0024680551
-3.2035625 3.1979759 -1.529519 66 0.12697835 0.0061193178 0.99188662 0.0024609221
-3.1925044 3.2036667 -1.5282384 60 0.12694374 0.0051993984 0.99189627 0.0024410277
-3.1904233 3.2217588 -1.5320799 45 0.12706158 0.003827238 0.99188745 0.0024486582
-3.1774254 3.2266054 -1.5301591 51 0.12715733 0.0037514414 0.99187547 0.0024169378
-3.144541 3.2110982 -1.518635 60 0.1280942 0.0056138569 0.99174613 0.0024750521
-3.1627545 3.2489252 -1.5320799 46 0.12828512 0.0025357967 0.99173409 0.0024565756
-3.136107 3.2588952 -1.5282384 75 0.12809041 0.0020538794 0.99176031 0.0024476447
-3.097759 3.2011089 -1.50519 88 0.1299082 0.0060777203 0.99150741 0.0025482178
-3.1460702 3.2887239 -1.537842 45 0.12828833 0.00021036061 0.99173689 0.0024890704
-3.107548 3.286139 -1.5282384 45 0.1286224 0.00071540853 0.99169338 0.0024330097
-3.1460156 3.3071063 -1.5423236 43 0.12849385 -0.00037300828 0.99171025 0.0024929806
-3.0861049 3.2829196 -1.5224763 46 0.12937245 0.00073565147 0.9915958 0.0024321973
-3.1273873 3.3455074 -1.5474454 56 0.12895113 -0.0023575029 0.99164814 0.0025201093
-3.1064222 3.341738 -1.5416834 46 0.12865157 -0.0019216865 0.99168801 0.0023337079
-3.1126223 3.3695741 -1.5500064 46 0.12935372 -0.0029250272 0.9915942 0.0023890876
-3.1044829 3.3796477 -1.5506467 51 0.12885207 -0.0033835897 0.99165803 0.0023246435
-3.0924768 3.3855064 -1.5493661 56 0.12982526 -0.003397793 0.99153107 0.0023585835
-3.0856462 3.3994143 -1.5512869 51 0.1299375 -0.0044946298 0.99151194 0.002437359
-3.0780053 3.4088871 -1.5519271 66 0.13066165 -0.0041696839 0.99141824 0.0024684302
-3.0742054 3.4250553 -1.5551283 51 0.13146646 -0.0049400912 0.99130833 0.0024849453
-3.0659535 3.4375241 -1.5564089 51 0.13184316 -0.0055237622 0.99125522 0.0025053758
-3.0525143 3.4393361 -1.5538478 66 0.13215181 -0.0055570067 0.99121392 0.0024959268
-3.0391867 3.4460676 -1.5525674 66 0.13299307 -0.0046929647 0.99110579 0.0024776729
-3.0139606 3.4379723 -1.5448846 60 0.13298702 -0.0036757737 0.99111092 0.0024129038
-3.0006125 3.4420907 -1.5429639 46 0.13332625 -0.0037259266 0.9910652 0.0024311354
-2.9971941 3.4576154 -1.5461651 60 0.13407815 -0.0037583322 0.99096358 0.0024250301
-2.9920239 3.4920864 -1.5538478 46 0.13573247 -0.0047281403 0.99073422 0.002437576
-3.0073383 3.4914198 -1.557049 46 0.13526139 -0.0055191959 0.99079454 0.0024995552
-2.9583066 3.4735422 -1.5416834 66 0.13647935 -0.0026110816 0.99063945 0.0024688558
-2.9859395 3.5271337 -1.5615306 56 0.13666642 -0.0051692314 0.99060363 0.002532871
-2.9803414 3.5417759 -1.5640916 66 0.13701993 -0.0046609938 0.99055731 0.0025729078
-2.9734905 3.5524738 -1.5653721 51 0.13741302 -0.0036491551 0.99050713 0.0025949075
-2.9380844 3.5326617 -1.5525674 51 0.13820417 -0.0039572706 0.99039584 0.0024904571
-2.9423766 3.5782866 -1.5653721 56 0.13909094 -0.0038914988 0.99027193 0.0025938384
-2.9107099 3.5184419 -1.5429639 86 0.13846892 -0.0031444989 0.99036181 0.0024874101
-2.9299223 3.5860445 -1.5647317 51 0.13957396 -0.0037898524 0.99020439 0.002590348
-2.9210923 3.5956826 -1.5653721 66 0.13999167 -0.0034322487 0.9901467 0.002615856
-2.8955889 3.6065378 -1.5628111 60 0.1396797 -0.0027264149 0.99019301 0.0025752434
-2.8825886 3.6096654 -1.5608904 60 0.13963182 -0.0022402157 0.99020088 0.0025569275
-2.8918922 3.6434309 -1.5717744 51 0.14104626 -0.0040933695 0.98999459 0.0026594289
-2.8733926 3.6435709 -1.567933 51 0.14021835 -0.0028940914 0.99011636 0.0025890139
-2.8795142 3.5635276 -1.5480858 71 0.13916299 -0.0019874885 0.99026746 0.0025281347
-2.8486402 3.6317008 -1.5596099 60 0.14019293 -0.0016214537 0.99012285 0.0025440389
-2.8611524 3.6700225 -1.5724146 51 0.14106548 -0.0037357169 0.98999327 0.0026398588
