# .PCD v0.7 - Point Cloud Data file format
VERSION 0.7
FIELDS x y z intensity normal_x normal_y normal_z curvature
SIZE 4 4 4 4 4 4 4 4
TYPE F F F F F F F F
COUNT 1 1 1 1 1 1 1 1
WIDTH 233
HEIGHT 1
VIEWPOINT 0 0 0 1 0 0 0
POINTS 233
DATA ascii
-8.2958374 -5.7808027 -0.70705163 13 -0.036468718 -0.042021628 0.99845093 0
-8.2927313 -5.8131065 -0.70816773 12 -0.039110459 -0.041781452 0.99836105 0
-8.2857065 -5.7394361 -0.70481938 12 -0.038575049 -0.041790701 0.9983815 0
-8.2950115 -5.8514872 -0.70984191 12 -0.038911983 -0.041822672 0.99836701 0
-8.2839737 -5.6998067 -0.70314527 12 -0.038213003 -0.041807592 0.99839467 0
-8.3020153 -5.8933969 -0.71193457 13 -0.03987189 -0.041772056 0.99833131 0
-8.2751541 -5.6597576 -0.70105255 13 -0.036474511 -0.041978013 0.99845254 0
-8.3072214 -5.9342399 -0.71388775 13 -0.03947451 -0.041839737 0.99834418 0
-8.2744293 -5.6254091 -0.69965744 12 -0.037294876 -0.04186726 0.99842685 0
-8.3100615 -5.971385 -0.71556193 14 -0.039492894 -0.041880749 0.9983418 0
-8.2738724 -5.5871043 -0.6981228 12 -0.031351399 -0.042653922 0.99859798 0
-8.3159904 -6.010931 -0.71751505 11 -0.039087527 -0.0419586 0.99835449 0
-8.260314 -5.5465164 -0.69575113 11 0.1587542 -0.068657883 0.98492807 3.1097232e-05
-8.261796 -5.5120187 -0.69449544 11 0.160677 -0.070048682 0.98451817 2.8328674e-05
-8.257452 -5.4717073 -0.69268179 13 0.16193259 -0.071087383 0.98423803 2.438601e-05
-8.2491417 -5.4372416 -0.69086808 12 0.16282761 -0.071960419 0.98402685 2.2846107e-05
-8.2511597 -5.4014649 -0.68961251 12 0.16326994 -0.072798401 0.98389196 2.1415082e-05
-8.2487507 -5.3649945 -0.68807787 13 0.16456434 -0.073509894 0.98362339 2.1643074e-05
-8.244339 -5.3314629 -0.68654317 12 0.16484632 -0.073782347 0.98355579 2.2835191e-05
-8.2383013 -5.2929583 -0.68472958 11 0.16536164 -0.073942758 0.98345721 2.2425498e-05
-8.2279778 -5.2498813 -0.68249732 13 0.16523127 -0.073415413 0.9835186 2.3545714e-05
-8.2181091 -5.2133579 -0.68054414 12 0.16532387 -0.073020875 0.98353243 2.2824446e-05
-8.2132854 -5.1761875 -0.67887002 13 0.1656082 -0.072859436 0.98349661 2.4973129e-05
-8.2075195 -5.1365986 -0.67705631 10 0.16519408 -0.07204739 0.98362595 2.7931328e-05
-8.1912518 -5.0986075 -0.67468464 12 0.16482651 -0.071611196 0.98371953 3.0304032e-05
-8.190259 -5.062356 -0.67328948 11 0.1646629 -0.071143471 0.9837808 3.7363272e-05
-8.1933413 -5.0307274 -0.67231292 12 0.16447128 -0.070012949 0.98389393 4.6244026e-05
-8.182642 -4.994709 -0.67035973 11 0.1637954 -0.069538862 0.98404038 5.0031143e-05
-8.1675825 -4.9503608 -0.66784847 12 0.16265598 -0.068316534 0.98431492 6.0969258e-05
-8.1600132 -4.9127288 -0.66603482 12 0.16197605 -0.067641579 0.98447365 7.2707589e-05
-8.1505909 -4.8780284 -0.66422111 13 0.16141684 -0.066997312 0.9846096 7.7989091e-05
-8.1401749 -4.8409715 -0.66226798 12 0.16048549 -0.065537177 0.98486 9.1933565e-05
-8.136445 -4.8042154 -0.66073328 14 0.15945956 -0.06496276 0.98506463 0.00010047771
-8.1326199 -4.7713809 -0.65933818 14 0.15863036 -0.064055659 0.98525792 0.00010889132
-8.1191607 -4.7311578 -0.65710598 13 0.1577145 -0.063102864 0.98546648 0.00011852387
-8.1228018 -4.7010498 -0.65626889 11 0.15707359 -0.061205383 0.98568851 0.00013156194
-8.0987635 -4.6588783 -0.65333909 7 0.15558842 -0.060613748 0.98596054 0.00014612034
-8.0796366 -4.6160231 -0.65068835 7 0.15416022 -0.058787677 0.9862954 0.00016105198
-8.0672684 -4.5772614 -0.64859569 7 0.1510594 -0.058848292 0.98677146 0.00018135736
-8.0626402 -4.5449176 -0.64720058 7 0.14988381 -0.05770871 0.98701799 0.00018527306
-8.057725 -4.5088506 -0.64566594 7 0.14875795 -0.055562325 0.98731154 0.00019398314
-8.0545912 -4.4776068 -0.64441031 7 0.14793575 -0.054150932 0.98751336 0.0001921673
-8.053092 -4.4473796 -0.64329416 7 0.14685439 -0.052819502 0.98774689 0.00019004216
-8.0565252 -4.4163051 -0.64245707 7 0.14613132 -0.051176302 0.98794061 0.00018870272
-8.0557957 -4.3885164 -0.64148051 7 0.14512868 -0.050101012 0.9881435 0.00017959546
-8.0564985 -4.3579502 -0.64050394 7 0.14404866 -0.048018489 0.98840487 0.00016593884
-8.0553322 -4.3264742 -0.63938785 7 0.14361444 -0.046245467 0.98855263 0.00016173463
-8.0638618 -4.302084 -0.63910884 7 0.14328966 -0.044530936 0.98867846 0.00015556641
-8.0599785 -4.2711401 -0.63785315 7 0.14259522 -0.043466959 0.98882622 0.000149218
-8.068059 -4.2430134 -0.63743466 7 0.14180809 -0.041368738 0.98902935 0.00013791972
-8.066762 -4.2154083 -0.6364581 7 0.14159529 -0.039725218 0.98912722 0.00012866546
-8.0668373 -4.1850233 -0.63548148 7 0.14133106 -0.037499849 0.98925185 0.00012220965
-8.0703487 -4.1565037 -0.63478392 7 0.14030704 -0.036432594 0.98943746 0.00011182015
-8.0730438 -4.1294074 -0.63408631 7 0.1403373 -0.034795918 0.98949212 0.00010214381
-8.0817032 -4.1036291 -0.6338073 7 0.13988553 -0.033174042 0.98961174 9.3228868e-05
-8.0742445 -4.0697536 -0.63227266 7 0.14038701 -0.031845152 0.98958445 8.5641492e-05
-8.0748749 -4.0418315 -0.63143557 7 0.13935868 -0.030641297 0.98976779 8.0992453e-05
-8.0796833 -4.0143056 -0.63087755 7 0.13998407 -0.029172385 0.98972392 7.2267358e-05
-8.0790339 -3.984138 -0.62990099 7 0.14044696 -0.027862387 0.98969609 6.2360326e-05
-8.0822697 -3.9594638 -0.62934291 7 0.14056747 -0.027591614 0.98968655 6.468191e-05
-8.0879126 -3.9342599 -0.62892437 7 0.14094268 -0.026367329 0.98966664 5.7009449e-05
-8.082263 -3.900162 -0.6275292 7 0.14139062 -0.025148083 0.98963439 4.7405021e-05
-8.0805283 -3.8715417 -0.62655264 7 0.1416453 -0.023889393 0.98962921 3.8578859e-05
-8.0865746 -3.8449788 -0.62613416 7 0.14161918 -0.023704369 0.98963737 3.84017e-05
-8.0835114 -3.8141587 -0.625018 7 0.14181456 -0.022707395 0.98963279 3.4560704e-05
-8.0869045 -3.7881849 -0.62445998 6 0.14210919 -0.021819018 0.98961049 2.8622324e-05
-8.0902157 -3.7622216 -0.6239019 7 0.14247172 -0.020943258 0.98957729 2.007892e-05
-8.0868502 -3.7315133 -0.62278581 6 0.14283271 -0.020189151 0.98954093 1.4606489e-05
-8.0888157 -3.7033491 -0.62208819 6 0.14296615 -0.020065183 0.98952419 1.3572126e-05
-8.0943193 -3.6768591 -0.62166971 6 0.14337699 -0.01934885 0.98947895 7.5950197e-06
-8.0954609 -3.6501403 -0.62097216 6 0.14362364 -0.018777261 0.98945421 3.6920314e-06
-8.0928755 -3.6218138 -0.61999553 6 0.1437522 -0.018676497 0.98943746 5.2499863e-06
-8.0938406 -3.5951498 -0.61929798 6 0.1439112 -0.018261254 0.98942208 2.9962455e-06
-8.1014433 -3.5680981 -0.61901897 6 0.14401157 -0.018079277 0.98941088 3.5758087e-06
-8.0985785 -3.5398664 -0.61804235 6 0.14414503 -0.017855423 0.9893955 1.8703078e-06
-8.1041679 -3.5120263 -0.61762381 6 0.14426163 -0.017871967 0.98937815 1.7397122e-06
-8.1005058 -3.4852769 -0.61664718 6 0.14433855 -0.017732669 0.98936939 1.7565162e-06
-8.1034718 -3.4580946 -0.61608922 6 0.14451829 -0.017701555 0.98934376 0
-8.1087828 -3.430289 -0.61567062 6 0.14457701 -0.017673187 0.98933578 0
-8.1079426 -3.4066024 -0.61497307 6 0.14462642 -0.017582597 0.98933011 0
-8.1038713 -3.3749752 -0.61385697 6 0.14470573 -0.017502338 0.98931986 0
-8.1175365 -3.3524404 -0.61413604 6 0.14471804 -0.017460473 0.98931891 0
-8.111517 -3.3251224 -0.61301988 6 0.1447476 -0.01742583 0.98931515 3.1204291e-07
-8.1194983 -3.3002906 -0.61288035 6 0.14480311 -0.017368061 0.98930806 0
-8.1187239 -3.2702913 -0.61204326 6 0.14483696 -0.017353194 0.98930335 0
-8.1142893 -3.2438426 -0.6110667 6 0.14486068 -0.017284337 0.98930109 0
-8.1164589 -3.216814 -0.61050868 6 0.14491527 -0.017238978 0.98929387 0
-8.1222544 -3.1912558 -0.61022961 6 0.14487536 -0.017254867 0.98929948 2.2119734e-06
-8.1138506 -3.1634595 -0.60897404 6 0.14486383 -0.017203083 0.98930204 1.3610356e-06
-8.1157579 -3.1364944 -0.60841596 6 0.14483437 -0.017184669 0.98930663 0
-8.1199818 -3.1088421 -0.60799742 6 0.14470446 -0.017152866 0.9893263 4.8919139e-07
-8.1224976 -3.0854468 -0.60757887 6 0.1447171 -0.017064761 0.98932588 2.6750613e-06
-8.1310825 -3.062752 -0.60757887 6 0.14469729 -0.016995484 0.98932999 1.1895645e-06
-8.1225014 -3.028801 -0.60618377 6 0.14466539 -0.016962275 0.98933518 3.104047e-06
-8.1266603 -3.0061429 -0.60590476 6 0.14469618 -0.016916532 0.98933148 1.7999714e-06
-8.1275301 -2.9806886 -0.60534668 6 0.14470965 -0.016873091 0.98933029 4.102425e-06
-8.1312284 -2.9530993 -0.6049282 6 0.14473404 -0.01676265 0.98932856 3.4087293e-06
-8.1295462 -2.9284201 -0.60423058 6 0.14474085 -0.016651198 0.98932952 2.2826221e-06
-8.1311893 -2.9001844 -0.6036725 6 0.14476544 -0.016642209 0.98932606 4.3880214e-06
-8.1341152 -2.8740537 -0.60325402 6 0.14478281 -0.016572352 0.98932463 4.0924006e-06
-8.1284323 -2.8481278 -0.6022774 6 0.14471105 -0.016514516 0.98933613 5.521601e-06
-8.1349602 -2.8233449 -0.60213786 6 0.14469007 -0.016431807 0.98934054 4.9167197e-06
-8.1338682 -2.7959523 -0.60144031 6 0.14460239 -0.016356455 0.98935461 4.4798085e-06
-8.1340904 -2.7706537 -0.60088223 6 0.14454818 -0.016241278 0.9893645 4.3705591e-06
-8.1295195 -2.7406259 -0.59990567 6 0.1443972 -0.016041745 0.98938978 5.7288366e-06
-8.133357 -2.7166491 -0.59962666 6 0.14422627 -0.015788812 0.98941869 7.0322876e-06
-8.1238651 -2.6882839 -0.59837103 6 0.14394546 -0.015277582 0.98946768 7.6571478e-06
-8.1332359 -2.6662107 -0.59851056 6 0.14367354 -0.014856248 0.98951358 9.1223192e-06
-8.1373148 -2.6408365 -0.59823149 6 0.14344935 -0.014415368 0.98955268 1.0166868e-05
-8.1370602 -2.6156597 -0.59767348 6 0.14320265 -0.013945234 0.98959517 1.5042709e-05
-8.1300268 -2.5852444 -0.59655732 6 0.14288929 -0.013363774 0.9896484 1.7991961e-05
-8.1348639 -2.5633528 -0.59641784 6 0.14267565 -0.012786037 0.98968691 2.128849e-05
-8.1310062 -2.535641 -0.59558076 6 0.14239815 -0.01217864 0.98973453 2.3231694e-05
-8.1346807 -2.5103292 -0.59530175 6 0.14193459 -0.011404933 0.98981029 2.9936018e-05
-8.1325531 -2.4832685 -0.59460419 6 0.14163193 -0.010788405 0.98986059 3.5808396e-05
-8.1375456 -2.4599707 -0.59446466 6 0.14118867 -0.010173771 0.98993039 3.9625291e-05
-8.135251 -2.4329581 -0.59376711 6 0.14060502 -0.0093929563 0.99002117 4.7627844e-05
-8.1377668 -2.410516 -0.5934881 6 0.1403138 -0.0086709326 0.99006909 5.3085769e-05
-8.1395559 -2.3832586 -0.59306955 6 0.13944061 -0.0073083164 0.9902035 6.6697678e-05
-8.1408415 -2.3574319 -0.59265101 6 0.13912168 -0.0070512667 0.99025017 6.8910493e-05
-8.1382103 -2.3305225 -0.5919534 6 0.13817924 -0.0056149843 0.99039131 8.3123065e-05
-8.1404448 -2.3081176 -0.59167439 6 0.13804552 -0.0053663468 0.99041134 8.3072446e-05
-8.1434155 -2.2828786 -0.59139538 6 0.13732804 -0.0043065324 0.9905163 8.9335343e-05
-8.1401463 -2.257463 -0.59069782 5 0.13663693 -0.003381775 0.99061543 9.8263503e-05
-8.1429605 -2.2322452 -0.59041882 5 0.13575728 -0.0018781354 0.99074036 0.00011229167
-8.1399174 -2.205467 -0.58972126 5 0.13503464 -0.00093859836 0.99084044 0.00012049231
-8.1444988 -2.1807895 -0.58958173 6 0.13424957 0.00028126288 0.99094748 0.00012760554
-8.140914 -2.1554835 -0.58888417 6 0.1342686 0.00046290795 0.99094486 0.00012535577
-8.1453438 -2.1308138 -0.58874464 6 0.13291185 0.0023949586 0.99112487 0.00014328101
-8.1393051 -2.1064842 -0.58790755 6 0.13280645 0.0027543367 0.99113822 0.00014217058
-8.1439495 -2.0804093 -0.58776808 6 0.13167487 0.0046364833 0.99128217 0.00015807166
-8.1419897 -2.0557046 -0.58721 6 0.13177067 0.0049928259 0.99126768 0.00015673018
-8.1438274 -2.0319955 -0.58693099 6 0.13106206 0.0058928938 0.99135673 0.00015930357
-8.1424208 -2.0044928 -0.58637291 6 0.13061497 0.007544925 0.99140447 0.00016728001
-8.1441097 -1.9808035 -0.5860939 6 0.12985417 0.0090285335 0.99149197 0.00016829729
-8.1480112 -1.9561645 -0.58595437 6 0.12932952 0.0097389426 0.9915539 0.00017547209
-8.1495609 -1.9324824 -0.58567536 6 0.12878288 0.011137766 0.99161029 0.00017707708
-8.1487637 -1.9097756 -0.58525681 6 0.12814213 0.012570486 0.99167615 0.00018299514
-8.1527786 -1.8837186 -0.58511728 6 0.12733184 0.014316823 0.9917568 0.00018353685
-8.1544418 -1.8586314 -0.58483833 6 0.12672211 0.015765913 0.991813 0.00019000897
-8.155386 -1.8364012 -0.5845592 6 0.12626357 0.017304821 0.99184579 0.00018813385
-8.1591673 -1.8103387 -0.58441973 6 0.12575316 0.018759781 0.99188417 0.00019072858
-8.1599827 -1.7881174 -0.58414072 6 0.12538376 0.020314271 0.99190032 0.00019018773
-8.1691513 -1.7647402 -0.58441973 6 0.12468932 0.021951182 0.99195296 0.00018608796
-8.1802053 -1.7417423 -0.58483833 6 0.12386019 0.023483945 0.99202168 0.00018481295
-8.185338 -1.7174629 -0.58483833 6 0.12351677 0.024993578 0.9920277 0.00018027265
-8.1881475 -1.6941936 -0.58469874 6 0.12293787 0.025759013 0.99208003 0.00018035922
-8.2009583 -1.6714867 -0.58525681 6 0.12227787 0.02726759 0.99212122 0.00017503538
-8.2055941 -1.6485783 -0.58525681 6 0.12222919 0.028212983 0.99210083 0.00017162444
-8.2219086 -1.6279821 -0.5860939 6 0.12160182 0.029854124 0.99212992 0.0001638604
-8.2250242 -1.6017625 -0.58595437 6 0.1212807 0.031256825 0.99212605 0.00015797564
-8.2333841 -1.5795389 -0.58623338 6 0.12091649 0.032646839 0.99212569 0.00015175711
-8.2377634 -1.5565403 -0.58623338 7 0.12042575 0.034378383 0.99212688 0.0001428465
-8.2538452 -1.5357231 -0.58707047 6 0.1197566 0.035736319 0.9921599 0.00013538988
-8.2564039 -1.5108672 -0.58693099 6 0.11940286 0.037421674 0.99214047 0.00012614182
-8.2667408 -1.4874207 -0.58734947 6 0.11898381 0.038840141 0.99213624 0.00011886689
-8.2770119 -1.4639302 -0.58776808 6 0.11870083 0.040204819 0.9921158 0.00011086655
-8.2771358 -1.4401281 -0.58748901 6 0.1186373 0.041437525 0.99207264 0.000104933
-8.2853069 -1.4162331 -0.58776808 6 0.11854198 0.04292291 0.99202085 9.7399599e-05
-8.2909536 -1.3948696 -0.58790755 6 0.11836019 0.043340243 0.99202436 9.6717529e-05
-8.3051367 -1.3704396 -0.58860517 6 0.11845586 0.045339733 0.99192363 8.4693878e-05
-8.3207483 -1.3491595 -0.58944225 6 0.1180382 0.04559774 0.9919616 8.559366e-05
-8.3210039 -1.3223838 -0.58916318 6 0.11828879 0.047451187 0.99184477 7.2627146e-05
-8.3345203 -1.3006815 -0.58986074 6 0.11822437 0.048536588 0.99180001 6.6269793e-05
-8.3420649 -1.2780056 -0.59013975 6 0.11827026 0.049496397 0.99174708 6.0036422e-05
-8.3416548 -1.2541114 -0.58986074 6 0.11820026 0.049701992 0.99174511 5.9134254e-05
-8.3552094 -1.2308112 -0.59055829 7 0.11830484 0.050603632 0.99168706 5.3000618e-05
-8.364747 -1.2068696 -0.59097683 7 0.11841603 0.051401377 0.99163276 4.8270267e-05
-8.3764 -1.1816995 -0.59153491 6 0.11858876 0.052728679 0.9915424 3.7490572e-05
-8.3891439 -1.1625973 -0.59223247 7 0.11861455 0.052749276 0.99153829 3.7728099e-05
-8.3967085 -1.1367731 -0.59251148 7 0.1188701 0.053938892 0.99144369 2.5914287e-05
-8.4016342 -1.1150485 -0.59265101 7 0.1189331 0.053925894 0.99143672 2.5849427e-05
-8.4108419 -1.0908849 -0.59306955 6 0.11920337 0.054910798 0.99135035 1.6130754e-05
-8.421958 -1.0669271 -0.59362757 6 0.11934152 0.055292752 0.99131244 1.3681177e-05
-8.4252682 -1.0404651 -0.59362757 6 0.11944481 0.055560499 0.99128497 1.1662889e-05
-8.4418287 -1.020079 -0.59460419 6 0.11961965 0.055823032 0.9912492 1.1584118e-05
-8.448781 -0.99549359 -0.59488326 6 0.1197868 0.056058727 0.99121577 8.3146915e-06
-8.4693661 -0.97394705 -0.59613883 7 0.11995554 0.056222945 0.9911859 9.5401001e-06
-8.4803162 -0.94822347 -0.59669691 6 0.12013927 0.056329139 0.99115777 7.7769009e-06
-8.4867363 -0.92645317 -0.59697592 7 0.12022085 0.056528851 0.99113649 6.5010136e-06
-8.4915886 -0.89999467 -0.5971154 6 0.12021247 0.056431666 0.99114305 7.5561293e-06
-8.4978838 -0.87817204 -0.59739441 6 0.12030259 0.056391861 0.99113429 7.7262766e-06
-8.5024366 -0.85315323 -0.59753394 6 0.12024388 0.056346148 0.99114406 9.4712932e-06
-8.5087585 -0.82979339 -0.59781301 6 0.12037078 0.056179114 0.99113816 7.3072788e-06
-8.5252275 -0.80436975 -0.59878957 6 0.12059369 0.056046262 0.99111849 7.2515722e-06
-8.5254536 -0.7803793 -0.5986501 6 0.12058567 0.055877667 0.99112904 7.5482367e-06
-8.5297184 -0.75525576 -0.59878957 6 0.12048634 0.055567585 0.99115849 9.8382661e-06
-8.5396185 -0.73360485 -0.59934759 6 0.12053047 0.055269241 0.99116987 1.0316986e-05
-8.5498333 -0.70743299 -0.59990567 6 0.12057418 0.054958943 0.99118185 7.7973436e-06
-8.5578613 -0.68253529 -0.60032415 6 0.12066313 0.054752309 0.99118239 9.621107e-06
-8.5676918 -0.65924835 -0.60088223 6 0.12075449 0.054360177 0.99119294 9.4241086e-06
-8.5696096 -0.6338262 -0.60088223 6 0.12076087 0.053953916 0.99121428 1.0088878e-05
-8.5812969 -0.61060029 -0.60157984 6 0.12078919 0.053608835 0.99122959 1.2321796e-05
-8.5950136 -0.58595008 -0.60241693 6 0.12079407 0.053262252 0.99124765 1.4981814e-05
-8.5985088 -0.56357622 -0.60255641 6 0.12111237 0.052227132 0.99126393 2.8077695e-05
-8.6022282 -0.5366863 -0.60269594 7 0.12100343 0.052051485 0.99128646 2.8325656e-05
-8.6136522 -0.51325512 -0.6033935 6 0.11938252 0.042018227 0.99195886 0.0018761592
-8.6231031 -0.48814616 -0.60395151 6 0.11782676 0.037780851 0.99231517 0.0021776615
-8.6243525 -0.46556857 -0.60395151 6 0.11784649 0.037418146 0.99232668 0.0022215606
-8.6397219 -0.43918079 -0.6049282 7 0.11714233 0.036863565 0.99243075 0.0023461229
-8.6429062 -0.41514957 -0.60506767 6 0.11596962 0.021381201 0.99302262 0.0073998733
-8.6599779 -0.39173311 -0.60618377 7 0.11526359 0.020478489 0.99312389 0.007739245
-8.657115 -0.36586776 -0.60590476 7 0.11681969 0.020425668 0.99294311 0.0077198939
-8.668129 -0.34057108 -0.60660225 7 0.11651506 0.020064062 0.99298626 0.008079337
-8.6749735 -0.31809759 -0.60702085 6 0.11656535 0.018963557 0.99300206 0.0082552582
-8.6819115 -0.29104292 -0.60743934 6 0.11298807 0.0016884338 0.99359494 0.014066187
-8.6826906 -0.26679882 -0.60743934 7 0.11384853 0.00099413458 0.99349767 0.014375277
-8.6834021 -0.24255055 -0.60743934 7 0.11605912 0.0011871059 0.99324161 0.014502369
-8.6901045 -0.21541758 -0.60785794 7 0.11179682 -0.0091266735 0.99368918 0.016750306
-8.6986837 -0.18980619 -0.60841596 7 0.11196682 -0.0095733544 0.99366581 0.017316811
-8.7051353 -0.16714877 -0.60883451 7 0.11298805 -0.010138167 0.99354464 0.017698513
-8.7115774 -0.14141601 -0.60925305 7 0.11248912 -0.012071257 0.99357957 0.018307647
-8.7179441 -0.11564654 -0.60967159 7 0.10833821 -0.029286176 0.99368262 0.024469744
-8.7222538 -0.088297755 -0.6099506 7 0.10970875 -0.030067109 0.99350888 0.025008487
-8.7304354 -0.065523945 -0.61050868 7 0.10823967 -0.029954212 0.99367344 0.026175804
-8.7385721 -0.039655667 -0.6110667 7 0.10895585 -0.032911051 0.9935016 0.026766786
-8.7366505 -0.016773494 -0.61092722 7 0.1170904 -0.045085132 0.99209738 0.026908226
-8.7466354 0.010684071 -0.61162478 7 0.12141342 -0.058525592 0.99087512 0.027451383
-8.7565422 0.036678083 -0.61232233 7 0.11913754 -0.060444087 0.99103624 0.028065121
-8.7663679 0.062730961 -0.61301988 7 0.11848451 -0.066437081 0.99073082 0.027880101
-8.7821198 0.087370411 -0.61413604 7 0.11578076 -0.071592592 0.9906913 0.027865408
-8.7738619 0.11179328 -0.61357796 7 0.11855935 -0.10022945 0.9878754 0.03762104
-8.7814713 0.13794909 -0.61413604 7 0.14093898 -0.1224586 0.9824155 0.038048469
-8.7890587 0.16108538 -0.61469406 7 0.15050483 -0.13566162 0.97925699 0.037995577
-8.7984829 0.18891075 -0.61539161 7 0.15933974 -0.14800297 0.97606665 0.038080778
-8.7939329 0.21338382 -0.6151126 7 0.17397889 -0.14714552 0.97369379 0.037503671
-8.8072214 0.23985359 -0.61608922 7 0.1885858 -0.15582353 0.9696157 0.040949244
-8.80058 0.26273206 -0.61567062 15 0.21770036 -0.17714851 0.95980465 0.042621154
-8.7956724 0.29178244 -0.61539161 17 0.21709949 -0.18078323 0.95926291 0.043099195
-8.8048477 0.315166 -0.61608922 17 0.23842828 -0.1834311 0.95367968 0.042838648
-8.8079205 0.3399049 -0.61636823 16 0.24639511 -0.18008786 0.95229089 0.04500128
-8.8147831 0.36790735 -0.61692631 11 0.25601545 -0.17620797 0.95047712 0.048065968
-8.8436184 0.39385349 -0.61901897 8 0.32153541 -0.16156462 0.93301225 0.049514696
