# .PCD v0.7 - Point Cloud Data file format
VERSION 0.7
FIELDS x y z intensity normal_x normal_y normal_z curvature
SIZE 4 4 4 4 4 4 4 4
TYPE F F F F F F F F
COUNT 1 1 1 1 1 1 1 1
WIDTH 267
HEIGHT 1
VIEWPOINT 0 0 0 1 0 0 0
POINTS 267
DATA ascii
5.0656872 0.11672745 -2.398422 0 0.13364843 0.0024278848 0.99102587 6.1328392e-05
5.0388832 0.10203044 -2.385587 0 0.13363618 0.0020452798 0.99102837 6.2484243e-05
5.0283041 0.087770388 -2.3804529 0 0.13363245 0.0021216813 0.99102867 5.6161014e-05
5.0213251 0.071868181 -2.3770304 0 0.13375957 0.001924008 0.99101186 6.460338e-05
5.0486202 0.058158927 -2.3898654 0 0.13350566 0.002040467 0.99104595 5.4526179e-05
5.0198402 0.043806355 -2.3761747 0 0.13397776 0.0016436032 0.99098295 6.534045e-05
5.0054865 0.028832011 -2.3693292 0 0.13554101 0.0017451539 0.99077022 7.2429262e-05
5.0073552 0.014857781 -2.3701851 0 0.13541123 0.0014440179 0.9907884 6.8275724e-05
5.0055475 -0.014851802 -2.3693292 0 0.1355648 0.0011952666 0.99076772 6.6927627e-05
5.0036736 -0.029692747 -2.3684735 0 0.13567778 0.0012952196 0.99075216 7.0704955e-05
5.0071864 -0.043697055 -2.3701851 0 0.13538657 0.00096506509 0.99079245 7.1683913e-05
4.9998045 -0.058468904 -2.3667622 0 0.13688143 0.00088320184 0.99058712 7.1144474e-05
4.9941993 -0.072352193 -2.3641953 0 0.13742614 0.00087465101 0.99051166 6.39477e-05
5.0011926 -0.087296136 -2.3676181 0 0.13656224 0.00016780746 0.99063146 7.4598647e-05
4.9918747 -0.10195 -2.3633397 0 0.13788036 0.00044256973 0.99044883 5.8745354e-05
5.0060077 -0.11709891 -2.3701851 0 0.13610519 -0.00036313062 0.99069428 6.7397872e-05
4.9966488 -0.12996918 -2.3659067 0 0.13774429 -8.1164231e-05 0.99046785 5.7417517e-05
4.9998298 -0.14577129 -2.3676181 0 0.13698 -0.00064736733 0.99057364 6.3642168e-05
4.9994583 -0.15798774 -2.3676181 0 0.13723049 -0.00077349634 0.99053884 6.1214756e-05
4.9917111 -0.17344211 -2.3641953 0 0.1386611 -0.00058973761 0.9903397 5.462335e-05
4.9983673 -0.18939693 -2.3676181 0 0.13740011 -0.00093600084 0.99051511 5.7699934e-05
5.0123391 -0.20219256 -2.3744633 0 0.13653667 -0.0013745587 0.99063408 5.6791134e-05
5.0026493 -0.2175456 -2.3701851 0 0.13708644 -0.0013093813 0.99055827 5.4002609e-05
4.9965644 -0.2321361 -2.3676181 0 0.13787867 -0.0011792934 0.99044842 4.4165739e-05
4.997745 -0.24530488 -2.3684735 0 0.13795814 -0.0013286234 0.99043721 4.5287306e-05
4.9969497 -0.26100454 -2.3684735 0 0.13791704 -0.0014218636 0.99044269 4.4178953e-05
5.0069838 -0.27642751 -2.3736076 0 0.13712116 -0.001607922 0.99055296 4.3709199e-05
4.9881954 -0.28849107 -2.365051 0 0.13915223 -0.0014196401 0.99027002 3.3751468e-05
4.9891219 -0.30339974 -2.3659067 0 0.13864391 -0.0011499382 0.9903416 4.0878582e-05
5.0008278 -0.31900698 -2.3718963 0 0.13791807 -0.0017665896 0.99044204 3.1057232e-05
4.9999757 -0.33209804 -2.3718963 0 0.13796872 -0.0017344598 0.99043506 3.1850304e-05
4.9826779 -0.34667501 -2.3641953 0 0.139212 -0.0014649187 0.99026155 3.3577366e-05
4.9960508 -0.36250392 -2.3710406 0 0.13875939 -0.0020532124 0.99032396 3.148989e-05
4.9950848 -0.37558228 -2.3710406 0 0.13888918 -0.0021531936 0.9903056 2.6718191e-05
5.001225 -0.39009202 -2.3744633 0 0.13848948 -0.0023802274 0.99036103 3.7402184e-05
5.0017056 -0.40682107 -2.3753188 0 0.13864349 -0.0024401015 0.9903394 3.358641e-05
4.9934182 -0.41930902 -2.3718963 0 0.13913356 -0.0023087671 0.99027097 4.067778e-05
4.9939537 -0.43427959 -2.372752 0 0.13948376 -0.002778342 0.99022043 3.5367339e-05
4.9836407 -0.44828522 -2.3684735 0 0.13981825 -0.002737477 0.99017352 4.5826851e-05
4.9752498 -0.46066418 -2.365051 1 0.13958761 -0.0027113359 0.99020594 4.696981e-05
4.9810591 -0.47611198 -2.3684735 1 0.13988313 -0.003078256 0.99016315 5.064132e-05
4.9706297 -0.49000221 -2.3641953 1 0.13972701 -0.0030312184 0.99018544 4.9780901e-05
4.9620476 -0.50315148 -2.3607726 1 0.13974957 -0.0031436635 0.99018186 4.5145909e-05
4.9658365 -0.51930171 -2.3633397 2 0.13977596 -0.0032738575 0.99017775 4.9821454e-05
4.9661646 -0.53335994 -2.3641953 2 0.13979676 -0.0034109284 0.99017435 4.8042206e-05
4.9664526 -0.54742408 -2.365051 2 0.13983347 -0.0035489772 0.99016863 4.8478054e-05
4.9700966 -0.56363505 -2.3676181 2 0.1401073 -0.0036719751 0.99012947 5.3451382e-05
4.9649124 -0.5770945 -2.3659067 2 0.13972478 -0.0034367654 0.99018443 5.5203509e-05
4.9668713 -0.59138435 -2.3676181 2 0.13994372 -0.0035839751 0.99015301 5.3117703e-05
4.9525342 -0.60458535 -2.3616285 2 0.1395444 -0.0033901667 0.99021 5.8966467e-05
4.9580011 -0.61930931 -2.365051 2 0.13983166 -0.0035846545 0.99016875 5.7004509e-05
4.9598389 -0.63361031 -2.3667622 3 0.13980204 -0.0036007378 0.99017292 5.1013987e-05
4.9596162 -0.64942366 -2.3676181 3 0.13959914 -0.0035902343 0.99020159 5.5703073e-05
4.9543157 -0.66192687 -2.3659067 3 0.13955475 -0.0036763221 0.99020749 6.080827e-05
4.9487476 -0.67613429 -2.3641953 3 0.13946536 -0.0037724464 0.99021977 5.2105104e-05
4.9483891 -0.69192821 -2.365051 3 0.13932006 -0.0037133782 0.9902404 5.510807e-05
4.9428587 -0.70523334 -2.3633397 3 0.13921107 -0.0038839197 0.99025512 5.2023875e-05
4.9390812 -0.71877337 -2.362484 3 0.13910735 -0.0038761196 0.99026972 4.9582213e-05
4.9369268 -0.73342472 -2.362484 3 0.13902867 -0.0038096074 0.99028105 4.5275985e-05
4.9402213 -0.74802023 -2.365051 4 0.13927996 -0.0040765735 0.99024463 4.1771353e-05
4.9361939 -0.7623989 -2.3641953 4 0.13922548 -0.0040690987 0.99025238 4.2195428e-05
4.9285531 -0.77619785 -2.3616285 4 0.13912337 -0.0042051412 0.99026614 4.1173913e-05
4.9315825 -0.7916773 -2.3641953 4 0.13910779 -0.0043094703 0.99026787 4.6890575e-05
4.9224963 -0.8025614 -2.3607726 4 0.13902779 -0.0044189119 0.99027866 4.4128392e-05
4.9217343 -0.81831843 -2.3616285 4 0.13922222 -0.0048938589 0.99024898 4.7624264e-05
4.9194303 -0.83205926 -2.3616285 4 0.1389575 -0.0049147308 0.99028611 5.482115e-05
4.9099612 -0.84456795 -2.3582056 4 0.13891017 -0.0050230245 0.99029225 5.8015707e-05
4.9037223 -0.85936469 -2.3564944 4 0.13888335 -0.0052649933 0.99029475 6.2630323e-05
4.9084225 -0.87432307 -2.3599169 5 0.13734651 -0.0044796276 0.99051297 8.0408019e-05
4.9041829 -0.88770473 -2.3590615 5 0.13703339 -0.0045294589 0.99055606 8.2127022e-05
4.8942585 -0.90179694 -2.3556385 6 0.1369482 -0.0048735854 0.99056625 7.8855293e-05
4.8934979 -0.91579318 -2.3564944 6 0.13580629 -0.0042071161 0.99072641 9.551955e-05
4.898025 -0.93080485 -2.3599169 6 0.13532786 -0.0043905522 0.99079108 0.00010009699
4.8899174 -0.94430512 -2.3573501 7 0.13524474 -0.0047233878 0.99080098 0.00010138334
4.8854871 -0.95760906 -2.3564944 6 0.1353379 -0.0056243772 0.99078357 0.00011379861
4.8845668 -0.97160077 -2.3573501 7 0.1350081 -0.0059745321 0.99082643 0.00013292357
4.8744035 -0.98550832 -2.3539274 7 0.1355754 -0.0078933174 0.99073559 0.00016324264
4.8698611 -0.99875331 -2.3530719 7 0.13548282 -0.00829612 0.99074495 0.00016510041
4.8666997 -1.0140474 -2.3530719 7 0.13510847 -0.0084018735 0.9907952 0.00017112879
4.8677449 -1.026682 -2.3547831 7 0.13519408 -0.009090336 0.99077743 0.00018499905
4.8697982 -1.0431052 -2.3573501 7 0.13526815 -0.0098460177 0.99076015 0.00019640668
4.856267 -1.0543989 -2.352216 7 0.1352955 -0.010645079 0.99074811 0.00021234181
4.8550692 -1.0683446 -2.3530719 7 0.13520512 -0.011176182 0.9907546 0.00022012908
4.8534532 -1.0839859 -2.3539274 7 0.13510768 -0.011680361 0.99076211 0.00022754695
4.8484526 -1.0979823 -2.3530719 7 0.13493799 -0.012170739 0.99077928 0.00022676804
4.8490853 -1.1114796 -2.3547831 7 0.13510074 -0.013474858 0.99074024 0.00025133931
4.8440056 -1.1254531 -2.3539274 7 0.13533391 -0.01462626 0.99069208 0.0002771389
4.8373246 -1.1381477 -2.352216 7 0.1351124 -0.015269179 0.99071258 0.0002807682
4.8302083 -1.1524998 -2.3505049 9 0.13495353 -0.016214678 0.9907192 0.00029368664
4.8304853 -1.1668327 -2.352216 10 0.13451372 -0.017340438 0.99075997 0.00030979174
4.8267961 -1.1820023 -2.352216 8 0.13404971 -0.018902512 0.9907943 0.00033868678
4.8186283 -1.1924899 -2.349649 8 0.13414057 -0.019712931 0.99076623 0.00035102235
4.8148584 -1.2076223 -2.349649 10 0.13387293 -0.020453669 0.99078745 0.00036049302
4.8165107 -1.2232379 -2.352216 10 0.13380972 -0.021853363 0.99076611 0.00038079583
4.8078232 -1.2353337 -2.349649 12 0.13368881 -0.02293315 0.990758 0.00039269542
4.7991061 -1.2473905 -2.3470819 11 0.13379084 -0.023690365 0.99072635 0.00040627609
4.7969122 -1.2629216 -2.3479378 14 0.13371882 -0.02460843 0.99071378 0.00041955351
4.7968597 -1.2772423 -2.349649 19 0.13378173 -0.026169239 0.9906652 0.00043693112
4.7812805 -1.2865082 -2.3436594 21 0.13369116 -0.026721494 0.99066269 0.00044310905
4.7737274 -1.3005724 -2.3419483 26 0.13345723 -0.027913768 0.99066138 0.00045917282
4.773562 -1.3148581 -2.3436594 33 0.13323554 -0.029017271 0.99065953 0.00046671624
4.7678986 -1.3285306 -2.3428037 35 0.13329712 -0.030290931 0.9906131 0.00048048401
4.7604556 -1.3416905 -2.3410923 35 0.13311172 -0.031187898 0.99061018 0.00048964558
4.7638822 -1.3561285 -2.3445151 33 0.13318548 -0.032581165 0.99055541 0.00049750216
4.7511511 -1.3677567 -2.3402369 33 0.1330277 -0.033322245 0.99055195 0.00049911946
4.7503023 -1.3836874 -2.3419483 20 0.13288428 -0.034145843 0.99054319 0.00050813123
4.7570682 -1.3991791 -2.3470819 16 0.13270721 -0.035286184 0.99052697 0.00052091922
4.7491846 -1.4130862 -2.3453708 13 0.13261233 -0.036246933 0.99050492 0.00052638754
4.7434888 -1.4258225 -2.3445151 14 0.13268277 -0.037444003 0.99045104 0.00053659722
4.7360287 -1.4380126 -2.3428037 15 0.13258444 -0.038636342 0.99041837 0.00054713566
4.7337227 -1.4517626 -2.3436594 16 0.13257857 -0.03980203 0.99037302 0.00055454281
4.7313776 -1.4655108 -2.3445151 16 0.13261913 -0.04087254 0.99032402 0.00056407833
4.7232995 -1.479287 -2.3428037 21 0.13247119 -0.041742597 0.99030751 0.00056883536
4.7191501 -1.4924711 -2.3428037 21 0.13228126 -0.042966016 0.99028057 0.00057585922
4.7097979 -1.503994 -2.3402369 21 0.13186389 -0.044073705 0.9902876 0.000585131
4.7001538 -1.5162966 -2.3376698 21 0.13208844 -0.044874869 0.99022168 0.00058445457
4.6939154 -1.5296754 -2.3368142 16 0.13203149 -0.045947272 0.99018008 0.00059373531
4.6879077 -1.5422124 -2.3359585 16 0.13241699 -0.047158875 0.99007159 0.00059558405
4.6815963 -1.5555449 -2.3351028 18 0.13219708 -0.048192542 0.99005121 0.00060061016
4.67696 -1.5694287 -2.3351028 21 0.13104345 -0.047532301 0.99023646 0.00079253322
4.6728354 -1.5816674 -2.3351028 24 0.13093768 -0.048901223 0.99018383 0.00079332583
4.6729751 -1.5980946 -2.3376698 28 0.13104525 -0.0499762 0.99011588 0.0007887524
4.6650758 -1.6099583 -2.3359585 33 0.13146117 -0.050903533 0.99001354 0.00078997907
4.663693 -1.6249825 -2.3376698 41 0.13139145 -0.051764339 0.98997813 0.00077793311
4.65061 -1.6350017 -2.3333917 48 0.13132253 -0.052501574 0.98994845 0.00076941872
4.6335258 -1.6453694 -2.3274019 53 0.13272628 -0.053447742 0.98971057 0.00075867475
4.6292024 -1.6574943 -2.3274019 49 0.13210338 -0.054200679 0.98975301 0.00074950955
4.6174641 -1.6687645 -2.3239791 57 0.13160931 -0.054947656 0.98977757 0.00074952736
4.6175871 -1.6843158 -2.3265462 49 0.13125552 -0.05596162 0.98976779 0.00074426399
4.614562 -1.6978282 -2.3274019 61 0.13091914 -0.056759957 0.9897669 0.00074234098
4.6162829 -1.7140294 -2.3308246 61 0.13083288 -0.05793507 0.98971021 0.00072858541
4.6077914 -1.7264498 -2.3291132 49 0.13042137 -0.058570012 0.9897272 0.00072436925
4.5975757 -1.7381961 -2.3265462 38 0.13001679 -0.05931801 0.98973584 0.00070890854
4.5896316 -1.7489393 -2.3248351 38 0.13043088 -0.059575114 0.98966587 0.0006917218
4.5894833 -1.7644953 -2.3274019 38 0.13011405 -0.060355563 0.98966026 0.00068954722
4.5808573 -1.7767973 -2.3256905 42 0.1296601 -0.060998622 0.98968053 0.00069356064
4.5668573 -1.8173732 -2.3265462 38 0.12753522 -0.061739594 0.98991066 0.00083917024
4.5991349 -1.8144296 -2.3402369 53 0.1277474 -0.060656216 0.98995018 0.00084432511
4.5838957 -1.8380693 -2.3376698 49 0.12648444 -0.061660077 0.99005038 0.00083385856
4.6227012 -1.808825 -2.349649 49 0.12743102 -0.059873056 0.99003863 0.00085727638
4.5965314 -1.8599194 -2.3470819 42 0.12598869 -0.062063929 0.99008828 0.00083456642
4.6013632 -1.8768446 -2.352216 42 0.12553549 -0.062604174 0.99011189 0.00083753804
4.5977759 -1.8903742 -2.3530719 46 0.12503594 -0.062951669 0.99015307 0.00083291688
4.6125193 -1.9115112 -2.3633397 42 0.12475378 -0.063069694 0.99018115 0.00081656402
4.6098266 -1.927387 -2.365051 38 0.12423694 -0.063771717 0.99020118 0.00082201156
4.5894337 -1.9339346 -2.3573501 49 0.12422865 -0.064265788 0.99017024 0.00082433951
4.6023178 -1.9545162 -2.3667622 42 0.12275959 -0.062962085 0.99043721 0.00098541996
4.5728917 -1.958999 -2.3547831 53 0.12400708 -0.064975642 0.99015164 0.00081830681
4.5640841 -1.9703286 -2.3530719 65 0.12229738 -0.064149782 0.9904182 0.0010107354
4.570168 -1.9881141 -2.3590615 61 0.12194642 -0.06449081 0.99043936 0.00099224143
4.5808039 -2.0089254 -2.3676181 38 0.12172445 -0.064628288 0.99045765 0.00097645412
4.5751762 -2.0217097 -2.3676181 42 0.12109479 -0.064871639 0.99051893 0.0009654754
4.5823674 -2.0411599 -2.3744633 35 0.12092257 -0.065162957 0.99052083 0.00096274092
4.5630984 -2.0488234 -2.3676181 38 0.12081812 -0.065452412 0.99051452 0.00095696008
4.5540652 -2.0600681 -2.3659067 38 0.12052666 -0.065798603 0.99052709 0.00095437258
4.5367799 -2.0675297 -2.3599169 53 0.11996256 -0.066237852 0.99056625 0.00095132453
4.5618377 -2.0953176 -2.3761747 42 0.12038514 -0.065956555 0.99053377 0.00094981713
4.5441165 -2.1035278 -2.3701851 46 0.11971992 -0.066191994 0.99059868 0.00094686396
4.5480547 -2.1207929 -2.3753188 49 0.11948476 -0.066477858 0.99060792 0.00094963313
4.551559 -2.138891 -2.3804529 46 0.11929765 -0.066445649 0.99063265 0.00095017767
4.544817 -2.1531796 -2.3804529 53 0.11884726 -0.066159971 0.99070591 0.0009479025
4.5244799 -2.1580665 -2.372752 46 0.11825201 -0.066687308 0.99074179 0.00095176627
4.5245743 -2.1746137 -2.3761747 42 0.11772346 -0.066274114 0.99083245 0.00095775659
4.5201111 -2.1880276 -2.3770304 49 0.11756336 -0.066436641 0.99084061 0.00095935969
4.5253572 -2.2061868 -2.3830199 46 0.11746132 -0.066314213 0.99086088 0.00097068259
4.5151596 -2.2187982 -2.3813086 46 0.11717923 -0.066089518 0.99090928 0.00096877967
4.5101762 -2.2329872 -2.3821642 33 0.11692533 -0.066059127 0.99094135 0.00096656405
4.4978433 -2.2415617 -2.3787417 31 0.11654992 -0.065930486 0.9909941 0.00097062078
4.5020866 -2.2613609 -2.3847313 38 0.11678563 -0.066030815 0.9909597 0.00096722954
4.4828486 -2.2673969 -2.3778858 42 0.11637059 -0.065672509 0.9910323 0.00097724388
4.4712696 -2.2782259 -2.3753188 38 0.11618394 -0.065579765 0.99106032 0.00098546559
4.4387589 -2.278275 -2.3616285 42 0.1156218 -0.065292723 0.99114507 0.0010152315
4.4355869 -2.3080366 -2.3667622 35 0.11570171 -0.064366005 0.99119633 0.0010186009
4.4275618 -2.2881715 -2.3590615 38 0.1154322 -0.064669177 0.99120796 0.0010387956
4.4323268 -2.3220918 -2.3684735 38 0.11562186 -0.064091876 0.99122339 0.001000467
4.4146328 -2.3285565 -2.362484 46 0.11554662 -0.063861832 0.991247 0.0010329254
4.3981256 -2.336556 -2.3573501 38 0.11538877 -0.063684739 0.9912768 0.0010519258
4.4082947 -2.359746 -2.3667622 38 0.11549104 -0.062700488 0.99132764 0.0010217613
4.4068761 -2.3738506 -2.3693292 38 0.11550776 -0.062400378 0.99134463 0.001012798
4.4014025 -2.3877776 -2.3701851 35 0.11559391 -0.061451051 0.99139392 0.0010217446
4.3974714 -2.4025598 -2.3718963 42 0.11575811 -0.060757995 0.99141741 0.001019291
4.3895822 -2.413193 -2.3710406 35 0.11543278 -0.060306333 0.99148291 0.0010118019
4.3867235 -2.4295993 -2.3736076 35 0.11573895 -0.059719089 0.99148279 0.0010019941
4.3767638 -2.440079 -2.3718963 35 0.11562857 -0.058878995 0.99154592 0.001003139
4.3415565 -2.4363678 -2.3564944 32 0.11477876 -0.058901008 0.99164337 0.00104792
4.3464708 -2.4571121 -2.3633397 38 0.11485153 -0.05757599 0.99171275 0.0010341163
4.3474479 -2.4737101 -2.3676181 33 0.11507184 -0.056844827 0.99172938 0.0010183705
4.3333817 -2.4837601 -2.3641953 38 0.11470222 -0.056366678 0.99179941 0.001021325
4.3206 -2.4914842 -2.3607726 42 0.11437159 -0.056092635 0.99185318 0.0010302411
4.3131886 -2.5042925 -2.3607726 49 0.11427318 -0.055347681 0.99190634 0.0010312169
4.3046179 -2.5154154 -2.3599169 46 0.11426605 -0.054583609 0.9919495 0.0010391413
4.2971354 -2.5281765 -2.3599169 42 0.11429185 -0.054098614 0.99197316 0.0010313793
4.2911706 -2.5418363 -2.3607726 42 0.11431939 -0.053013161 0.99202853 0.0010250736
4.2856088 -2.5547357 -2.3616285 38 0.11596029 -0.052310567 0.99187541 0.00089289865
4.2733598 -2.5646493 -2.3590615 35 0.11596709 -0.05184482 0.99189907 0.00089108595
4.2626367 -2.5754473 -2.3573501 46 0.11589611 -0.051139157 0.99194396 0.00089829147
4.2585182 -2.5892193 -2.3590615 49 0.11556968 -0.050516352 0.99201399 0.00088659569
4.255897 -2.6039317 -2.3616285 38 0.11521253 -0.049665906 0.99209845 0.00086943066
4.2419949 -2.6127553 -2.3582056 42 0.11498127 -0.048969414 0.9921599 0.00086722104
4.2316093 -2.6226864 -2.3564944 46 0.11684649 -0.048136879 0.99198264 0.00067769695
4.2181334 -2.6306667 -2.3530719 42 0.11674318 -0.047782112 0.99201202 0.00066963187
4.2067862 -2.6419828 -2.3513603 46 0.11633183 -0.047189064 0.99208879 0.00066794083
4.1963358 -2.651788 -2.349649 46 0.11624935 -0.04644474 0.9921335 0.00066396821
4.1812873 -2.6586468 -2.3453708 46 0.11600515 -0.045978934 0.9921838 0.00066659582
4.1733804 -2.6710413 -2.3453708 46 0.11562043 -0.044865061 0.99227977 0.00064566539
4.159358 -2.679496 -2.3419483 57 0.11551095 -0.044403132 0.99231327 0.00064131734
4.1539526 -2.6945169 -2.3436594 38 0.11549699 -0.043371689 0.99236047 0.00062874274
4.147356 -2.7046595 -2.3436594 42 0.11508132 -0.043157045 0.99241811 0.00062500435
4.1176844 -2.7037845 -2.3316801 42 0.11385787 -0.043370176 0.99254996 0.00064441765
4.1217089 -2.7239633 -2.3385253 46 0.11404055 -0.041877504 0.99259311 0.00060681667
4.1220908 -2.7397478 -2.3428037 46 0.11421237 -0.040480644 0.99263126 0.00056607177
4.1184516 -2.7549813 -2.3453708 53 0.11444886 -0.039201066 0.9926554 0.00054465816
4.109776 -2.7679062 -2.3453708 42 0.1143695 -0.038134787 0.99270606 0.00052031234
4.0830584 -2.7654779 -2.3342471 49 0.11365606 -0.038117737 0.99278867 0.00055423862
4.0823035 -2.7826707 -2.3385253 57 0.11387692 -0.037339859 0.9927929 0.0005238711
4.0869555 -2.8046875 -2.3462265 38 0.11419183 -0.035673659 0.99281806 0.00048219011
4.0815783 -2.8156922 -2.3470819 42 0.11408775 -0.034518104 0.99287081 0.00045998828
4.0697432 -2.8264387 -2.3453708 42 0.1135062 -0.034254882 0.99294657 0.00045559229
4.0583754 -2.8364301 -2.3436594 35 0.11337778 -0.033195473 0.99299723 0.00043831166
4.0317087 -2.8335323 -2.3325357 42 0.11512055 -0.03375259 0.99277794 0.00027965187
4.0247602 -2.8465264 -2.3333917 46 0.11485685 -0.032802913 0.99284029 0.00024971986
4.0162964 -2.8584554 -2.3333917 42 0.11483676 -0.031875506 0.99287283 0.00023589456
4.0038891 -2.8665028 -2.3308246 33 0.11504301 -0.031569608 0.99285877 0.00022979314
3.9997663 -2.8815401 -2.3333917 35 0.11445858 -0.031192658 0.99293816 0.00022530071
3.9868088 -2.8902118 -2.3308246 42 0.11432009 -0.031183312 0.99295443 0.00021867985
3.9758005 -2.8992033 -2.3291132 38 0.1142847 -0.031053569 0.9929626 0.00021248394
3.9647737 -2.9081564 -2.3274019 42 0.11372721 -0.030654995 0.99303901 0.00019911765
3.9541638 -2.919524 -2.3265462 42 0.11339778 -0.030427827 0.9930836 0.00019261606
3.940701 -2.9255557 -2.3231235 38 0.11346819 -0.030399244 0.99307644 0.00018844153
3.9314907 -2.9379215 -2.3231235 35 0.11334956 -0.030340457 0.99309182 0.00018777751
3.9261615 -2.9510612 -2.3248351 33 0.11303836 -0.029414548 0.99315506 0.00016589777
3.9106951 -2.9565625 -2.3205566 32 0.11301201 -0.029204713 0.99316436 0.0001574171
3.9057031 -2.9721179 -2.3231235 35 0.11283316 -0.028395349 0.99320817 0.00014373282
3.897388 -2.9830132 -2.3231235 33 0.11280593 -0.02843363 0.99321014 0.00014949804
3.8827913 -2.9901519 -2.319701 30 0.11308763 -0.028448902 0.99317765 0.00014751041
3.8767602 -3.0038736 -2.3214121 32 0.11298473 -0.028098045 0.99319935 0.0001443011
3.865505 -3.0124655 -2.319701 32 0.1130062 -0.027734663 0.9932071 0.0001391625
3.8556542 -3.0221329 -2.318845 33 0.11291844 -0.027573263 0.99322158 0.00013303108
3.8452516 -3.0324402 -2.3179896 35 0.11259651 -0.027541995 0.99325895 0.0001307802
3.8316338 -3.0380044 -2.3145669 38 0.11257777 -0.027569618 0.99326032 0.00012864535
3.8172996 -3.0473099 -2.312 42 0.11220605 -0.027566113 0.99330258 0.00013589724
3.8101847 -3.0590897 -2.3128555 31 0.11232932 -0.027290277 0.99329621 0.00013408778
3.8035696 -3.07019 -2.3137114 32 0.11221389 -0.027318075 0.99330848 0.00013446034
3.7910993 -3.079844 -2.312 35 0.11195272 -0.027096437 0.99334401 0.00013338045
3.7816234 -3.0886152 -2.3111444 35 0.11210375 -0.026640909 0.9933393 0.00013033977
3.7640624 -3.0929363 -2.3060102 32 0.1121228 -0.026176447 0.99334961 0.0001331688
3.7562625 -3.1052423 -2.3068659 33 0.11233453 -0.025630629 0.99333984 0.00013110759
3.7512016 -3.1198416 -2.309433 31 0.11245055 -0.025320061 0.99333471 0.00012489727
3.7369285 -3.1256657 -2.3060102 31 0.11246333 -0.025303608 0.99333364 0.00012139714
3.7262549 -3.1355753 -2.3051548 32 0.11258584 -0.025187843 0.99332267 0.00012030306
3.7188642 -3.1471367 -2.3060102 35 0.11247975 -0.024576647 0.99334997 0.00011490604
3.7073076 -3.1551659 -2.3042989 32 0.112599 -0.024369026 0.99334168 0.00011838887
3.6932583 -3.1632695 -2.3017318 28 0.1124356 -0.024147997 0.99336559 0.00011406854
3.6885195 -3.17711 -2.3042989 31 0.11200043 -0.023964008 0.99341917 0.00010883052
3.6700683 -3.1791129 -2.2983093 23 0.11214291 -0.024035065 0.99340135 0.00011280789
3.6633456 -3.1923637 -2.3000207 20 0.11194729 -0.023753816 0.99343014 0.00011157413
3.6544163 -3.2025812 -2.3000207 22 0.11184626 -0.023745349 0.99344182 0.00011160861
3.6503222 -3.2181916 -2.3034434 13 0.11179157 -0.023640735 0.9934504 0.00011206629
3.6353478 -3.2242105 -2.3000207 12 0.11235004 -0.023577172 0.99338895 0.00010620474
3.6257656 -3.2349823 -2.3000207 12 0.11215977 -0.023389956 0.99341494 0.00010861082
3.6153717 -3.2438872 -2.299165 8 0.11199027 -0.023568004 0.99342984 0.00010716043
3.6043892 -3.2533891 -2.2983093 4 0.11163832 -0.023548627 0.99346983 0.00010796587
3.5899358 -3.2585819 -2.2948868 4 0.11145408 -0.02364241 0.99348837 0.00011352984
3.5882614 -3.2765326 -2.3000207 3 0.1107031 -0.02326145 0.9935813 0.00010732171
3.5825176 -3.2908337 -2.3025877 2 0.11061521 -0.023365846 0.99358857 0.00010777682
3.5945597 -3.3204505 -2.3162782 0 0.11009193 -0.023274401 0.99364883 0.00010701291
3.5852735 -3.3304756 -2.3162782 0 0.10996199 -0.023253461 0.99366373 0.00010975212
