# .PCD v0.7 - Point Cloud Data file format
VERSION 0.7
FIELDS x y z intensity normal_x normal_y normal_z curvature
SIZE 4 4 4 4 4 4 4 4
TYPE F F F F F F F F
COUNT 1 1 1 1 1 1 1 1
WIDTH 189
HEIGHT 1
VIEWPOINT 0 0 0 1 0 0 0
POINTS 189
DATA ascii
-9.3039341 -5.1381664 -0.4956477 9 0.050064567 0.020494077 -0.99853569 0
-9.2902479 -5.0925884 -0.49406388 9 0.05090047 0.020326369 -0.99849689 0
-9.2877588 -5.0596471 -0.49322537 9 0.049955551 0.020458987 -0.99854189 0
-9.2816439 -5.0206604 -0.49210736 6 0.050393634 0.020357292 -0.99852198 0
-9.2824192 -4.9855361 -0.49136204 7 0.051358193 0.020179249 -0.99847639 0
-9.283967 -4.953012 -0.49070987 7 0.051659644 0.02012367 -0.99846202 0
-9.2889357 -4.9223886 -0.490244 6 0.051361278 0.020153848 -0.99847674 0
-9.2831364 -4.8820257 -0.48912606 6 0.052517589 0.019976089 -0.99842018 0
-9.2604713 -4.8391991 -0.48726267 10 0.052999228 0.019908484 -0.9983961 0
-9.2464151 -4.7969809 -0.48577201 15 0.052747101 0.019901162 -0.99840957 0
-9.2517262 -4.7649531 -0.48530617 18 0.052602407 0.019898839 -0.99841732 0
-9.2507668 -4.7318196 -0.48456085 13 0.053602755 0.019788144 -0.99836624 0
-9.2540789 -4.6989241 -0.48400185 5 0.053840205 0.019741492 -0.99835443 0
-9.2572756 -4.66605 -0.48344284 6 0.05439955 0.019670542 -0.99832541 0
-9.2577648 -4.6339207 -0.48279068 5 0.053538818 0.019709235 -0.99837124 0
-9.2625265 -4.6019883 -0.48232484 6 0.055584259 0.01956309 -0.99826235 0
-9.2582226 -4.5656495 -0.48139319 6 0.055537377 0.019529756 -0.99826562 0
-9.2665548 -4.5396395 -0.48120686 6 0.057709381 0.019398365 -0.99814498 0
-9.2630262 -4.5058789 -0.48036835 6 0.056158002 0.019437376 -0.99823266 0
-9.2645407 -4.4706798 -0.47971618 5 0.056472994 0.019389173 -0.99821585 0
-9.2553682 -4.4344311 -0.47859815 5 0.057518769 0.019310201 -0.99815768 0
-9.2558556 -4.4009447 -0.47794598 4 0.057803318 0.019267851 -0.99814206 0
-9.2544174 -4.3666444 -0.47720066 5 0.058033265 0.019217696 -0.99812967 0
-9.2575302 -4.3365464 -0.47673482 5 0.059085242 0.019098876 -0.99807024 0
-9.2478657 -4.3005676 -0.47561681 4 0.060217857 0.019029593 -0.99800384 0
-9.2478867 -4.2672501 -0.47496465 4 0.060675751 0.018983472 -0.99797696 0
-9.2477922 -4.2339702 -0.47431248 4 0.068251669 0.018836034 -0.99749035 0
-9.2439423 -4.1990776 -0.473474 4 0.067130312 0.018814104 -0.99756682 0
-9.2483473 -4.1699619 -0.47310132 4 0.078611664 0.018634792 -0.9967311 0
-9.2526627 -4.1408548 -0.47272867 4 0.071314119 0.018634487 -0.99727976 0
-9.2678423 -4.116622 -0.47291499 5 0.068978429 0.018577993 -0.99744523 0
-9.2661018 -4.0810452 -0.47216967 4 0.063265227 0.018518247 -0.99782497 0
-9.2591553 -4.0471516 -0.47123799 4 0.056109317 0.018452816 -0.99825418 0
-9.264493 -4.0148654 -0.47086534 4 0.047710661 0.018386198 -0.99869204 0
-9.2657957 -3.9866481 -0.4703995 4 0.049980801 0.018312523 -0.9985823 0
-9.2665586 -3.9544332 -0.4698405 4 -0.039162893 -0.018249094 0.99906617 0
-9.2697353 -3.9214118 -0.46937463 4 -0.021415595 -0.018099932 0.99960679 0
-9.2608709 -3.8910127 -0.46844301 4 -0.017945465 -0.018063027 0.99967575 0
-9.2693615 -3.8603606 -0.46825662 4 0.0046268157 -0.017966012 0.99982786 0
-9.2696943 -3.8282671 -0.46769768 4 0.0032089669 -0.017850107 0.99983549 0
-9.2648973 -3.7979231 -0.46695229 4 -0.0043752398 -0.017787389 0.99983221 0
-9.2650194 -3.7659047 -0.46639329 4 0.0033075456 -0.017726595 0.9998374 0
-9.265687 -3.7322977 -0.46583429 4 -0.0059768469 -0.017552841 0.99982804 0
-9.2587299 -3.7013545 -0.4649958 4 -0.013570867 -0.017418746 0.99975622 0
-9.2659569 -3.6723969 -0.46480948 4 -0.0078249862 -0.017363194 0.99981856 0
-9.2600775 -3.6383097 -0.46397096 4 -0.0018890327 -0.017308645 0.99984843 0
-9.262126 -3.6111534 -0.46359831 4 0.0053652935 -0.017273219 0.9998365 0
-9.2597542 -3.5786145 -0.46294615 4 0.016468953 -0.017259972 0.99971539 0
-9.2690868 -3.5487919 -0.46285298 4 -0.00028903619 -0.01702494 0.99985504 0
-9.2559338 -3.5159991 -0.46173498 4 0.061243448 -0.017431973 0.99797064 0
-9.2563677 -3.4866159 -0.46126914 4 -0.012582561 -0.01665147 0.9997822 0
-9.2622643 -3.4538074 -0.46098965 4 0.00047342278 -0.016642483 0.99986136 0
-9.2656517 -3.427469 -0.46071014 4 -0.024782902 -0.016289189 0.99956012 0
-9.2620583 -3.3967652 -0.46005797 4 -0.030698473 -0.016107485 0.99939889 0
-9.2595387 -3.3628788 -0.45940581 4 -0.028893255 -0.01601712 0.99945408 0
-9.2701912 -3.3393023 -0.45949897 4 -0.01740282 -0.016105341 0.9997189 0
-9.2542915 -3.300766 -0.45819461 4 -0.019049475 -0.015925443 0.99969172 0
-9.2583923 -3.2712984 -0.45791516 4 -0.027618574 -0.015759746 0.99949431 0
-9.2556133 -3.2430818 -0.45735615 4 -0.010226942 -0.015872648 0.99982172 0
-9.2500944 -3.2103667 -0.45661077 4 -0.01398459 -0.015721319 0.99977857 0
-9.2482443 -3.1790102 -0.45605183 4 -0.0075452775 -0.015747275 0.99984759 0
-9.2476301 -3.1499503 -0.45558596 4 -0.021698926 -0.015374156 0.99964637 0
-9.2536936 -3.1196077 -0.4553996 4 -0.028228408 -0.015127629 0.99948704 0
-9.2491045 -3.0893235 -0.45474744 4 -0.035437968 -0.014855919 0.9992615 0
-9.246315 -3.0597162 -0.45418844 4 -0.034635596 -0.014737077 0.99929136 0
-9.2510262 -3.0326409 -0.45400211 4 -0.03881361 -0.014532878 0.99914074 0
-9.2504816 -3.0020971 -0.45353627 4 0.056364816 0.014089579 -0.99831086 0
-9.2512217 -2.9738073 -0.45316362 4 0.056568138 0.013984546 -0.99830085 0
-9.2490969 -2.9410942 -0.45260462 4 0.064479671 0.013819444 -0.99782336 0
-9.2434254 -2.9126685 -0.45195246 4 0.070046917 0.013720548 -0.99744934 0
-9.2482128 -2.8840401 -0.45176613 4 0.06815964 0.013672245 -0.99758077 0
-9.2490931 -2.8542325 -0.45139346 4 0.065854676 0.01364255 -0.99773592 0
-9.2460556 -2.8232758 -0.45083445 4 0.065009445 0.013602783 -0.99779195 0
-9.248168 -2.7957103 -0.45055497 4 0.063759401 0.013558917 -0.99787319 0
-9.248765 -2.7659698 -0.45018229 4 0.064864263 0.013541642 -0.99780226 0
-9.2406521 -2.7372053 -0.44943696 4 0.063917495 0.013547809 -0.99786323 0
-9.2415352 -2.7059176 -0.44906428 4 0.061916389 0.013488153 -0.99799013 0
-9.2380085 -2.6751504 -0.44850525 4 0.060943473 0.013422817 -0.99805093 0
-9.2401428 -2.6460807 -0.4482258 4 0.060586937 0.013382238 -0.99807322 0
-9.2393513 -2.619698 -0.44785309 4 0.059654847 0.013307437 -0.99813038 0
-9.241312 -2.5906568 -0.44757363 4 0.059016623 0.01324395 -0.99816912 0
-9.2369604 -2.5616364 -0.44701463 4 0.058483575 0.013176006 -0.99820143 0
-9.2464466 -2.5347457 -0.44710776 4 0.057967763 0.013114297 -0.99823231 0
-9.246213 -2.5052118 -0.44673508 4 0.057967614 0.013081945 -0.99823278 0
-9.2478151 -2.4762161 -0.4464556 4 0.056916166 0.012959734 -0.99829489 0
-9.2411757 -2.4468017 -0.44580343 4 0.056545999 0.012892511 -0.99831676 0
-9.2425966 -2.4178541 -0.44552392 4 0.056823473 0.0128909 -0.99830097 0
-9.2314882 -2.3891456 -0.44468543 4 0.056464378 0.012824607 -0.99832225 0
-9.22927 -2.3576593 -0.44421959 4 0.057174012 0.012877768 -0.99828112 0
-9.2396917 -2.3328545 -0.44440594 4 0.056533206 0.012778293 -0.99831897 0
-9.2248487 -2.3017249 -0.4433811 4 0.056421816 0.012757942 -0.99832553 0
-9.2242737 -2.270822 -0.44300842 4 0.056705538 0.012748883 -0.99830955 0
-9.2344618 -2.2459979 -0.44319478 4 0.056584276 0.012726087 -0.99831665 0
-9.2313719 -2.2162564 -0.44272894 4 0.056587286 0.0126941 -0.99831694 0
-9.2336369 -2.1895463 -0.44254258 4 0.056213599 0.012596421 -0.99833935 0
-9.247118 -2.1671901 -0.44291526 5 0.056321558 0.012583582 -0.99833339 0
-9.2499866 -2.1372311 -0.44272894 4 0.05620832 0.012529921 -0.99834043 0
-9.2543411 -2.1093299 -0.44263577 4 0.056035884 0.012466467 -0.99835092 0
-9.2559319 -2.0842183 -0.44244942 4 0.055996869 0.012442782 -0.99835336 0
-9.2604847 -2.0546968 -0.44235626 4 0.056008186 0.012413388 -0.99835312 0
-9.2775412 -2.033011 -0.44291526 4 0.056094315 0.012401428 -0.99834847 0
-9.2796268 -2.0046306 -0.44272894 4 0.056069914 0.012376176 -0.99835014 0
-9.2894411 -1.9779224 -0.44291526 4 0.056383885 0.012418022 -0.99833196 0
-9.3011351 -1.9515817 -0.44319478 4 0.0563231 0.01237115 -0.99833596 0
-9.3065491 -1.9255998 -0.44319478 4 0.05590428 0.012228745 -0.99836129 0
-9.3161364 -1.898778 -0.4433811 4 0.056704748 0.012404616 -0.99831396 0
-9.3409891 -1.8766894 -0.44431275 4 0.05694278 0.012437355 -0.99829996 0
-9.3422737 -1.8498205 -0.44412643 4 0.05715023 0.012465346 -0.9982878 0
-9.3617659 -1.8231345 -0.44477859 4 0.057381898 0.012499702 -0.99827403 0
-9.3648586 -1.7966075 -0.44468543 4 0.057908326 0.012629693 -0.99824208 0
-9.3796558 -1.7723029 -0.44515127 4 0.057833228 0.012574864 -0.99824709 0
-9.3924236 -1.7475686 -0.44552392 4 0.058333274 0.012703639 -0.99821621 0
-9.3956013 -1.7193328 -0.44543076 4 0.058321651 0.012660096 -0.99821764 0
-9.4124603 -1.6935681 -0.44598976 4 0.058907427 0.012822789 -0.99818105 0
-9.425313 -1.6670268 -0.44636244 4 0.05834718 0.012586859 -0.99821699 0
-9.4338675 -1.6413863 -0.44654876 4 0.059111767 0.012858857 -0.99816853 0
-9.4505119 -1.6154051 -0.44710776 4 0.060505413 0.013280792 -0.99807942 0
-9.4527388 -1.5903283 -0.44701463 4 0.060114339 0.013148064 -0.99810487 0
-9.471487 -1.5629003 -0.44766679 4 0.061097641 0.013473841 -0.99804085 0
-9.4856739 -1.5380452 -0.44813263 4 0.061852474 0.013731923 -0.99799091 0
-9.4983511 -1.5094891 -0.44850525 4 0.063425288 0.014310126 -0.99788404 0
-9.5104256 -1.4841926 -0.44887796 4 0.064472653 0.014697324 -0.9978112 0
-9.5224314 -1.4588381 -0.44925058 4 0.064111829 0.014522194 -0.99783701 0
-9.5304203 -1.4328344 -0.44943696 4 0.068029009 0.016105661 -0.99755335 0
-9.5445108 -1.406008 -0.44990274 4 0.073430561 0.018327948 -0.99713188 0
-9.5545731 -1.3785383 -0.45018229 4 0.093115099 0.026647644 -0.99529862 0
-9.5687485 -1.3499098 -0.45064813 4 0.088892996 0.024861544 -0.99573088 0
-9.581913 -1.3278954 -0.45111394 4 0.092681624 0.026459567 -0.99534416 0
-9.582077 -1.2972521 -0.45092762 4 0.093169339 0.026644329 -0.99529368 0
-9.5933628 -1.2732126 -0.45130029 4 0.088107303 0.024382142 -0.99581254 0
-9.6129484 -1.246798 -0.45204562 4 0.10750511 0.032731965 -0.99366558 0
-9.6245346 -1.2192742 -0.4524183 4 0.063400999 0.013434185 -0.99789768 0
-9.640213 -1.1905028 -0.4529773 4 0.17488922 0.062239207 -0.98261905 0
-9.6532135 -1.1664582 -0.45344311 4 0.53795242 0.22391993 -0.81269121 0
-9.6606007 -1.1382785 -0.45362946 4 0.090325855 0.024912696 -0.99560058 0
-9.6756487 -1.1126653 -0.45418844 4 0.076711394 0.0187907 -0.9968763 0
-9.6830692 -1.0827088 -0.45437479 4 0.047514308 0.005803545 -0.99885368 0
-9.6958008 -1.0584406 -0.45484063 4 0.064227603 0.013033801 -0.99785018 0
-9.7109976 -1.0292356 -0.4553996 4 0.087678239 0.023260638 -0.99587727 0
-9.7176332 -1.0042211 -0.45558596 4 0.34232128 0.16534585 0.92491996 0
-9.7265329 -0.97598165 -0.45586544 4 0.09440431 0.026008235 -0.99519414 0
-9.7391634 -0.94978523 -0.45633128 4 0.16068524 0.055459164 -0.98544645 0
-9.7520437 -0.92012197 -0.45679712 4 0.11281113 0.034067921 -0.99303228 0
-9.7625332 -0.89361566 -0.45716977 4 0.15642558 0.053523835 -0.98623836 0
-9.7750912 -0.86552614 -0.45763561 4 0.10357115 0.029827047 -0.99417478 0
-9.7892675 -0.84095734 -0.45819461 4 0.07534495 0.017122641 -0.99701053 0
-9.801816 -0.8110249 -0.45866048 4 0.10367419 0.029862262 -0.99416298 0
-9.8141375 -0.78273004 -0.45912632 4 0.08427982 0.02104215 -0.99621993 0
-9.8222599 -0.75578219 -0.45940581 4 0.064751536 0.012103949 -0.99782801 0
-9.8403978 -0.72781634 -0.46015114 4 0.078629822 0.018321499 -0.99673545 0
-9.8503637 -0.7009005 -0.46052381 4 0.076664723 0.017463084 -0.99690402 0
-9.8583794 -0.67207789 -0.4608033 4 0.075364105 0.016758395 -0.99701524 0
-9.8740606 -0.64718026 -0.46145546 4 0.067661799 0.013083662 -0.99762249 0
-9.8820267 -0.61653197 -0.46173498 4 0.06562344 0.012053872 -0.99777168 0
-9.8956747 -0.58964604 -0.46229398 4 0.068258509 0.013235047 -0.99757981 0
-9.9153328 -0.56129807 -0.46313247 4 0.066595659 0.012400358 -0.99770302 0
-9.9227543 -0.53566021 -0.46341199 4 0.063493907 0.010865336 -0.99792308 0
-9.9443398 -0.50549811 -0.46434364 4 0.069074892 0.013506214 -0.99752003 0
-9.9516993 -0.47801554 -0.46462315 4 0.069366895 0.01362849 -0.99749815 0
-9.9649696 -0.4507643 -0.46518213 4 0.065147474 0.011527293 -0.99780911 0
-9.9742479 -0.42153257 -0.4655548 4 0.068194024 0.013007754 -0.99758726 0
-9.9834404 -0.3922497 -0.46592748 4 0.066098973 0.011962982 -0.99774134 0
-9.9904222 -0.36633301 -0.46620697 4 0.063316867 0.010523155 -0.99793798 0
-10.003504 -0.33534652 -0.46676597 4 0.06287273 0.010254287 -0.99796885 0
-10.022373 -0.30796415 -0.46760446 4 0.06063775 0.0090706218 -0.99811864 0
-10.037173 -0.28036502 -0.46825662 4 0.059939601 0.0086728288 -0.9981643 0
-10.049988 -0.24912751 -0.46881562 4 0.059246991 0.0082791708 -0.99820906 0
-10.058672 -0.21948129 -0.46918833 4 0.060585715 0.0089121256 -0.99812317 0
-10.083182 -0.19360887 -0.47030634 5 0.060431939 0.0088036302 -0.99813348 0
-10.097695 -0.16391703 -0.4709585 5 0.059424732 0.0082400749 -0.99819881 0
-10.106128 -0.13406128 -0.47133115 6 0.05958676 0.0082959766 -0.99818867 0
-10.128474 -0.1025333 -0.47235599 5 0.060772814 0.0089060776 -0.9981119 0
-10.148686 -0.076168239 -0.47328767 5 0.059757698 0.008334998 -0.99817812 0
-10.162851 -0.046119053 -0.47393984 5 0.059422087 0.0081241066 -0.99819988 0
-10.180917 -0.019546341 -0.47477832 6 0.058906611 0.0078157065 -0.9982329 0
-10.196911 0.012455592 -0.47552365 6 0.058363955 0.0074625718 -0.99826747 0
-10.228795 0.042844836 -0.47701433 5 0.057950884 0.0072067492 -0.99829346 0
-10.242607 0.073294729 -0.4776665 5 0.05858887 0.0075389794 -0.9982537 0
-10.268332 0.10215625 -0.47887769 6 0.057619929 0.0069758361 -0.9983142 0
-10.29198 0.13113657 -0.4799957 6 0.052550729 0.0040444182 -0.99861008 0
-10.325503 0.16220447 -0.48157951 7 0.055101849 0.0054716789 -0.99846572 0
-10.32105 0.18916361 -0.48139319 6 0.055446669 0.0056452411 -0.99844569 0
-10.3224 0.22163054 -0.48148635 5 0.055950541 0.0059113675 -0.99841601 0
-10.3517 0.25118288 -0.48288384 5 0.056311201 0.006105199 -0.99839461 0
-10.372877 0.28249228 -0.48390868 6 0.056256127 0.006050223 -0.99839801 0
-10.406052 0.31066173 -0.48549253 6 0.055737417 0.0057133329 -0.99842912 0
-10.420937 0.34569803 -0.48623785 6 0.051938988 0.0033846672 -0.99864447 0
-10.451941 0.37412304 -0.48772851 5 0.052970465 0.0039967177 -0.99858803 0
-10.480802 0.40446275 -0.48912606 6 0.054324903 0.0048223026 -0.99851167 0
