# .PCD v0.7 - Point Cloud Data file format
VERSION 0.7
FIELDS x y z intensity normal_x normal_y normal_z curvature
SIZE 4 4 4 4 4 4 4 4
TYPE F F F F F F F F
COUNT 1 1 1 1 1 1 1 1
WIDTH 223
HEIGHT 1
VIEWPOINT 0 0 0 1 0 0 0
POINTS 223
DATA ascii
4.0703158 4.030726 -2.3927057 35 0.096060604 0.042212944 0.99447995 0.0011413672
4.1053195 4.0399251 -2.4058101 41 0.096096471 0.040673792 0.99454069 0.0011508018
4.1085877 4.0234246 -2.4019558 57 0.095794477 0.041310668 0.99454349 0.0011200398
4.1463356 4.0349526 -2.4166021 41 0.095840327 0.040938135 0.99455452 0.0011139468
4.1635942 4.0277653 -2.4196854 44 0.095876127 0.041001048 0.99454844 0.001092941
4.183434 4.0258079 -2.4250813 35 0.095184065 0.04187876 0.99457842 0.001067283
4.1926928 4.0108266 -2.4235396 41 0.09557768 0.042593129 0.99451035 0.0010457489
4.1952147 3.9894657 -2.4181435 41 0.095849819 0.042894788 0.99447119 0.001038654
4.2049975 3.9764678 -2.4173729 44 0.096377216 0.043103665 0.99441117 0.0010279499
4.2234993 3.9702942 -2.421227 41 0.096616425 0.042928025 0.99439555 0.001036637
4.2372994 3.9582672 -2.421998 44 0.096985325 0.042916324 0.99436015 0.0010391404
4.2476492 3.9471591 -2.421998 44 0.097231917 0.043110635 0.99432766 0.0010324628
4.252563 3.928278 -2.4181435 48 0.097307727 0.043378804 0.99430853 0.0010200603
4.272357 3.923131 -2.4227688 54 0.097582445 0.043289423 0.99428552 0.001008571
4.2757998 3.9057105 -2.4189146 50 0.097836882 0.0435903 0.99424732 0.0009928036
4.2894139 3.8934991 -2.4196854 30 0.097931385 0.043854039 0.99422646 0.00099356612
4.2797222 3.862956 -2.4081225 14 0.098584905 0.045672711 0.99408001 0.00094399002
4.278132 3.8398967 -2.401185 12 0.099049233 0.046454802 0.99399763 0.00091776095
4.2860417 3.8227532 -2.3988726 18 0.09895698 0.047296539 0.99396706 0.00090018293
4.3105078 3.8230133 -2.4065809 27 0.098902754 0.047827862 0.99394703 0.00087631849
4.3321877 3.8179948 -2.4119771 24 0.099061824 0.046946902 0.9939732 0.0008942085
4.3456078 3.8083153 -2.4135184 36 0.099483855 0.047276486 0.99391544 0.00090338936
4.363184 3.8022265 -2.4173729 47 0.099900685 0.047047779 0.99388444 0.00091095711
4.3786316 3.7928872 -2.4196854 57 0.10040612 0.046410143 0.99386358 0.00091797265
4.3941379 3.7862303 -2.4227688 48 0.10058091 0.046736442 0.99383056 0.0009103723
4.4102159 3.7760088 -2.4250813 44 0.10055774 0.046895016 0.99382544 0.0009023851
4.415122 3.758894 -2.421998 50 0.10096655 0.04696488 0.99378073 0.00088848377
4.43189 3.7505467 -2.4250813 44 0.10100893 0.046883035 0.99378026 0.00085095456
4.4459305 3.7424955 -2.4273939 44 0.10161377 0.046614435 0.99373114 0.00085101253
4.4590807 3.7296946 -2.4281647 50 0.10179151 0.046562795 0.99371541 0.00084878819
4.4694796 3.7172267 -2.4281647 44 0.10204934 0.046482835 0.9936927 0.00084771868
4.4812641 3.7059081 -2.4289355 35 0.10252973 0.046827838 0.99362713 0.00084174413
4.4908137 3.6914244 -2.4281647 44 0.10281332 0.047347561 0.99357313 0.00082685391
4.502388 3.6772988 -2.4281647 28 0.10308383 0.047110796 0.99355638 0.00081856025
4.5162978 3.6689885 -2.4304771 23 0.10396464 0.046636157 0.99348706 0.00081250374
4.5285993 3.6567321 -2.4312479 18 0.10424347 0.046442613 0.99346685 0.00081095
4.5402336 3.6452258 -2.432019 22 0.10484056 0.046080757 0.9934209 0.00079333293
4.5531049 3.6320961 -2.4327898 19 0.10542423 0.045836236 0.99337035 0.00077295298
4.5632291 3.6193681 -2.4327898 15 0.10595228 0.045409054 0.99333382 0.0007774033
4.5667028 3.6000988 -2.4289355 29 0.10682368 0.046016682 0.99321252 0.0007343773
4.5700998 3.580843 -2.4250813 28 0.10707846 0.046015702 0.99318522 0.00071688223
4.583827 3.5722678 -2.4273939 31 0.10764183 0.045658063 0.99314082 0.00070173014
4.5964856 3.5589802 -2.4281647 29 0.10862128 0.04656262 0.9929921 0.00058772531
4.6057863 3.5469353 -2.4281647 29 0.10877273 0.04679893 0.99296445 0.00059166644
4.6142092 3.5329366 -2.4273939 29 0.10973104 0.047333896 0.99283367 0.00054676033
4.627368 3.518734 -2.4281647 28 0.10997911 0.047415629 0.99280232 0.00053863588
4.6409812 3.5099454 -2.4304771 24 0.11017086 0.047333017 0.99278492 0.00053315744
4.655189 3.5002997 -2.4327898 21 0.1105437 0.046922103 0.99276298 0.00052987935
4.6720757 3.4900763 -2.435873 14 0.11092541 0.047021601 0.99271572 0.0004859601
4.6782331 3.4756324 -2.4343314 11 0.11132246 0.046949539 0.99267471 0.00047360364
4.6906152 3.462013 -2.4351022 11 0.11147127 0.046892419 0.99266064 0.00048085474
4.702354 3.4491727 -2.435873 11 0.11137683 0.047142807 0.99265945 0.00047586713
4.7113671 3.4368508 -2.435873 10 0.11120521 0.047460031 0.99266356 0.00046667334
4.7215447 3.4228554 -2.435873 11 0.11087573 0.048034754 0.9926728 0.00043349221
4.734674 3.41099 -2.4374149 10 0.11080429 0.048144106 0.99267548 0.00042677255
4.7456808 3.3988299 -2.4381857 11 0.11034795 0.049417522 0.99266368 0.00038362274
4.7548337 3.3828309 -2.4374149 10 0.11033034 0.049683347 0.99265236 0.00037711282
4.7621665 3.3693061 -2.4366441 10 0.1105725 0.051091764 0.99255395 0.00032681783
4.7751613 3.3572853 -2.4381857 12 0.11058348 0.05118373 0.99254811 0.0003207736
4.7820754 3.3409894 -2.4366441 9 0.10999975 0.052438095 0.99254739 0.00024376629
4.7883558 3.3255153 -2.4351022 13 0.11012486 0.052361336 0.9925375 0.00023877638
4.8018169 3.3125529 -2.4366441 11 0.110356 0.05230929 0.99251461 0.00023949658
4.8140936 3.3012164 -2.4381857 8 0.11056108 0.052236129 0.99249566 0.00024156313
4.8257689 3.2906823 -2.4397273 9 0.11075367 0.0520772 0.99248254 0.00023939484
4.8400946 3.2794557 -2.44204 7 0.11096359 0.052199889 0.99245274 0.00023556074
4.8442497 3.2601111 -2.4389565 7 0.1107192 0.053051092 0.9924348 0.00017206153
4.8573685 3.2504976 -2.4412689 8 0.1105248 0.053670701 0.99242318 0.00012281927
4.8669925 3.2360697 -2.4412689 8 0.11048451 0.054512925 0.99238175 9.7232754e-05
4.8796506 3.2236526 -2.4428108 9 0.10998361 0.055544831 0.99238014 2.067172e-05
4.8870921 3.2089992 -2.44204 8 0.11014348 0.055301595 0.99237597 2.1681737e-05
4.8971486 3.1936309 -2.44204 9 0.11028632 0.05517089 0.99236739 2.1356904e-05
4.9070406 3.1818039 -2.4428108 9 0.110422 0.055025853 0.99236041 2.2934464e-05
4.9174585 3.1690867 -2.4435816 8 0.11054541 0.054920625 0.99235249 1.9993413e-05
4.925837 3.152626 -2.4428108 8 0.11071095 0.054837331 0.99233866 1.333683e-05
4.9392915 3.1418333 -2.4451232 8 0.11080662 0.054700743 0.9923355 1.2503176e-05
4.9496064 3.1290123 -2.445894 7 0.11092128 0.054626107 0.9923268 1.0014243e-05
4.9573069 3.1133299 -2.4451232 7 0.11107304 0.054615073 0.99231046 9.6112271e-06
4.965981 3.0994751 -2.4451232 8 0.11112758 0.054639686 0.99230295 1.2483e-05
4.978292 3.0866733 -2.446665 8 0.11113341 0.054667793 0.99230075 9.7191541e-06
4.9874296 3.0718873 -2.446665 8 0.1111711 0.054611769 0.99229962 6.0419511e-06
5.0002036 3.0581303 -2.4482067 7 0.1112269 0.054713331 0.99228776 5.895195e-06
5.0034609 3.0421538 -2.445894 8 0.11123104 0.054787733 0.99228317 6.0996022e-06
5.0140462 3.0282476 -2.446665 7 0.11130843 0.054740515 0.99227715 5.0843623e-06
5.024065 3.0151844 -2.4474359 8 0.1114109 0.054709692 0.99226725 0
5.0324664 3.0011413 -2.4474359 8 0.11148543 0.05484312 0.99225152 4.0021446e-06
5.0450449 2.9871979 -2.4489775 7 0.111585 0.054892059 0.99223769 0
5.0554762 2.9731522 -2.4497485 7 0.11180093 0.055038262 0.99220526 0
5.0541987 2.9534376 -2.4451232 8 0.11187543 0.055217389 0.99218696 0
5.0720029 2.9448702 -2.4497485 7 0.11194886 0.055106331 0.99218482 0
5.0807176 2.9298093 -2.4497485 7 0.11206995 0.055025801 0.99217558 8.0583794e-07
5.0904813 2.9165256 -2.4505191 7 0.11221793 0.054993782 0.99216068 0
5.0980139 2.8996077 -2.4497485 7 0.11230253 0.054954655 0.99215335 5.429614e-07
5.1066899 2.8880513 -2.4505191 8 0.11234605 0.054923221 0.99215013 2.0132129e-06
5.1141295 2.8710892 -2.4497485 7 0.11250749 0.054952983 0.9921301 3.8084108e-06
5.122128 2.8567951 -2.4497485 7 0.112604 0.054887198 0.99212283 1.1713848e-06
5.1316981 2.8433778 -2.4505191 7 0.11271541 0.054801077 0.99211496 4.9670771e-06
5.1401124 2.8281379 -2.4505191 7 0.11285911 0.054813713 0.99209791 4.1963044e-06
5.1517215 2.8146427 -2.4520609 7 0.11297897 0.054724839 0.99208921 3.6986519e-06
5.157937 2.7993684 -2.4512899 7 0.11311349 0.054689825 0.9920758 4.2843494e-06
5.1678462 2.7849262 -2.4520609 7 0.11319555 0.054646857 0.99206883 2.8234062e-06
5.1728325 2.7678375 -2.4505191 7 0.11336725 0.054733187 0.99204445 6.0252792e-06
5.1842804 2.7542124 -2.4520609 7 0.11342481 0.0547649 0.9920361 4.2634961e-06
5.1952162 2.7414455 -2.4536026 7 0.11348764 0.05475821 0.99202931 4.9046712e-06
5.2049632 2.7268739 -2.4543736 7 0.11356024 0.054761581 0.99202079 4.9645914e-06
5.2120838 2.7132387 -2.4543736 7 0.11365532 0.054923173 0.992001 5.9064832e-06
5.2107434 2.6917701 -2.4497485 7 0.11380158 0.055001523 0.99197984 5.4223024e-06
5.2231669 2.6797342 -2.4520609 7 0.11385448 0.054969132 0.99197561 5.8354767e-06
5.2299142 2.6624753 -2.4512899 7 0.1140313 0.055027939 0.991952 7.4643799e-06
5.2385135 2.6496084 -2.4520609 7 0.11412661 0.054964334 0.99194455 4.6021464e-06
5.2480021 2.6348801 -2.4528317 7 0.11420659 0.054907486 0.99193853 2.593694e-06
5.2569904 2.6210392 -2.4536026 7 0.11427395 0.05483688 0.99193466 6.1604992e-06
5.2626362 2.6055284 -2.4528317 7 0.11437023 0.054858029 0.99192244 4.8002876e-06
5.2691388 2.5881696 -2.4520609 7 0.1144571 0.054696914 0.99192131 4.5902866e-06
5.2780042 2.5742552 -2.4528317 7 0.11447904 0.054595366 0.99192435 3.6041836e-06
5.2856183 2.5585847 -2.4528317 7 0.11451486 0.054466568 0.99192727 5.4924785e-06
5.2948503 2.5436883 -2.4536026 7 0.11456581 0.054339971 0.99192834 1.3153482e-06
5.2973762 2.5255854 -2.4512899 7 0.11461788 0.054055348 0.99193788 3.9401707e-06
5.3068671 2.514215 -2.4528317 7 0.1146372 0.054049961 0.99193591 6.2862682e-06
5.3113995 2.495959 -2.4512899 7 0.11466838 0.053636815 0.99195474 7.4553141e-06
5.3200212 2.4818985 -2.4520609 7 0.11465546 0.053515922 0.99196273 1.1077029e-05
5.3261166 2.4643989 -2.4512899 7 0.11476438 0.053232118 0.99196541 8.9443838e-06
5.3313012 2.4487441 -2.4505191 6 0.11477292 0.052943908 0.9919799 1.7760507e-05
5.3381181 2.4338477 -2.4505191 6 0.11475962 0.052776951 0.99199033 1.4097679e-05
5.3482575 2.4204516 -2.4520609 7 0.11473098 0.052483357 0.99200922 9.1340789e-06
5.353312 2.4047515 -2.4512899 6 0.11476617 0.052127428 0.99202394 1.0007592e-05
5.3625259 2.3886738 -2.4520609 6 0.11476445 0.051787782 0.99204189 1.5391775e-05
5.3708639 2.3744342 -2.4528317 6 0.11479624 0.051487617 0.99205387 1.5028092e-05
5.3757834 2.358686 -2.4520609 6 0.11481154 0.051100291 0.99207217 2.2690017e-05
5.3780894 2.3395784 -2.4497485 6 0.11481913 0.05054469 0.9920997 2.6736425e-05
5.3875837 2.3269548 -2.4512899 5 0.11483282 0.049926814 0.99212939 2.9752773e-05
5.3961616 2.3116846 -2.4520609 5 0.11483289 0.04950285 0.9921506 3.6303674e-05
5.4029965 2.2956645 -2.4520609 5 0.11464808 0.048726521 0.99221039 4.5860848e-05
5.4050798 2.2765286 -2.4497485 4 0.11457053 0.048047911 0.99225247 5.4260392e-05
5.4110212 2.2623713 -2.4497485 4 0.11455027 0.047841508 0.99226481 4.9980074e-05
5.4228239 2.2484279 -2.4520609 4 0.11458053 0.047546059 0.99227548 4.8007958e-05
5.4273748 2.2325718 -2.4512899 4 0.11452476 0.047109492 0.99230272 5.3245636e-05
5.433588 2.2174082 -2.4512899 4 0.11467613 0.046808533 0.99229956 5.6089379e-05
5.4350123 2.1991985 -2.4489775 4 0.11480338 0.046464462 0.99230099 5.4745229e-05
5.4436069 2.182801 -2.4497485 4 0.11483928 0.04608728 0.9923144 5.7950903e-05
5.4479671 2.1669073 -2.4489775 3 0.11500161 0.045734145 0.99231195 6.0176411e-05
5.45228 2.1510088 -2.4482067 3 0.11512072 0.045380179 0.9923144 6.2300584e-05
5.4676042 2.1372299 -2.4520609 4 0.11512463 0.044721939 0.99234384 6.2614687e-05
5.4680185 2.1209071 -2.4497485 4 0.11527564 0.044553723 0.99233389 6.2247993e-05
5.4760103 2.1053345 -2.4505191 4 0.11535122 0.044120658 0.99234444 6.7519635e-05
5.4856815 2.0903931 -2.4520609 4 0.1154913 0.043494493 0.99235576 7.124056e-05
5.4828658 2.0718052 -2.4482067 4 0.11573689 0.043087509 0.99234492 7.2079813e-05
5.4938149 2.0584266 -2.4505191 4 0.11574171 0.04249287 0.99237001 7.3854033e-05
5.4967937 2.0398743 -2.4489775 3 0.11595878 0.041804589 0.99237388 7.8596699e-05
5.5003834 2.0248401 -2.4482067 3 0.11620831 0.04119695 0.99237007 8.2577841e-05
5.5115685 2.0104067 -2.4505191 4 0.11646542 0.040665679 0.9923619 8.6396598e-05
5.5109143 1.9905751 -2.4474359 3 0.11660603 0.039935626 0.99237502 9.0956186e-05
5.5230551 1.978631 -2.4505191 4 0.1168991 0.039198346 0.99236995 9.7463882e-05
5.5163865 1.9588757 -2.4451232 3 0.11709087 0.038717214 0.99236619 9.7761716e-05
5.5242548 1.9421462 -2.445894 3 0.1172857 0.037922043 0.99237388 0.00010162886
5.5313988 1.9273231 -2.446665 3 0.11751033 0.037130114 0.99237734 0.00010603865
5.5356827 1.90933 -2.445894 3 0.11776682 0.036187552 0.99238163 0.00010871152
5.5459008 1.8966235 -2.4482067 3 0.11816992 0.035543837 0.99235702 0.0001180651
5.5441837 1.8787608 -2.4451232 3 0.11827555 0.034686819 0.99237478 0.00011988196
5.5483088 1.8607484 -2.4443524 3 0.11839768 0.034252293 0.99237531 0.00012319146
5.5601668 1.8485436 -2.4474359 3 0.1187105 0.03277 0.99238801 0.00013806333
5.5621204 1.8308849 -2.445894 3 0.11873244 0.032533064 0.9923932 0.00013979764
5.5625811 1.8116859 -2.4435816 3 0.11899709 0.030979848 0.9924112 0.00014906013
5.5711308 1.7972795 -2.4451232 3 0.11929959 0.029944455 0.99240661 0.00015455976
5.576128 1.7817159 -2.4451232 3 0.11944313 0.029151391 0.99241298 0.0001497131
5.5813894 1.7651644 -2.4451232 3 0.11970224 0.028189255 0.99240959 0.00015735261
5.5827751 1.7484664 -2.4435816 3 0.11991974 0.027145622 0.99241245 0.00016430243
5.5864778 1.7303741 -2.4428108 3 0.11992697 0.026667668 0.99242449 0.0001633051
5.5965805 1.7163912 -2.4451232 3 0.12006973 0.026088789 0.99242264 0.00016054692
5.5942888 1.6986096 -2.44204 3 0.12015484 0.02554938 0.9924264 0.00016084671
5.6022511 1.6850219 -2.4435816 3 0.12012883 0.02501134 0.99244326 0.00015924053
5.6078076 1.666436 -2.4435816 3 0.12050296 0.023993222 0.992423 0.0001603361
5.6103821 1.6512237 -2.4428108 3 0.12051828 0.023717044 0.99242771 0.00016099217
5.6099396 1.6330262 -2.4404981 3 0.12056496 0.022732977 0.99244511 0.00015445503
5.6218543 1.6184146 -2.4435816 3 0.12081221 0.022194894 0.99242723 0.00015749827
5.624578 1.6022018 -2.4428108 2 0.12106872 0.021379685 0.99241382 0.00015530005
5.6343579 1.5879942 -2.4451232 3 0.1210731 0.020761179 0.99242651 0.00015158634
5.6461563 1.5732496 -2.4482067 3 0.12156197 0.019707443 0.99238813 0.00015803594
5.643683 1.5545282 -2.4451232 2 0.12144551 0.019185055 0.99241269 0.00016087212
5.6571736 1.5402012 -2.4489775 2 0.1219562 0.018133007 0.99236983 0.00016174289
5.6578884 1.5234388 -2.4474359 2 0.1219256 0.01781076 0.99237943 0.0001630586
5.6606007 1.5061687 -2.446665 2 0.12214057 0.016965521 0.9923678 0.00016206072
5.672183 1.4912444 -2.4497485 2 0.12261419 0.015938552 0.99232644 0.00016229229
5.6816835 1.4767928 -2.4520609 2 0.12289575 0.015092093 0.9923048 0.00016338371
5.6786366 1.459082 -2.4489775 2 0.12290417 0.014371903 0.99231446 0.00015946674
5.6885581 1.4425968 -2.4512899 2 0.12345217 0.013196532 0.99226278 0.00015943867
5.6961446 1.4276041 -2.4528317 2 0.123873 0.012261613 0.99222231 0.00015990427
5.7036924 1.4125774 -2.4543736 2 0.12428324 0.011549715 0.99217963 0.00015560846
5.7098942 1.3950908 -2.4551444 2 0.12479965 0.010639864 0.99212497 0.0001598301
5.711493 1.3806993 -2.4543736 2 0.12477362 0.0098644895 0.99213618 0.00016245445
5.717597 1.3631784 -2.4551444 2 0.12516229 0.0090170428 0.99209529 0.00016145479
5.7290373 1.3469 -2.4582276 1 0.125524 0.0083758803 0.99205512 0.00015435492
5.730514 1.3324775 -2.4574568 1 0.12653637 0.0074521145 0.99193406 0.00016031964
5.745235 1.3179457 -2.4620819 2 0.12713014 0.0061348556 0.99186707 0.0001601799
5.7421465 1.2982631 -2.4589984 1 0.12685582 0.0050635678 0.99190819 0.00015806322
5.7473273 1.2836262 -2.4597695 1 0.12688632 0.0041969274 0.99190837 0.00015264424
5.7585406 1.2671517 -2.4628527 1 0.12759598 0.0030391426 0.99182165 0.00016307799
5.7640781 1.2504525 -2.4636235 1 0.12739117 0.0018255294 0.99185091 0.00015591488
5.7653127 1.2359756 -2.4628527 1 0.12730032 -0.00013854833 0.9918642 0.00016296314
5.7745833 1.2190019 -2.4651654 1 0.12708287 -0.0021180555 0.99188983 0.00016205641
5.7691412 1.1999823 -2.4613111 1 0.12673278 -0.0050116465 0.99192423 0.00016254575
5.7722631 1.1848755 -2.4613111 1 0.12658481 -0.0058491989 0.99193859 0.00016291635
5.7976637 1.1711215 -2.4705613 1 0.12670135 -0.0075613377 0.99191213 0.00015269348
5.8083534 1.1553528 -2.4736445 1 0.12671591 -0.0084376782 0.99190313 0.00014399239
5.8023038 1.1383671 -2.4697905 0 0.12661561 -0.0094390595 0.991907 0.00012937025
5.8127074 1.1235615 -2.4728737 0 0.12679578 -0.0097995689 0.99188048 0.00012643856
5.8272805 1.1063435 -2.4774988 0 0.12681386 -0.010325298 0.99187279 0.00011592131
5.8283424 1.0907453 -2.476728 0 0.12695149 -0.010550323 0.99185276 0.00011000325
5.8297386 1.0731117 -2.4759572 0 0.12709519 -0.010798294 0.99183178 0.00010193916
5.8456078 1.0581117 -2.481353 0 0.12732878 -0.010816024 0.99180156 9.2026014e-05
5.8483577 1.0428053 -2.481353 0 0.12750401 -0.011097554 0.99177599 9.1291047e-05
5.8496089 1.025128 -2.4805822 0 0.12745763 -0.011484583 0.99177748 8.6836495e-05
5.8471684 1.0068318 -2.4782696 0 0.1278258 -0.011279345 0.99173254 8.7620567e-05
5.8717923 0.99419475 -2.48752 0 0.12881398 -0.011618202 0.99160069 9.4384261e-05
5.8712454 0.97513664 -2.4859781 0 0.1293613 -0.011999879 0.99152493 9.2202332e-05
5.8775883 0.95933563 -2.48752 0 0.13051575 -0.012308431 0.99136978 9.3365728e-05
5.8766003 0.94233233 -2.4859781 0 0.13086268 -0.012256132 0.99132478 9.0451933e-05
5.9087014 0.9284476 -2.4983118 0 0.1318201 -0.012484146 0.99119502 8.5806358e-05
5.907464 0.912413 -2.4967699 0 0.13201661 -0.012338063 0.9911707 8.627442e-05
5.9174442 0.89598751 -2.4998534 0 0.13269876 -0.012181189 0.9910816 8.6534652e-05
5.9109488 0.87707001 -2.4959991 0 0.13277854 -0.011825527 0.99107522 8.066251e-05
5.9042439 0.85923231 -2.4921448 0 0.13327374 -0.011607223 0.99101132 8.0979684e-05
5.9329996 0.82749426 -2.5021658 0 0.13407657 -0.011382937 0.99090552 7.3988267e-05
5.9541216 0.84951675 -2.5121868 0 0.13368689 -0.011722211 0.99095428 7.630726e-05
