# .PCD v0.7 - Point Cloud Data file format
VERSION 0.7
FIELDS x y z intensity normal_x normal_y normal_z curvature
SIZE 4 4 4 4 4 4 4 4
TYPE F F F F F F F F
COUNT 1 1 1 1 1 1 1 1
WIDTH 285
HEIGHT 1
VIEWPOINT 0 0 0 1 0 0 0
POINTS 285
DATA ascii
-0.60409558 2.9825397 -1.8047079 29 0.12064993 0.072759889 0.99002498 0.0018223263
-0.62320042 2.9909077 -1.8118494 29 0.11956774 0.072985232 0.99013972 0.0017942996
-0.60047841 3.0078325 -1.8189906 24 0.12155817 0.074025869 0.98982006 0.0017940268
-0.59036374 3.0063281 -1.8169502 31 0.12126229 0.074668951 0.98980808 0.0018313401
-0.63437396 2.99735 -1.8169502 27 0.11969887 0.07257434 0.99015409 0.0017524755
-0.5819667 3.0079648 -1.8169502 28 0.11978155 0.076836891 0.98982251 0.0020722437
-0.61899924 3.012857 -1.8240916 31 0.12028056 0.07417281 0.98996514 0.0017775649
-0.64671093 3.0140684 -1.8281722 24 0.1191858 0.073051691 0.99018091 0.0017059558
-0.65622294 3.0172935 -1.8312328 23 0.11911671 0.072918952 0.99019903 0.0016800401
-0.57710618 3.0281665 -1.8281722 27 0.12077715 0.077032812 0.98968613 0.0020451609
-0.56410652 3.0113654 -1.8169502 24 0.12010667 0.077715896 0.98971438 0.0020569025
-0.54942977 3.0263171 -1.8240916 25 0.12086794 0.078269452 0.98957813 0.0020665452
-0.6646443 3.0154498 -1.8312328 30 0.11884407 0.072648503 0.9902516 0.0016593455
-0.67133766 3.003391 -1.8251116 32 0.11793447 0.072294876 0.99038625 0.0016816864
-0.67782331 2.9931157 -1.8200107 30 0.11720375 0.072616115 0.99044949 0.0016673115
-0.68722254 2.9909718 -1.8200107 30 0.11654189 0.072411716 0.99054253 0.0016574817
-0.69505006 2.9891622 -1.8200107 30 0.11613017 0.071874097 0.99063003 0.0016344336
-0.54346985 3.0448687 -1.8342934 31 0.12145133 0.078576632 0.98948246 0.0020631189
-0.53377521 3.039597 -1.8302126 23 0.12129758 0.078884013 0.98947662 0.0020760891
-0.52334738 3.0361733 -1.8271521 19 0.11882451 0.081603788 0.98955619 0.002510767
-0.51802808 3.0562797 -1.838374 22 0.11873174 0.082025245 0.98953247 0.0025168532
-0.70233864 2.9803894 -1.81593 30 0.11548767 0.071573474 0.99072689 0.001622058
-0.70877934 2.9682534 -1.8098089 24 0.1142171 0.071922928 0.99084896 0.0016336842
-0.71839309 2.9694815 -1.8118494 30 0.11392038 0.071541585 0.99091065 0.0016018745
-0.72627437 2.9657927 -1.810829 29 0.11332095 0.071389861 0.9909904 0.0015961645
-0.50261956 3.0693107 -1.8444952 28 0.11956678 0.082691111 0.98937654 0.0024475665
-0.51237452 3.0816491 -1.8526567 25 0.11972807 0.082496598 0.98937333 0.0024322611
-0.48332369 3.0654428 -1.8404145 27 0.11945336 0.083022229 0.98936248 0.0024807586
-0.49460968 3.0810659 -1.8506163 28 0.11969322 0.082798518 0.98935229 0.0024453129
-0.47607934 3.07528 -1.8455155 24 0.11931741 0.083057068 0.98937595 0.0024653149
-0.73382795 2.9586158 -1.8077685 29 0.11256742 0.070719562 0.99112427 0.0015866448
-0.74260253 2.9564257 -1.8077685 29 0.1127433 0.070378371 0.99112856 0.0015780129
-0.74906909 2.9494693 -1.8047079 27 0.11217751 0.070268512 0.99120057 0.0015555355
-0.76038831 2.9572301 -1.810829 25 0.11206392 0.070312671 0.99121028 0.0015164737
-0.76820987 2.9534302 -1.8098089 25 0.1115421 0.070342831 0.99126709 0.0015055122
-0.46385425 3.0562701 -1.8332732 22 0.11900374 0.083239056 0.98939842 0.0025124676
-0.45551494 3.0662198 -1.838374 25 0.1190863 0.083069034 0.98940283 0.0025119521
-0.44695118 3.0674801 -1.838374 27 0.11906322 0.083112277 0.98940206 0.0025096785
-0.44038093 3.0788567 -1.8444952 25 0.11928004 0.083303459 0.9893598 0.0025015611
-0.77748537 2.9510021 -1.8098089 30 0.11111291 0.070402764 0.99131095 0.0014872311
-0.78572261 2.9488196 -1.8098089 29 0.11063467 0.070501268 0.99135745 0.0014660351
-0.79498357 2.9463365 -1.8098089 29 0.11046421 0.070312835 0.99138981 0.0014502831
-0.79675376 2.9244685 -1.7975667 28 0.11030431 0.069823571 0.9914422 0.0014615529
-0.8155421 2.9567757 -1.8189906 31 0.10947033 0.070740119 0.99146962 0.0013900044
-0.43380082 3.1023731 -1.8577576 27 0.11957418 0.082835555 0.98936361 0.0025042822
-0.42537114 3.1052768 -1.8587779 30 0.11944393 0.081944615 0.98945355 0.0025493843
-0.41729686 3.1150503 -1.8638787 34 0.11959232 0.081968933 0.98943359 0.0025495847
-0.82194722 2.9478586 -1.8149098 23 0.10916126 0.070910871 0.9914915 0.0013765026
-0.82555449 2.9271946 -1.8036878 25 0.10915014 0.0704965 0.99152231 0.0013859211
-0.40782818 3.1145689 -1.8628585 34 0.11989218 0.081886537 0.98940408 0.0025216816
-0.39956826 3.119108 -1.8648989 31 0.12012617 0.081661217 0.98939437 0.0025160359
-0.39085555 3.1202116 -1.8648989 32 0.11994163 0.081571884 0.98942411 0.0025568514
-0.38188416 3.1282549 -1.8689797 28 0.1203416 0.080857679 0.98943412 0.0025354738
-0.37491742 3.1394923 -1.8751007 32 0.12073307 0.080771707 0.98939347 0.0025122219
-0.36420891 3.1286299 -1.8679595 32 0.12065652 0.080646992 0.98941296 0.0025538169
-0.35511744 3.1314063 -1.8689797 36 0.12068088 0.080637194 0.98941082 0.0025686345
-0.34750643 3.1426444 -1.8751007 37 0.12053058 0.079228438 0.98954296 0.0026024783
-0.33799103 3.1367614 -1.8710201 36 0.12059371 0.079987049 0.98947418 0.0026189114
-0.33066839 3.1513798 -1.8791815 30 0.12113447 0.078382984 0.98953658 0.002618144
-0.32024309 3.1472688 -1.8761209 31 0.12152066 0.078008659 0.98951882 0.0026486819
-0.30806491 3.1139133 -1.8557173 42 0.12135963 0.07882908 0.98947352 0.0027522347
-0.28350466 3.1456089 -1.8730603 30 0.1228547 0.077909447 0.98936176 0.00270772
-0.29076406 3.1224868 -1.859798 30 0.12208124 0.078984246 0.98937231 0.0027910504
-0.27432013 3.1481502 -1.8740807 30 0.12310008 0.078144968 0.98931277 0.0027153662
-0.29821795 3.1027746 -1.8485759 40 0.12110737 0.079001114 0.98949063 0.0028509689
-0.26509467 3.1437614 -1.8710201 29 0.12313725 0.078919999 0.98924667 0.0027096206
-0.255207 3.1376755 -1.8669392 25 0.12328164 0.078828752 0.98923594 0.0027452579
-0.24726218 3.141763 -1.8689797 28 0.12384456 0.078864746 0.98916274 0.0027302045
-0.23752099 3.1442394 -1.8699998 31 0.12455711 0.078652278 0.98909014 0.0027209094
-0.22761565 3.1294494 -1.8608181 30 0.12468171 0.078811511 0.98906171 0.0027395049
-0.21718667 3.1215684 -1.8557173 27 0.12506662 0.078936532 0.98900318 0.0027835229
-0.2094738 3.1289918 -1.859798 23 0.12439351 0.0789399 0.98908782 0.0027889097
-0.1990943 3.1210506 -1.854697 32 0.12458359 0.07865642 0.98908651 0.0028549035
-0.19039814 3.1129761 -1.8495961 21 0.12469177 0.079131261 0.98903501 0.0029057181
-0.18126142 3.1152449 -1.8506163 21 0.12537149 0.078854665 0.98897117 0.0028725157
-0.17287003 3.1312273 -1.859798 20 0.12556173 0.079053812 0.98893106 0.0027742733
-0.14513965 3.1240249 -1.854697 23 0.12581852 0.079109348 0.9888941 0.0028664891
-0.13639358 3.1364717 -1.8618383 25 0.12616275 0.079024561 0.98885691 0.0028178478
-0.16592646 3.1660554 -1.8802017 25 0.1263057 0.078177556 0.98890609 0.0027528724
-0.12867251 3.1488502 -1.8689797 25 0.12607931 0.07911779 0.98886019 0.0028076652
-0.11913428 3.1440611 -1.8659191 25 0.12617469 0.079110622 0.98884857 0.0028180233
-0.1104646 3.1633115 -1.8771411 23 0.12579983 0.078855447 0.98891675 0.002828242
-0.15704206 3.1768429 -1.8863229 24 0.1264717 0.078021005 0.9888972 0.0027598431
-0.10240535 3.1704674 -1.8812219 23 0.12600569 0.077248588 0.98901725 0.0028615235
-0.084044173 3.1882157 -1.8914237 34 0.12593336 0.076585419 0.98907804 0.0029131672
-0.075018108 3.1832786 -1.8883631 39 0.12640506 0.076255679 0.98904335 0.0029458739
-0.093347535 3.2017245 -1.8995852 27 0.12569764 0.075815521 0.98916733 0.0028721467
-0.064912416 3.1783388 -1.8853025 39 0.1269213 0.076029077 0.98899472 0.0029437949
-0.056097757 3.1819477 -1.887343 36 0.1276174 0.076008461 0.98890668 0.0029492697
-0.047287453 3.187252 -1.8904035 34 0.1279853 0.075021654 0.98893446 0.0029337043
-0.03830447 3.1804912 -1.8863229 31 0.12785874 0.076011457 0.98887533 0.0029667551
-0.028328402 3.1823161 -1.887343 22 0.12744606 0.075192153 0.9889912 0.0032138694
-0.019461637 3.1858234 -1.8893834 21 0.12731226 0.075235121 0.98900521 0.0032437965
-0.010002684 3.1841466 -1.8883631 31 0.1279324 0.0748991 0.98895073 0.0032235584
-0.00055687048 3.1910434 -1.892444 31 0.12795223 0.074285738 0.98899436 0.0032568031
0.0089441882 3.2030725 -1.8995852 24 0.12772746 0.07438837 0.9890157 0.003240881
0.017293563 3.196157 -1.8955045 22 0.12805316 0.074042499 0.98899955 0.0032671834
0.026961904 3.2184541 -1.9087669 24 0.12922604 0.07386148 0.98886049 0.003193334
0.036104113 3.2321274 -1.9169283 23 0.12949052 0.073422 0.98885858 0.003220706
0.054987833 3.2146566 -1.9067265 24 0.12974782 0.074289963 0.98876005 0.003287371
0.045792095 3.2388864 -1.9210092 29 0.12967885 0.073463812 0.98883086 0.0032457863
0.064837337 3.2299583 -1.9159082 23 0.13027802 0.073180884 0.98877311 0.0032684731
0.074619614 3.2383506 -1.9210092 25 0.13078022 0.072971597 0.98872226 0.0032418752
0.083361596 3.2484622 -1.9271302 27 0.13152929 0.072511658 0.98865676 0.0032795395
0.093813561 3.2567818 -1.9322311 28 0.13170218 0.072137691 0.98866099 0.0032745951
0.10255664 3.2634025 -1.936312 28 0.13184857 0.072223209 0.9886353 0.003227252
0.11212003 3.2596457 -1.9342716 27 0.13228318 0.072560668 0.98855251 0.0032407388
0.12287559 3.2730296 -1.942433 23 0.13277279 0.072626561 0.98848206 0.0031385093
0.13151401 3.2744153 -1.9434532 29 0.13328201 0.073232904 0.98836875 0.0031514349
0.14169054 3.2980964 -1.9577359 29 0.13304439 0.07248345 0.98845601 0.0031929964
0.15205047 3.2976351 -1.9577359 28 0.13371567 0.072750539 0.9883458 0.0031843428
0.16068418 3.2972257 -1.9577359 28 0.13405907 0.07279858 0.98829573 0.0031644376
0.17028826 3.2932985 -1.9556954 30 0.13449839 0.072947778 0.9882251 0.0031772887
0.18072723 3.2944651 -1.9567156 28 0.13491827 0.073478565 0.98812848 0.0031836806
0.19044007 3.3128717 -1.9679377 28 0.13571498 0.073093541 0.98804796 0.0031676127
0.19985126 3.3054237 -1.9638568 23 0.13576411 0.073531657 0.98800868 0.0031299528
0.2102033 3.3134003 -1.9689578 27 0.13609843 0.073067389 0.98799706 0.003130381
0.21945626 3.3128002 -1.9689578 22 0.13598578 0.074350461 0.98791695 0.003119394
0.22926651 3.303514 -1.9638568 24 0.13605097 0.074401744 0.98790407 0.0031302606
0.24655546 3.2867432 -1.9546753 20 0.13664524 0.074489519 0.98781544 0.0031931892
0.25826663 3.3186278 -1.9740587 21 0.13718839 0.074132562 0.98776698 0.0031448111
0.23626015 3.2719769 -1.9454936 22 0.13608064 0.075434461 0.9878217 0.0032077115
0.26603466 3.2921274 -1.958756 18 0.13681555 0.07471282 0.98777509 0.0031789525
0.27737659 3.3170853 -1.9740587 21 0.13749753 0.074086852 0.98772746 0.0031172163
0.28943318 3.3350494 -1.9852808 24 0.13817444 0.074712366 0.9875859 0.0030441594
0.29736301 3.3188076 -1.976099 23 0.13791811 0.075846165 0.9875353 0.0030502016
0.30710563 3.3231032 -1.9791596 20 0.13795348 0.076247685 0.98749942 0.0030045931
0.31508806 3.2964356 -1.9638568 23 0.13827075 0.076073244 0.98746854 0.0030981037
0.32523 3.3110073 -1.9730386 21 0.13775799 0.077031769 0.98746586 0.0030640322
0.33522671 3.3117392 -1.9740587 22 0.13780235 0.077048786 0.98745841 0.0030748793
0.34683239 3.3278401 -1.9842606 24 0.13776538 0.077457264 0.98743153 0.0029905981
0.35191387 3.2875173 -1.9607964 22 0.138108 0.076992914 0.98742002 0.0031146395
0.36467835 3.3138175 -1.9771193 20 0.13782875 0.076872908 0.98746836 0.0030146586
0.37334892 3.3024647 -1.9709982 20 0.13776165 0.077165417 0.98745489 0.003046616
0.37742072 3.2569807 -1.9444734 25 0.138108 0.077380568 0.98738968 0.0032361418
0.40781355 3.2741182 -1.9567156 19 0.13599196 0.077903889 0.98764223 0.0030395717
0.43614203 3.2687294 -1.9556954 27 0.1336313 0.078934193 0.98788261 0.0030092923
0.44653577 3.2725346 -1.958756 20 0.13337399 0.079589903 0.98786479 0.0030106804
0.45719504 3.2780101 -1.9628367 23 0.13328001 0.079579264 0.98787832 0.0029970971
0.49435201 3.2726128 -1.9628367 27 0.13191028 0.081838034 0.98787761 0.0031225213
0.51135886 3.2543273 -1.953655 29 0.13078196 0.084704712 0.98778605 0.0031980104
0.52044564 3.2528865 -1.953655 24 0.13089821 0.085262604 0.98772264 0.0032318083
0.5001713 3.2421412 -1.9454936 22 0.1312847 0.084701404 0.98771966 0.0032478098
0.53343272 3.268213 -1.9638568 19 0.1304709 0.084285662 0.987863 0.0031488882
0.56485158 3.2803867 -1.9740587 20 0.13074152 0.084249847 0.98783028 0.0031891339
0.57669705 3.2975364 -1.9852808 21 0.13095468 0.082422554 0.98795617 0.0031081624
0.59686792 3.2974417 -1.9873211 24 0.13086191 0.082523227 0.98796004 0.0030916445
0.5913015 3.3229089 -2.0016038 24 0.13095365 0.081686191 0.98801744 0.0029502944
0.60922951 3.3161705 -1.9995633 22 0.13113077 0.081406325 0.98801708 0.0029650962
0.56314141 3.3330309 -2.0046644 22 0.13098371 0.080454677 0.98811448 0.0028860827
0.55379325 3.3415716 -2.008745 21 0.13117498 0.07981243 0.98814124 0.0028456463
0.62475085 3.3447862 -2.0179267 24 0.13020676 0.078928538 0.98834032 0.0029407751
0.6358974 3.3461874 -2.0199671 30 0.12923051 0.078194372 0.9885267 0.0029007837
0.64628452 3.3529568 -2.025068 28 0.12883778 0.077545397 0.9886291 0.0028454748
0.65689063 3.3544006 -2.0271084 30 0.128535 0.076871619 0.98872113 0.0028790508
0.66708899 3.3506334 -2.0260882 30 0.1283998 0.076504678 0.98876715 0.0029220709
0.67391521 3.342248 -2.0220075 24 0.12842621 0.076452672 0.98876774 0.0029558046
0.68441117 3.3401146 -2.0220075 29 0.12849726 0.075915881 0.98879993 0.0029448676
0.69572073 3.3448057 -2.0260882 27 0.12824774 0.075815968 0.98883986 0.002948853
0.70731223 3.3564391 -2.0342498 32 0.12760699 0.07518708 0.98897082 0.0029205952
0.71821272 3.3558829 -2.03527 28 0.1277259 0.075047046 0.98896623 0.0029603837
0.72488266 3.3386071 -2.0260882 34 0.12795757 0.074896492 0.98894763 0.0030234063
0.73214251 3.3299775 -2.0220075 22 0.12807508 0.074719757 0.98894578 0.0030391091
0.74127173 3.3244326 -2.0199671 19 0.12806816 0.07450708 0.98896271 0.0030764546
0.75075227 3.3205407 -2.0189469 20 0.12807201 0.074258238 0.98898089 0.0030745817
0.76002151 3.3184314 -2.0189469 22 0.12792921 0.074176177 0.98900557 0.0030973719
0.77200747 3.3280261 -2.0260882 22 0.12787123 0.073544621 0.98906022 0.003055397
0.77970028 3.3138626 -2.0189469 22 0.1276228 0.073395908 0.98910338 0.0031222347
0.78837281 3.3118103 -2.0189469 24 0.12734441 0.072995573 0.98916888 0.0031476317
0.80523223 3.3360727 -2.03527 22 0.12674157 0.070723981 0.98941129 0.0030299923
0.81553501 3.3353398 -2.0362899 23 0.1268072 0.070357203 0.98942894 0.0030545397
0.82261169 3.3265135 -2.0322094 22 0.12699412 0.070159592 0.9894191 0.0030556982
0.82594973 3.2955461 -2.0148661 22 0.12745163 0.073475227 0.98911947 0.0031692721
0.84445173 3.329911 -2.0373104 22 0.12576318 0.068672121 0.98968065 0.0030738809
0.84562397 3.2958806 -2.0179267 28 0.12708107 0.072150409 0.98926479 0.0031695259
0.8507821 3.2732286 -2.0056844 24 0.12723449 0.073451102 0.98914927 0.0032031764
0.87877357 3.3050008 -2.0281286 22 0.12524392 0.068160236 0.98978186 0.0031966425
0.85497844 3.2543521 -1.9954827 22 0.12745084 0.075610623 0.98895872 0.0032637396
0.89572841 3.3289571 -2.0444517 25 0.12470755 0.066474661 0.98996413 0.003123648
0.90489131 3.3282607 -2.0454717 25 0.12494063 0.066119142 0.98995864 0.0031237213
0.91750085 3.3355126 -2.0515928 25 0.12353422 0.063864097 0.99028319 0.0032440568
0.93250346 3.3152695 -2.0424111 26 0.12361758 0.063925706 0.99026877 0.0032534823
0.93074322 3.3425574 -2.057714 27 0.12312488 0.060394987 0.99055177 0.0034322732
0.9465732 3.3273792 -2.0515928 26 0.12337432 0.06326592 0.99034148 0.0031867076
0.96476012 3.3185687 -2.0495524 25 0.12316775 0.062524125 0.99041426 0.0032494771
0.97421122 3.3122208 -2.0475123 25 0.12297986 0.062204164 0.99045777 0.003256608
0.96357501 3.3493536 -2.0668955 27 0.12252406 0.059582707 0.99067545 0.003393586
0.98884636 3.3276262 -2.0587342 22 0.12251087 0.061240338 0.99057597 0.0032169621
1.0001144 3.3314416 -2.062815 23 0.12190178 0.060481362 0.99069774 0.0031781332
1.0035005 3.30706 -2.0495524 20 0.12182786 0.062078517 0.99060798 0.0033083064
1.0122991 3.3007793 -2.0475123 18 0.12155814 0.061938524 0.99064988 0.0033108927
1.0311102 3.3309841 -2.0679159 21 0.12023406 0.059451532 0.99096388 0.0032417269
1.0425999 3.3310106 -2.0699561 18 0.11976455 0.058366798 0.99108517 0.0032538916
1.0436022 3.3018425 -2.0536332 21 0.12070782 0.061115507 0.99080497 0.0032901056
1.0585697 3.3169429 -2.0648553 21 0.12004042 0.05959554 0.99097866 0.0033027122
1.0731051 3.3303468 -2.0750573 22 0.11843614 0.055268161 0.99142236 0.0034989342
1.0819178 3.3238761 -2.0730166 22 0.11819044 0.054964278 0.99146855 0.0035555649
1.0880119 3.3092129 -2.0658755 25 0.11885604 0.055877399 0.9913379 0.0036290176
1.1021638 3.3190305 -2.0740368 21 0.11832844 0.054142002 0.9914974 0.0036370696
1.107602 3.3045218 -2.0668955 17 0.11887244 0.055661067 0.99134815 0.0037431566
1.1278805 3.3321805 -2.0862792 21 0.11892743 0.053445239 0.99146348 0.0036260136
1.139987 3.3353305 -2.0903599 21 0.11925227 0.052947011 0.9914512 0.0036125586
1.1470541 3.325629 -2.0862792 18 0.11961167 0.053229555 0.99139273 0.0036403458
1.1540742 3.3159144 -2.0821984 17 0.12025236 0.053561974 0.99129742 0.0036963825
1.1644866 3.3122721 -2.0821984 18 0.12092339 0.053566061 0.99121553 0.003701922
1.1760315 3.3154926 -2.0862792 18 0.12074052 0.052084733 0.99131674 0.0036995136
1.1823885 3.3040972 -2.0811784 18 0.12064537 0.053205982 0.99126881 0.0036145886
1.1892539 3.2906594 -2.0750573 17 0.12157369 0.0549508 0.99106014 0.0037178027
1.1866934 3.2586491 -2.0566938 15 0.1220281 0.057824757 0.99084073 0.0038129122
1.1939589 3.2468317 -2.0515928 12 0.12249026 0.059918575 0.99065936 0.0038312834
1.1969671 3.2237127 -2.0393505 10 0.12276515 0.063391246 0.99040914 0.0037714706
1.2204235 3.231461 -2.0485322 11 0.12386728 0.06371218 0.9902513 0.0037997188
1.2048385 3.2207789 -2.0393505 11 0.12316231 0.063542597 0.99035013 0.0037845541
1.2566597 3.241539 -2.0617948 8 0.12340567 0.058351215 0.99063933 0.0039017871
1.261259 3.2249796 -2.0536332 5 0.12407929 0.064505562 0.9901734 0.0038361093
1.2440927 3.2647986 -2.0719967 13 0.12276302 0.05517957 0.99090081 0.0038690628
1.2690663 3.2200663 -2.052613 5 0.12419299 0.064708419 0.99014592 0.0038260955
1.2544869 3.2663476 -2.0750573 11 0.12259986 0.054937866 0.99093449 0.0038534207
1.2760739 3.2098925 -2.0485322 5 0.12468281 0.064814202 0.99007744 0.0038614532
1.283671 3.2013023 -2.0454717 5 0.12532409 0.06695006 0.98985428 0.0038085319
1.2978482 3.212285 -2.0546534 5 0.12004174 0.056841783 0.99114025 0.0027806843
1.3189731 3.2352722 -2.0719967 5 0.11904342 0.05352078 0.99144554 0.0028102102
1.3407282 3.2114093 -2.0638349 5 0.11824992 0.057100873 0.9913407 0.0026756544
1.3363638 3.2262659 -2.0709765 5 0.11766235 0.054141846 0.99157661 0.0026771841
1.331838 3.2392991 -2.0770974 5 0.11796029 0.051787559 0.99166697 0.002747746
1.3541485 3.2151089 -2.0689361 3 0.11624129 0.057085168 0.99157917 0.0023610152
1.3705161 3.2287323 -2.080158 3 0.11400391 0.052973807 0.99206692 0.0023909598
1.379411 3.2230716 -2.0791378 3 0.11329102 0.054112185 0.99208724 0.0024182885
1.3855611 3.2110665 -2.0740368 2 0.11309583 0.055671699 0.99202323 0.0024284332
1.3925912 3.2042732 -2.0719967 2 0.11345737 0.056115881 0.99195683 0.0024349673
1.4005799 3.1951556 -2.0689361 3 0.11262032 0.059381295 0.99186206 0.0023405792
1.4088014 3.1896586 -2.0679159 2 0.11245811 0.058791414 0.99191564 0.0023594757
1.4135076 3.1762817 -2.0617948 1 0.11215034 0.058571022 0.99196357 0.0023635146
1.4255917 3.1765339 -2.0648553 1 0.11172368 0.058697689 0.99200428 0.0022946913
1.4337473 3.1709733 -2.0638349 1 0.11104041 0.059144549 0.99205434 0.0022830872
1.4518679 3.1873076 -2.0770974 1 0.10937032 0.057284798 0.99234903 0.0022339856
1.4467953 3.1499035 -2.0556736 1 0.11027668 0.058885932 0.99215502 0.0023138607
1.4599195 3.1552186 -2.0617948 1 0.10940672 0.057472188 0.99233419 0.0022815417
1.4823617 3.1789355 -2.080158 1 0.10767235 0.056737963 0.99256611 0.0022147882
1.4934282 3.1794543 -2.0832186 1 0.10715158 0.055974189 0.99266583 0.0022156069
1.4926604 3.1322415 -2.057714 1 0.10748682 0.058894694 0.99246061 0.0022349833
1.4991734 3.1672361 -2.0781178 1 0.10697234 0.05691703 0.99263155 0.0022291155
1.5346432 3.1731484 -2.0903599 1 0.10378292 0.055020683 0.99307692 0.0021771397
1.5363117 3.1513031 -2.0791378 1 0.10371261 0.057209317 0.99296063 0.0021845126
1.5615827 3.1791546 -2.1005616 1 0.10141936 0.054748747 0.99333614 0.0020805232
1.5592254 3.1534674 -2.0862792 1 0.10160704 0.055136163 0.99329555 0.0021153607
1.5655657 3.1195593 -2.0699561 1 0.10195253 0.057620067 0.99311906 0.0021235161
1.6030171 3.1488168 -2.0954609 1 0.099546097 0.055631056 0.99347657 0.0020756153
1.6060736 3.1318004 -2.0872993 1 0.0997409 0.056756303 0.99339336 0.0020918185
1.6140232 3.1257751 -2.0862792 1 0.09972655 0.057711631 0.99333978 0.0021025878
1.6511257 3.1316397 -2.0995414 1 0.098804891 0.056648761 0.99349308 0.0021496043
1.6708995 3.1464772 -2.1128039 1 0.097983524 0.057226535 0.9935413 0.0021145334
1.6794162 3.1399896 -2.1117837 1 0.097881295 0.057539359 0.99353325 0.0021157248
1.6567379 3.1636696 -2.1179049 1 0.097980008 0.056040023 0.99360931 0.0020777183
1.6898086 3.1383166 -2.1138241 1 0.097995721 0.057974678 0.99349678 0.0021160531
1.6917335 3.119679 -2.1046426 1 0.098048411 0.058121383 0.99348301 0.0021628437
1.7103291 3.1330619 -2.1168847 1 0.097895205 0.058447681 0.99347889 0.0021165705
1.722103 3.1324959 -2.1199453 1 0.098002769 0.058646623 0.99345654 0.0021222848
1.6613916 3.1942279 -2.1352482 1 0.097432405 0.052956652 0.99383223 0.0021465525
1.7288911 3.1228571 -2.1168847 1 0.097852781 0.058124799 0.99350202 0.002141994
1.7384421 3.1195199 -2.1179049 1 0.097735308 0.059251845 0.99344707 0.0021248958
1.760613 3.1386576 -2.1342278 1 0.096824586 0.058333483 0.99359059 0.0021304407
1.7653863 3.1241255 -2.1281068 1 0.097018987 0.058928218 0.99353647 0.0021226523
1.7766558 3.1236684 -2.1311672 1 0.096674606 0.058783412 0.99357867 0.0021492362
1.7896447 3.1261599 -2.1362681 1 0.096986242 0.059230469 0.99352181 0.0021527871
1.7934411 3.110091 -2.129127 1 0.097016789 0.059850018 0.99348158 0.0021409164
1.7952118 3.0931675 -2.1209652 1 0.096989602 0.0605281 0.99344319 0.0021280434
1.8125186 3.1029963 -2.1311672 1 0.096714489 0.060184058 0.99349087 0.0021222937
1.8222574 3.0972872 -2.1311672 1 0.096563756 0.061176799 0.99344492 0.0021018321
1.8385791 3.1076312 -2.1413693 1 0.095891468 0.059976414 0.99358326 0.0020972746
1.8395264 3.0870624 -2.1311672 1 0.096066713 0.061043199 0.99350137 0.0020983072
1.8592982 3.099292 -2.1434095 1 0.095931679 0.060571522 0.99354321 0.0020821367
1.8736269 3.1047239 -2.1505508 1 0.095736548 0.059802473 0.99360865 0.0020746412
1.8801521 3.0947399 -2.1474903 1 0.096027613 0.061532646 0.99347496 0.0020431918
1.8790911 3.0712099 -2.1352482 1 0.096423022 0.064750679 0.99323201 0.0018695308
1.8970426 3.0823953 -2.1464701 1 0.096385397 0.063938498 0.99328834 0.0018657531
1.9098046 3.0826018 -2.1505508 1 0.096416667 0.064105973 0.99327457 0.0018491701
1.9267634 3.0882635 -2.1587124 1 0.096445307 0.064252295 0.99326229 0.0018324939
1.9361329 3.0864599 -2.1607525 1 0.096305966 0.063821837 0.99330354 0.0018286079
1.9329575 3.0600014 -2.1464701 1 0.096938021 0.066745788 0.9930498 0.0018041934
1.9512577 3.0687695 -2.156672 1 0.096611872 0.065074392 0.99319255 0.001816511
1.9760916 3.0487378 -2.1546314 1 0.096391514 0.067668706 0.99304062 0.0017769554
1.9850109 3.0264935 -2.1464701 1 0.096364029 0.067793779 0.99303472 0.001790299
2.0039895 3.0345969 -2.156672 1 0.096511565 0.067932121 0.99301094 0.0017705335
2.0029359 3.0146608 -2.1464701 1 0.096706331 0.069215253 0.99290341 0.0017480811
