# .PCD v0.7 - Point Cloud Data file format
VERSION 0.7
FIELDS x y z intensity normal_x normal_y normal_z curvature
SIZE 4 4 4 4 4 4 4 4
TYPE F F F F F F F F
COUNT 1 1 1 1 1 1 1 1
WIDTH 267
HEIGHT 1
VIEWPOINT 0 0 0 1 0 0 0
POINTS 267
DATA ascii
5.7802844 4.2166052 -2.6041412 14 0.10058995 -0.028089464 0.99453133 0.0089631276
5.7699471 4.1828885 -2.5938809 17 0.091328211 -0.026590398 0.99546576 0.0078508202
5.7853813 4.1679487 -2.5952487 26 0.097299166 -0.026426002 0.99490428 0.0076001636
5.807693 4.1594372 -2.6000371 37 0.10280635 -0.024345273 0.99440336 0.0073690726
5.8299227 4.1477041 -2.6041412 41 0.10823725 -0.022400534 0.9938727 0.0072839563
5.8484321 4.1378555 -2.6075616 37 0.11416384 -0.012399335 0.99338454 0.0057895938
5.8699069 4.1269712 -2.6116657 37 0.11567739 -0.015069989 0.99317247 0.005622386
5.883666 4.1106138 -2.61235 35 0.11692572 -0.010921174 0.99308062 0.0053480766
5.9012985 4.098454 -2.6150861 35 0.118535 -0.0067511974 0.9929269 0.0050706454
5.9125967 4.0788288 -2.6144021 35 0.11862924 -0.0021772312 0.99293619 0.0046769646
5.9208655 4.060174 -2.6130338 37 0.11781917 0.0010220471 0.99303454 0.0043684673
5.9299212 4.0436015 -2.61235 33 0.11673301 0.0069856187 0.99313873 0.0038428919
5.9403358 4.0249357 -2.6116657 33 0.11746102 0.011471366 0.99301124 0.0033852276
5.9545116 4.0073018 -2.61235 33 0.11795627 0.01851636 0.99284613 0.0029345914
5.9649816 3.9917002 -2.61235 29 0.11764353 0.029293673 0.99262375 0.0018850443
5.9830604 3.9781446 -2.6150861 26 0.11675536 0.041645408 0.99228716 0.00071484444
5.9932671 3.9593432 -2.6144021 19 0.11621187 0.045453761 0.9921838 0.00060572225
5.9933043 3.9353685 -2.6096137 17 0.11622931 0.046956666 0.99211174 0.00056125899
6.0024886 3.9144685 -2.6082456 26 0.11601585 0.048920088 0.99204189 0.00050045562
6.017446 3.9018087 -2.6102977 26 0.1159659 0.049051803 0.99204117 0.00048883306
6.0251603 3.8829517 -2.6089296 28 0.11582318 0.050900411 0.99196476 0.00042236145
6.0357475 3.8629892 -2.6082456 26 0.11593001 0.050686106 0.99196333 0.00041893456
6.0480947 3.847132 -2.6089296 22 0.11572895 0.050328724 0.99200499 0.00041491992
6.0619926 3.8322341 -2.6102977 20 0.1157191 0.050421663 0.99200141 0.00041827364
6.0733376 3.814229 -2.6102977 13 0.11578798 0.050412811 0.99199378 0.00040817392
6.0823703 3.7962601 -2.6096137 12 0.11583813 0.05034554 0.99199134 0.00040274765
6.0936065 3.778198 -2.6096137 10 0.11478154 0.053214792 0.99196446 0.00020235404
6.1127925 3.7650275 -2.6130338 8 0.11498401 0.052880242 0.99195886 0.00020336566
6.1229863 3.7448256 -2.61235 8 0.11504626 0.052729104 0.99195969 0.00020116141
6.1295567 3.726831 -2.6109817 8 0.11486672 0.052992754 0.99196643 0.00018924456
6.1454148 3.7115409 -2.6130338 8 0.11463622 0.053387593 0.99197191 0.00018844033
6.1541433 3.6933992 -2.61235 8 0.11449537 0.053577762 0.99197793 0.0001889391
6.1644344 3.6761971 -2.61235 8 0.1141272 0.05412269 0.99199075 0.00018207623
6.1824212 3.6606443 -2.6150861 7 0.11368115 0.05470594 0.99201 0.00016503468
6.1932545 3.6422856 -2.6150861 8 0.11272108 0.057284914 0.99197394 3.0239087e-05
6.2034011 3.6249778 -2.6150861 7 0.11270156 0.057212129 0.99198037 3.5399247e-05
6.2102499 3.6057513 -2.6137178 8 0.11247399 0.057395823 0.99199563 2.9513001e-05
6.2258048 3.5901268 -2.6157701 8 0.11243768 0.057358593 0.99200189 2.9059878e-05
6.2341766 3.5717909 -2.6150861 8 0.11243188 0.05726213 0.99200809 3.0915471e-05
6.2453661 3.5521894 -2.6150861 8 0.11251223 0.057054721 0.99201095 3.202707e-05
6.26057 3.5406199 -2.6178222 8 0.11262123 0.056711856 0.99201828 2.4978677e-05
6.2700248 3.5200126 -2.6171381 8 0.11272486 0.056438666 0.99202204 2.4221843e-05
6.2847552 3.505234 -2.6191902 7 0.11278054 0.05619327 0.99202967 2.7421898e-05
6.2895851 3.4849415 -2.6171381 8 0.11291047 0.055874024 0.99203289 1.6485068e-05
6.3015447 3.4671688 -2.6178222 7 0.11310155 0.05553741 0.99203002 1.7727434e-05
6.3134546 3.4493556 -2.6185062 7 0.11319993 0.055334866 0.99203014 1.8626475e-05
6.3164535 3.4281299 -2.6157701 7 0.113387 0.055051383 0.99202454 1.2694088e-05
6.3365245 3.414721 -2.6198742 7 0.11358929 0.054683521 0.99202174 8.2135366e-06
6.3449721 3.3950167 -2.6191902 7 0.11382239 0.054345429 0.99201363 4.8788365e-06
6.3550158 3.3761799 -2.6191902 7 0.11387891 0.054284051 0.99201047 9.893648e-06
6.371068 3.3619268 -2.6219263 7 0.11392196 0.054326713 0.9920032 4.3400673e-06
6.3793516 3.3421345 -2.6212425 7 0.11396074 0.054310877 0.99199969 7.1059972e-06
6.3814106 3.3219516 -2.6185062 7 0.1139693 0.054281957 0.99200022 6.2816484e-06
6.4001632 3.3062017 -2.6219263 7 0.11407946 0.054179676 0.99199313 1.5013085e-05
6.4093723 3.2883141 -2.6219263 7 0.11418819 0.054088846 0.99198562 1.3273227e-05
6.4112959 3.2639003 -2.6185062 8 0.11429115 0.054006841 0.99197823 1.0258672e-05
6.4315581 3.2530432 -2.6232946 7 0.11445975 0.053801045 0.99197 1.1590539e-05
6.4411831 3.2339442 -2.6232946 7 0.11459067 0.053646609 0.99196321 1.3219174e-05
6.4485059 3.215107 -2.6226103 7 0.11473554 0.053553648 0.99195147 1.7148001e-05
6.4692497 3.2029221 -2.6273987 7 0.11489927 0.05336044 0.99194294 1.249872e-05
6.4640975 3.1751266 -2.6212425 7 0.11501609 0.053288992 0.99193329 1.392375e-05
6.4729385 3.157064 -2.6212425 7 0.11516099 0.053193726 0.99192154 1.2519813e-05
6.4907346 3.1419399 -2.6246626 7 0.11523348 0.053074285 0.99191952 1.3869613e-05
6.4881711 3.1169691 -2.6198742 7 0.1153335 0.053006299 0.99191153 1.0121588e-05
6.5092649 3.1033673 -2.6246626 7 0.11547331 0.052816104 0.99190545 7.0000347e-06
6.5066376 3.0826259 -2.6205583 7 0.11556377 0.052668139 0.99190283 8.1012122e-06
6.5230951 3.0653648 -2.6232946 7 0.11566716 0.05259997 0.9918943 5.2468931e-06
6.5299253 3.0463436 -2.6226103 7 0.11573666 0.052488614 0.99189216 0
6.539463 3.0258155 -2.6226103 7 0.11578193 0.052422788 0.99189037 1.4064719e-06
6.5427647 3.0051868 -2.6205583 7 0.11583947 0.052366909 0.99188656 7.3593728e-06
6.5562606 2.9892445 -2.6226103 7 0.11585365 0.052280337 0.99188948 3.2076728e-06
6.5628715 2.9701474 -2.6219263 7 0.11594052 0.052233696 0.99188179 3.631053e-06
6.5745687 2.9533501 -2.6232946 7 0.11597598 0.052159756 0.99188149 4.6741952e-06
6.5820971 2.9319174 -2.6226103 7 0.11599013 0.05203893 0.9918862 3.7636048e-07
6.588541 2.9127636 -2.6219263 7 0.11608046 0.051996138 0.99187785 3.7309342e-06
6.5949278 2.8935995 -2.6212425 7 0.11609977 0.052050915 0.99187273 1.4230108e-06
6.6039853 2.8728678 -2.6212425 7 0.11621332 0.051863618 0.99186927 1.4235453e-06
6.6183844 2.8585508 -2.6239786 6 0.11628596 0.051670246 0.99187082 3.0344258e-06
6.6233826 2.8374188 -2.6226103 6 0.11633288 0.051540565 0.99187207 2.7737608e-06
6.6248527 2.8148158 -2.6198742 6 0.11647069 0.051503807 0.99185783 3.222174e-06
6.6336641 2.7939873 -2.6198742 6 0.11656666 0.051379152 0.991853 2.0059053e-06
6.6409554 2.776612 -2.6198742 6 0.11667138 0.051169701 0.99185145 2.6469083e-06
6.6491642 2.756897 -2.6198742 6 0.11678024 0.05095749 0.99184972 5.6691524e-06
6.6603136 2.7397461 -2.6212425 6 0.11686723 0.05069685 0.9918527 3.9878828e-06
6.6644583 2.7197173 -2.6198742 6 0.11691453 0.050744746 0.99184465 6.2109634e-06
6.6707568 2.6992247 -2.6191902 6 0.11712139 0.050209329 0.99184752 1.3469292e-05
6.6757145 2.6768568 -2.6178222 5 0.11720114 0.049945302 0.99185151 1.065974e-05
6.6901498 2.6609805 -2.6205583 5 0.11722653 0.049874559 0.99185205 1.2953813e-05
6.6940579 2.6409097 -2.6191902 5 0.11749084 0.049217496 0.99185359 1.9363772e-05
6.7058215 2.6212361 -2.6205583 4 0.11759076 0.048831083 0.99186087 1.6216432e-05
6.7126603 2.6036725 -2.6205583 4 0.11754866 0.048778325 0.9918685 1.9504498e-05
6.7168489 2.5823934 -2.6191902 4 0.1178539 0.047924101 0.99187386 2.7818591e-05
6.7262368 2.5631232 -2.6198742 4 0.11797419 0.047451641 0.99188226 2.8251443e-05
6.7316098 2.5436668 -2.6191902 4 0.11796105 0.047281999 0.99189192 2.8338894e-05
6.7404475 2.525516 -2.6198742 4 0.11804737 0.046842489 0.99190247 3.092513e-05
6.7501097 2.5049829 -2.6205583 4 0.11820885 0.04623105 0.99191195 4.0621115e-05
6.7513533 2.4853559 -2.6185062 4 0.11833644 0.045583479 0.99192673 4.4875702e-05
6.7551675 2.4640236 -2.6171381 4 0.11844718 0.044804178 0.99194908 4.7928312e-05
6.7611074 2.4421523 -2.6164541 3 0.11858385 0.044151139 0.99196196 5.0344068e-05
6.7763228 2.4276135 -2.6198742 4 0.11886461 0.043491147 0.99195755 6.0446586e-05
6.7742214 2.4055345 -2.6164541 3 0.1190246 0.042637993 0.99197537 6.3359483e-05
6.7870646 2.3861086 -2.6185062 3 0.11915033 0.041918345 0.99199092 6.5417058e-05
6.7901511 2.3659141 -2.6171381 3 0.11937429 0.041022599 0.99200147 7.3583025e-05
6.7975516 2.3445654 -2.6171381 3 0.11958566 0.040070493 0.99201494 7.3839445e-05
6.8036666 2.3267624 -2.6171381 3 0.119775 0.039248321 0.99202496 7.7961828e-05
6.8083572 2.307152 -2.6164541 3 0.11997816 0.038061813 0.99204671 8.1060607e-05
6.8120074 2.2845578 -2.6150861 3 0.12020599 0.037098855 0.99205559 8.1763545e-05
6.8233161 2.2684927 -2.6171381 3 0.12048987 0.036316969 0.99204999 9.1106944e-05
6.8282313 2.2476511 -2.6164541 3 0.12060429 0.035078671 0.99208069 9.0517649e-05
6.8334723 2.2256045 -2.6157701 3 0.12080432 0.034136299 0.99208921 9.5217249e-05
6.8396597 2.2065144 -2.6157701 3 0.12105256 0.033174139 0.9920916 9.7613884e-05
6.8457952 2.187407 -2.6157701 3 0.12130663 0.032147918 0.99209434 0.00010061495
6.8504624 2.1665201 -2.6150861 3 0.12144028 0.030844741 0.99211937 0.00010206389
6.8546934 2.1468177 -2.6144021 3 0.12156865 0.029819602 0.99213493 0.00010955735
6.8649936 2.1263859 -2.6157701 3 0.12203369 0.028642396 0.99211258 0.00011171686
6.8762946 2.1088612 -2.6178222 3 0.12231873 0.027509745 0.99210954 0.00012047149
6.8767629 2.0880105 -2.6157701 3 0.1224607 0.026439965 0.9921211 0.00012077689
6.8822055 2.0700014 -2.6157701 3 0.12270115 0.025298592 0.9921211 0.00012787475
6.8890314 2.047169 -2.6157701 3 0.12295344 0.023895666 0.99212474 0.00013291537
6.8889604 2.0275292 -2.6137178 3 0.12300821 0.023095913 0.99213684 0.0001370133
6.9003577 2.0086608 -2.6157701 3 0.12344354 0.021445494 0.99211991 0.0001450128
6.9135118 1.9902558 -2.6185062 3 0.12390768 0.020381954 0.99208438 0.00014593569
6.9100065 1.9683654 -2.6150861 3 0.12399432 0.018943897 0.99210209 0.0001478242
6.910048 1.9475363 -2.6130338 3 0.12408859 0.017869823 0.99211025 0.00014746084
6.9339004 1.9320678 -2.6198742 3 0.12461552 0.016480438 0.99206823 0.00014506697
6.9377913 1.9109849 -2.6191902 3 0.1247858 0.015719369 0.99205917 0.00014043544
6.941617 1.889899 -2.6185062 3 0.12508711 0.01447252 0.99204022 0.00014084675
6.9414229 1.8690425 -2.6164541 3 0.12520427 0.013084433 0.99204475 0.00014164484
6.9487548 1.8489199 -2.6171381 3 0.1255471 0.011773532 0.99201781 0.0001469648
6.9632974 1.8306847 -2.6205583 3 0.1259242 0.010582318 0.99198347 0.00014781307
6.9702015 1.8117065 -2.6212425 3 0.1261857 0.0093554705 0.99196255 0.00014681816
6.9788742 1.7931682 -2.6226103 3 0.12641244 0.00810258 0.99194473 0.00014430885
6.9808297 1.770312 -2.6212425 3 0.12673146 0.0058218618 0.99191999 0.00014230005
6.9912148 1.7521828 -2.6232946 2 0.12701376 0.0048863688 0.99188894 0.00014680441
6.9960814 1.7326506 -2.6232946 2 0.12723857 0.0034157159 0.99186629 0.00015146002
7.0051408 1.7115567 -2.6246626 2 0.12770645 0.0016646289 0.99181062 0.00014153904
7.0147834 1.6957574 -2.6267147 2 0.12784205 0.0012724232 0.99179369 0.00014403624
7.0182471 1.6732769 -2.6260307 2 0.12820832 0.00018780452 0.99174726 0.00014818858
7.0307875 1.6529422 -2.6287668 2 0.12868325 -0.001482909 0.99168462 0.00014067237
7.0439587 1.6378837 -2.6321871 2 0.12868601 -0.0017619233 0.99168378 0.00013628259
7.0414591 1.6152971 -2.6294508 2 0.12891121 -0.0026461035 0.99165261 0.00013827608
7.0519986 1.5944123 -2.6315029 2 0.12932909 -0.0042666867 0.99159253 0.00013351516
7.06532 1.5779908 -2.6349232 2 0.12952913 -0.0052399812 0.99156177 0.00012607935
7.0775838 1.5574037 -2.6376593 2 0.12973191 -0.0061737089 0.99152994 0.00011982649
7.0803366 1.5360001 -2.6369753 2 0.12991789 -0.0070519736 0.99149972 0.00011361147
7.0840693 1.5186926 -2.6369753 2 0.13009803 -0.0079006609 0.99146968 0.00011192474
7.0998387 1.4987605 -2.6410797 2 0.13012391 -0.0085932873 0.9914605 0.00010619775
7.1079345 1.4784514 -2.6424475 2 0.13024536 -0.0094160205 0.99143714 9.8291406e-05
7.1099401 1.4594611 -2.6417637 2 0.13029958 -0.01029765 0.99142116 9.4296018e-05
7.1218576 1.4386071 -2.6444998 2 0.13045084 -0.011062877 0.99139303 8.8483139e-05
7.1242523 1.4171013 -2.6438158 2 0.13051023 -0.011866726 0.99137592 7.979272e-05
7.1334705 1.3995317 -2.6458678 2 0.13058175 -0.012656026 0.99135673 7.4495489e-05
7.1355047 1.3792503 -2.6451838 2 0.13058354 -0.013358093 0.99134731 7.1386254e-05
7.149272 1.3573313 -2.6486039 2 0.13054091 -0.013945735 0.99134481 6.3916203e-05
7.1583424 1.3396482 -2.6506562 2 0.13037564 -0.01470123 0.99135572 6.3571577e-05
7.1641345 1.3187412 -2.65134 1 0.13039465 -0.015201882 0.9913457 5.4315886e-05
7.1698651 1.2978151 -2.652024 1 0.13024312 -0.016130263 0.99135089 5.0601335e-05
7.1750884 1.2793711 -2.6527083 1 0.13026388 -0.016766611 0.9913376 4.4369735e-05
7.1899605 1.2600209 -2.6568124 1 0.1301991 -0.017083906 0.99134064 4.0213792e-05
7.2047787 1.2406005 -2.6609166 1 0.1300956 -0.017322974 0.99135011 3.9049832e-05
7.2082152 1.2204739 -2.6609166 1 0.13008405 -0.017653631 0.99134576 4.0296705e-05
7.2157221 1.1984365 -2.6622849 1 0.12999411 -0.017766958 0.9913556 3.8126604e-05
7.2116208 1.1770754 -2.6595488 1 0.13003288 -0.017969212 0.99134684 3.6760746e-05
7.2260141 1.1587154 -2.6636529 1 0.12989664 -0.018131919 0.99136174 3.3284821e-05
7.2314754 1.1362981 -2.6643369 1 0.12983878 -0.018210273 0.99136794 3.2457508e-05
7.2418551 1.118511 -2.667073 0 0.12980652 -0.018225696 0.99137187 3.1560281e-05
7.2544332 1.0984272 -2.6704934 0 0.12986308 -0.018339764 0.99136233 2.8196162e-05
7.2576604 1.0768958 -2.6704934 0 0.12971669 -0.018041654 0.99138689 3.1472158e-05
7.2662187 1.0574377 -2.6725454 0 0.1298077 -0.017842012 0.99137866 3.0657837e-05
7.2635617 1.0363439 -2.6704934 0 0.12991841 -0.017557316 0.99136925 3.0362551e-05
7.2742267 1.0145594 -2.6732295 0 0.13001961 -0.017472867 0.99135745 2.8979803e-05
7.2768579 0.9955132 -2.6732295 0 0.12992615 -0.017196706 0.99137455 3.1290747e-05
7.285368 0.97466344 -2.6752815 0 0.13002059 -0.017507629 0.99135673 3.0033929e-05
7.288394 0.95177239 -2.6752815 0 0.13010849 -0.017014816 0.99135375 3.7997783e-05
7.2984805 0.93236607 -2.6780176 0 0.13004529 -0.01679345 0.99136585 3.376606e-05
7.3066502 0.91268134 -2.6800699 0 0.13001624 -0.01641172 0.99137598 3.5085359e-05
7.3149228 0.89168161 -2.682122 0 0.13005501 -0.016074326 0.99137646 3.7127589e-05
7.3229828 0.87191892 -2.6841741 0 0.12995501 -0.015784498 0.99139422 3.6745241e-05
7.3498073 0.85300183 -2.6930666 0 0.13003232 -0.01556547 0.99138755 3.7582729e-05
7.3523054 0.83119208 -2.6930666 0 0.13005842 -0.015268452 0.99138874 3.654202e-05
7.3413796 0.81049848 -2.6882784 0 0.13013819 -0.014682853 0.99138713 4.2409687e-05
7.3697753 0.79280627 -2.697855 0 0.13025415 -0.014494378 0.99137473 4.0923056e-05
7.3497987 0.76730925 -2.6896465 0 0.1302972 -0.013898244 0.99137759 4.4258333e-05
7.3762193 0.74925202 -2.6985388 0 0.13053434 -0.013781886 0.99134797 4.1357507e-05
7.3840208 0.72791398 -2.7005911 0 0.13070045 -0.01348845 0.99133015 4.9505725e-05
7.3693104 0.70439386 -2.6944346 0 0.13096051 -0.012374834 0.9913103 4.901749e-05
7.3656349 0.68329263 -2.6923826 0 0.13099562 -0.011747682 0.99131334 4.7470108e-05
7.3899765 0.66473943 -2.7005911 0 0.13130073 -0.011850652 0.99127179 5.3297164e-05
7.4031506 0.64378476 -2.7046952 0 0.13145201 -0.011315244 0.99125797 5.69435e-05
7.4050274 0.62182122 -2.7046952 0 0.13143577 -0.010964649 0.99126405 5.5783246e-05
7.3899803 0.59847975 -2.6985388 0 0.13185357 -0.010181451 0.99121696 5.6901139e-05
7.3991179 0.57842439 -2.7012751 0 0.13200378 -0.0098680295 0.99120009 5.5894874e-05
7.4007039 0.55776113 -2.7012751 0 0.13220461 -0.009287335 0.99117899 5.972026e-05
7.4061689 0.53478056 -2.7026432 0 0.13266008 -0.0087285545 0.99112314 5.4016753e-05
7.4188833 0.51487505 -2.7067475 0 0.13257673 -0.0084936116 0.99113631 5.4948261e-05
7.4165411 0.49390706 -2.7053792 0 0.13280293 -0.0079671182 0.99111044 5.1336523e-05
7.4218078 0.47084433 -2.7067475 0 0.13291407 -0.0075811455 0.99109852 5.2259482e-05
7.4305186 0.45186645 -2.7094836 0 0.13297877 -0.0072734314 0.99109221 5.1007573e-05
7.4093108 0.42851683 -2.7012751 0 0.1334395 -0.0064490014 0.991036 5.2754112e-05
7.4255629 0.40735602 -2.7067475 0 0.13340473 -0.0062459498 0.99104196 5.1247796e-05
7.4078355 0.38693541 -2.6999071 0 0.13385326 -0.0055295029 0.99098569 5.2313844e-05
7.4222178 0.36300862 -2.7046952 0 0.13387053 -0.0054241633 0.99098402 4.5457033e-05
7.4213252 0.34219518 -2.7040112 0 0.13403128 -0.0049097156 0.99096495 4.2882548e-05
7.4146848 0.32243958 -2.7012751 0 0.13421503 -0.004411553 0.99094242 4.4816268e-05
7.4268765 0.30089268 -2.7053792 0 0.13433495 -0.0043893335 0.99092627 4.5759498e-05
7.4145412 0.27965364 -2.7005911 0 0.1347234 -0.0041425461 0.99087459 5.0067156e-05
7.4172158 0.25772318 -2.7012751 0 0.13483073 -0.0039306693 0.99086082 4.8095313e-05
7.412313 0.23553346 -2.6992228 1 0.13464911 -0.0038560929 0.99088579 4.2201431e-05
7.4129796 0.21353748 -2.6992228 1 0.13461992 -0.0038623076 0.99088979 4.3025299e-05
7.4135466 0.19283697 -2.6992228 1 0.1346159 -0.0038570196 0.99089032 4.6096549e-05
7.4140863 0.17084105 -2.6992228 1 0.13483961 -0.0041382825 0.99085873 3.7608821e-05
7.4126558 0.15009606 -2.6985388 1 0.13481075 -0.0041212747 0.99086273 3.5985908e-05
7.4092875 0.1293311 -2.6971707 2 0.1348075 -0.0041224752 0.99086326 3.8452083e-05
7.4096575 0.10605141 -2.6971707 2 0.13477929 -0.0042094341 0.99086672 4.0649855e-05
7.4099245 0.085360602 -2.6971707 2 0.13483536 -0.0043453104 0.9908585 4.3683187e-05
7.415772 0.064714797 -2.6992228 2 0.13485602 -0.0045141224 0.99085492 4.0273575e-05
7.4196901 0.04273802 -2.7005911 2 0.13488905 -0.0045770863 0.99085015 4.1613686e-05
7.4160213 0.022004755 -2.6992228 2 0.13492224 -0.0046907323 0.99084514 4.0950061e-05
7.4254184 -0.022031726 -2.7026432 2 0.13503456 -0.0048297299 0.99082911 3.9699702e-05
7.4234414 -0.044052105 -2.7019591 3 0.13513905 -0.0047750031 0.9908151 3.8665843e-05
7.4232893 -0.064782061 -2.7019591 3 0.13531518 -0.0048747468 0.99079061 3.9281385e-05
7.421185 -0.0867851 -2.7012751 3 0.13531207 -0.0046570017 0.99079204 3.4162433e-05
7.419035 -0.10748138 -2.7005911 3 0.13527781 -0.0045064213 0.99079746 3.7250069e-05
7.4186831 -0.12949359 -2.7005911 3 0.13545212 -0.004289797 0.99077457 3.955411e-05
7.4220243 -0.15158142 -2.7019591 3 0.13542509 -0.0041544614 0.99077886 3.4396104e-05
7.4328151 -0.17386599 -2.7060633 3 0.13553208 -0.0039390828 0.99076515 3.4698343e-05
7.4285769 -0.19322672 -2.7046952 3 0.13561429 -0.003728729 0.99075466 3.7363585e-05
7.4241757 -0.21645373 -2.7033272 3 0.134886 -0.0013911914 0.9908601 0.00017323393
7.419868 -0.23447505 -2.7019591 3 0.13492681 -0.0014229643 0.99085456 0.00017601589
7.4209733 -0.25784931 -2.7026432 3 0.13396871 0.00061723462 0.99098533 0.00025931737
7.4182487 -0.2810905 -2.7019591 3 0.13417876 0.00012330065 0.99095714 0.00026192862
7.4156613 -0.29914007 -2.7012751 3 0.13264224 0.0027670821 0.99116015 0.00046517304
7.4184403 -0.32259887 -2.7026432 3 0.13228127 0.0051103388 0.99119908 0.00051977829
7.4174504 -0.34460837 -2.7026432 3 0.13185102 0.0045281998 0.99125916 0.0005508585
7.4146461 -0.36393389 -2.7019591 3 0.13062002 0.0037806495 0.99142528 0.00060557202
7.4172192 -0.38742191 -2.7033272 3 0.13056761 0.0031459196 0.99143445 0.00058546918
7.4160371 -0.40942749 -2.7033272 3 0.12859395 0.0046984409 0.99168617 0.00073739473
7.4074349 -0.42840719 -2.7005911 3 0.12689117 0.0038602746 0.99190915 0.00076319813
7.4098835 -0.45061171 -2.7019591 3 0.12624763 0.0054697492 0.99198371 0.00095902517
7.4178915 -0.47319347 -2.7053792 4 0.12644397 0.0063057831 0.99195367 0.00099494064
7.4147525 -0.49248734 -2.7046952 3 0.12580277 0.0057567591 0.99203861 0.0010048026
7.4187932 -0.51617032 -2.7067475 4 0.12742259 0.0058922181 0.99183106 0.00098505791
7.4191031 -0.53831601 -2.7074313 4 0.12738182 0.0045808055 0.99184316 0.0010279388
7.4176683 -0.55773729 -2.7074313 4 0.1265794 0.0028557887 0.99195236 0.0010966868
7.4160819 -0.57844913 -2.7074313 4 0.12677906 0.0028972642 0.99192667 0.0010981038
7.4159961 -0.6031909 -2.7081153 4 0.1266612 -0.00040782406 0.99194592 0.0011998296
7.412519 -0.62244654 -2.7074313 7 0.12622032 -0.0006746552 0.99200195 0.0012213901
7.399405 -0.64346027 -2.7033272 16 0.12226272 -0.0035281181 0.99249148 0.0013597618
7.3955917 -0.66524351 -2.7026432 13 0.12205353 -0.0069339173 0.99249935 0.0014404707
7.3994398 -0.68512273 -2.7046952 11 0.12179722 -0.0081509165 0.99252152 0.0015042633
7.4048576 -0.70778948 -2.7074313 11 0.12442915 -0.0090299817 0.99218738 0.001463234
7.398984 -0.72938818 -2.7060633 8 0.12153071 -0.011365178 0.9925226 0.0015753511
7.4062672 -0.75099522 -2.7094836 7 0.12456196 -0.011526965 0.99214482 0.0014964467
7.4169555 -0.7756272 -2.7142718 7 0.12481484 -0.013637781 0.99208629 0.0015398703
7.422235 -0.79713893 -2.7170079 11 0.12462237 -0.013683706 0.99210984 0.0015852418
7.405036 -0.8162154 -2.7115357 23 0.12138436 -0.014801548 0.99249524 0.00170318
7.4043026 -0.83968675 -2.7122197 22 0.12076809 -0.018030569 0.99251699 0.0017622607
7.3981957 -0.85992616 -2.7108517 24 0.12085821 -0.01817208 0.9925034 0.001752294
7.4013629 -0.88124901 -2.7129037 24 0.12072392 -0.018465232 0.99251431 0.0017666303
7.4080439 -0.90434408 -2.7163239 24 0.12050863 -0.019260911 0.99252546 0.0018007149
7.4073539 -0.9252606 -2.7170079 24 0.12038071 -0.019548597 0.99253529 0.001838539
7.3935561 -0.94451326 -2.7129037 34 0.12046365 -0.02078744 0.99250007 0.0018200051
7.392416 -0.96798015 -2.7135878 31 0.11971384 -0.022097014 0.99256253 0.001869156
7.3935823 -0.98782778 -2.7149558 37 0.11959554 -0.023797516 0.99253744 0.0019041053
7.3719978 -1.0072166 -2.7081153 35 0.12060827 -0.024422815 0.99239975 0.0018333133
7.361352 -1.0293304 -2.7053792 31 0.12100249 -0.025176246 0.99233294 0.0018503118
7.3789148 -1.052803 -2.7129037 31 0.12142423 -0.026999066 0.99223346 0.0018773389
