# .PCD v0.7 - Point Cloud Data file format
VERSION 0.7
FIELDS x y z intensity normal_x normal_y normal_z curvature
SIZE 4 4 4 4 4 4 4 4
TYPE F F F F F F F F
COUNT 1 1 1 1 1 1 1 1
WIDTH 114
HEIGHT 1
VIEWPOINT 0 0 0 1 0 0 0
POINTS 114
DATA ascii
6.0754404 0.29713994 -2.5407083 0 0.13499327 -0.0039709308 0.99083859 6.5111832e-05
6.0596552 0.27940896 -2.5337706 0 0.13493995 -0.0036534888 0.99084693 6.0928687e-05
6.0788031 0.2643466 -2.5414791 0 0.13494316 -0.0034502465 0.99084729 5.7431254e-05
6.0555892 0.24533631 -2.5314581 0 0.13504082 -0.0032401776 0.99083471 5.8138725e-05
6.0341206 0.22758843 -2.5222077 0 0.13464937 -0.0026576181 0.99088973 6.340431e-05
6.0329247 0.20962374 -2.5214369 0 0.13460606 -0.0023281709 0.9908964 6.1527542e-05
6.0132303 0.19107625 -2.5129578 0 0.13418995 -0.0018447917 0.99095392 6.4762418e-05
6.0082369 0.17307261 -2.5106452 0 0.13424782 -0.0016330058 0.99094647 6.5395274e-05
6.0179205 0.15653475 -2.5144994 0 0.13433684 -0.0014220231 0.99093473 6.1081359e-05
6.0128236 0.13855208 -2.5121868 0 0.13429782 -0.0010578487 0.99094045 6.3405401e-05
6.0058069 0.12160932 -2.5091035 0 0.13441344 -0.00071969838 0.99092501 5.9965041e-05
6.0098133 0.1049029 -2.5106452 0 0.13451719 -0.00047135359 0.99091119 6.3028237e-05
5.9953508 0.085809022 -2.5044785 0 0.13464826 -0.00010364925 0.99089348 6.4697095e-05
6.0177116 0.069322631 -2.5137286 0 0.13460286 -0.00014528715 0.99089962 5.9321355e-05
5.9994278 0.052354865 -2.5060201 0 0.13463467 5.1810925e-06 0.99089527 6.7016103e-05
6.0014019 0.034568567 -2.5067909 0 0.13456914 -0.00039867192 0.99090409 6.3794556e-05
6.0051661 0.017818479 -2.5083327 1 0.1344703 -0.00019386219 0.99091762 6.467435e-05
5.9959388 -0.01779036 -2.5044785 1 0.13483834 -0.00036647433 0.9908675 6.5794768e-05
5.9940143 -0.035569616 -2.5037076 1 0.13510357 -0.00045422564 0.99083138 6.5759828e-05
5.9865098 -0.052243479 -2.5006242 1 0.13559595 -0.00058021658 0.99076396 5.9983729e-05
5.9955549 -0.07011345 -2.5044785 1 0.13492823 -0.00048179663 0.99085522 6.3644016e-05
5.9898 -0.086775705 -2.5021658 1 0.1355425 -0.00084707671 0.99077123 6.2314655e-05
5.9913616 -0.10457961 -2.5029368 1 0.13538051 -0.00097671221 0.99079323 6.0929968e-05
5.9891796 -0.12231816 -2.5021658 1 0.13564399 -0.0012465831 0.99075693 6.1933031e-05
5.98879 -0.14008783 -2.5021658 1 0.13545914 -0.0011578064 0.9907822 6.6435605e-05
5.986558 -0.15571798 -2.501395 1 0.13589722 -0.0018713545 0.99072123 6.6902619e-05
5.9841948 -0.17447072 -2.5006242 2 0.13600154 -0.0023507001 0.99070579 6.1946856e-05
5.9874396 -0.18920891 -2.5021658 2 0.13566159 -0.0024071357 0.99075228 6.154905e-05
5.9923491 -0.2082103 -2.5044785 2 0.13563542 -0.0028022984 0.99075484 6.3065345e-05
5.9842887 -0.22675523 -2.501395 2 0.13627592 -0.003403937 0.99066502 6.5560023e-05
5.9855604 -0.24145129 -2.5021658 2 0.13616499 -0.0037945516 0.99067891 6.7616202e-05
5.9829288 -0.26017413 -2.501395 2 0.13622536 -0.0041972515 0.99066901 6.521224e-05
5.9858179 -0.27809596 -2.5029368 2 0.13627073 -0.0052420106 0.99065781 6.182307e-05
5.9813824 -0.29358485 -2.501395 2 0.13636398 -0.0059508653 0.99064094 6.0603037e-05
5.9878025 -0.31275952 -2.5044785 2 0.13622886 -0.0062492313 0.99065769 6.2063067e-05
5.9850054 -0.33042252 -2.5037076 2 0.13634579 -0.0064058034 0.99064058 6.1334315e-05
5.9749079 -0.34555733 -2.4998534 2 0.13665567 -0.0069675897 0.99059409 5.5436769e-05
5.9849091 -0.3639558 -2.5044785 2 0.13620679 -0.0071703182 0.99065447 5.6792465e-05
5.9819608 -0.38159424 -2.5037076 2 0.1360936 -0.0077358908 0.99066567 5.1837276e-05
5.9846244 -0.39749834 -2.5052493 2 0.13606399 -0.0078314357 0.99066907 5.4909513e-05
5.9851871 -0.41642565 -2.5060201 2 0.13623492 -0.0080822976 0.99064362 5.1074498e-05
5.9857655 -0.43431574 -2.5067909 2 0.13621865 -0.0081959376 0.99064487 4.9333317e-05
5.9846082 -0.44998494 -2.5067909 2 0.13623771 -0.0078695519 0.99064493 4.6478621e-05
5.9759684 -0.46612129 -2.5037076 2 0.13641231 -0.0077956538 0.99062151 5.0817984e-05
5.9707112 -0.48563653 -2.5021658 2 0.13657518 -0.0074433992 0.99060178 5.4093282e-05
5.9767756 -0.5018838 -2.5052493 2 0.13636117 -0.0073730629 0.99063176 5.348997e-05
5.9752603 -0.51961505 -2.5052493 2 0.1363741 -0.0071757529 0.99063146 5.5379838e-05
5.9828825 -0.53816837 -2.5091035 3 0.13644001 -0.0068853032 0.99062443 5.5404213e-05
5.9796157 -0.55365956 -2.5083327 3 0.13649827 -0.0066257217 0.99061811 6.3727282e-05
5.9761095 -0.57122332 -2.5075619 3 0.13671178 -0.0064709377 0.99058974 6.8111418e-05
5.970715 -0.58859015 -2.5060201 3 0.13674131 -0.0061696861 0.99058753 7.645219e-05
5.9708838 -0.60544741 -2.5067909 3 0.13691694 -0.0058234478 0.99056548 7.8438017e-05
5.965282 -0.62381858 -2.5052493 3 0.13712493 -0.0055737132 0.99053806 8.104703e-05
5.9653511 -0.64067143 -2.5060201 3 0.13740084 -0.0053580874 0.99050105 9.3647832e-05
5.9635391 -0.65732729 -2.5060201 3 0.13746749 -0.0051021189 0.99049312 9.3218427e-05
5.9632778 -0.67626703 -2.5067909 3 0.13787226 -0.0052251709 0.9904362 9.886593e-05
5.9632001 -0.69313002 -2.5075619 3 0.13816725 -0.0052721384 0.99039483 0.00010138891
5.9594078 -0.70956153 -2.5067909 3 0.13863383 -0.0056957775 0.9903273 0.00010235332
5.9664359 -0.72835839 -2.5106452 3 0.13891439 -0.0056851958 0.99028802 0.00010179511
5.9607162 -0.74455953 -2.5091035 3 0.13905577 -0.0057355342 0.99026787 0.00010815258
5.9567833 -0.76096815 -2.5083327 3 0.13929765 -0.0056214533 0.99023455 0.00011531295
5.9525332 -0.77943856 -2.5075619 3 0.13939822 -0.0058361632 0.99021918 0.00011301489
5.952302 -0.79526395 -2.5083327 3 0.13998054 -0.0053538093 0.99013978 0.00013577698
5.9499159 -0.81292123 -2.5083327 5 0.14017139 -0.0054124868 0.99011248 0.00013361941
5.9455051 -0.8313539 -2.5075619 4 0.14055693 -0.0053712358 0.990058 0.00014144639
5.9395061 -0.8474322 -2.5060201 5 0.14065118 -0.0058861142 0.99004173 0.00015481215
5.942595 -0.86481249 -2.5083327 6 0.14094736 -0.0060996087 0.98999834 0.00016176964
5.9400034 -0.88244075 -2.5083327 6 0.14096947 -0.0066198912 0.98999184 0.000173673
5.933866 -0.89847225 -2.5067909 5 0.14106326 -0.0065690633 0.98997879 0.00017365447
5.9348221 -0.91663784 -2.5083327 6 0.1414395 -0.0075720237 0.98991793 0.00020233968
5.9284301 -0.93366855 -2.5067909 6 0.1415792 -0.0078536728 0.98989576 0.00021312579
5.9256334 -0.95125437 -2.5067909 6 0.14231655 -0.0091366451 0.989779 0.00024164456
5.9196491 -0.96513665 -2.5052493 7 0.14245537 -0.0091233663 0.98975921 0.00024578796
5.9129467 -0.98312354 -2.5037076 9 0.14255553 -0.010193167 0.98973435 0.00027160469
5.906539 -0.99901617 -2.5021658 10 0.14295737 -0.010298673 0.98967528 0.0002702052
5.8982701 -1.0145681 -2.4998534 14 0.14351153 -0.010718524 0.98959059 0.00028023671
5.8968711 -1.0334115 -2.5006242 19 0.14393486 -0.012673373 0.98950601 0.00033198518
5.8994131 -1.0508455 -2.5029368 18 0.14403211 -0.013176289 0.98948526 0.00034214504
5.8910074 -1.0663296 -2.5006242 17 0.14459376 -0.013357637 0.98940092 0.00034656047
5.8858137 -1.084497 -2.4998534 17 0.14478035 -0.014832602 0.98935258 0.00037873254
5.8845763 -1.1012684 -2.5006242 17 0.14559753 -0.015794048 0.98921788 0.00039827416
5.8814778 -1.117697 -2.5006242 14 0.14569436 -0.016738612 0.98918808 0.00041915273
5.8871956 -1.1368923 -2.5044785 13 0.14616422 -0.017892106 0.98909855 0.00043435398
5.8821869 -1.1529731 -2.5037076 14 0.14640716 -0.018648157 0.9890486 0.00045156496
5.8735142 -1.1683146 -2.501395 12 0.14655523 -0.019983109 0.98900062 0.00048116632
5.8770504 -1.1882238 -2.5044785 13 0.14661519 -0.020485867 0.98898149 0.00048981496
5.8700938 -1.2038896 -2.5029368 9 0.14679155 -0.021221418 0.98893982 0.00049885421
5.8644757 -1.2219485 -2.5021658 10 0.1471802 -0.022844141 0.98884583 0.00052379316
5.8632789 -1.2366554 -2.5029368 11 0.14773686 -0.024615828 0.9887203 0.00054870412
5.8557553 -1.2542962 -2.501395 12 0.14761764 -0.025454439 0.9887169 0.00055407663
5.854033 -1.2710351 -2.5021658 13 0.14829871 -0.026747813 0.98858076 0.00056494947
5.8522635 -1.2877744 -2.5029368 15 0.14891757 -0.028892076 0.98842746 0.00058827834
5.8463874 -1.3057511 -2.5021658 15 0.14939593 -0.029155822 0.98834753 0.00058977463
5.8460875 -1.3239071 -2.5037076 17 0.14991303 -0.031224707 0.98820603 0.00060759031
5.8426013 -1.3392076 -2.5037076 21 0.14959203 -0.031990044 0.98823011 0.0006138279
5.8386025 -1.3565371 -2.5037076 36 0.14973144 -0.033488352 0.98815942 0.00062065915
5.829402 -1.3715682 -2.501395 47 0.14934324 -0.034978718 0.98816657 0.00063953502
5.8107038 -1.3864485 -2.4952283 57 0.14900923 -0.035926763 0.98818296 0.00065090979
5.7906647 -1.3987697 -2.4882905 54 0.14832348 -0.036456827 0.98826671 0.00063961768
5.7593541 -1.4103702 -2.476728 50 0.14655724 -0.036659267 0.98852265 0.0005838768
5.7594733 -1.4253255 -2.4782696 54 0.1468239 -0.038667645 0.98840654 0.00060396118
5.7406468 -1.4398208 -2.4721029 48 0.14645502 -0.038952861 0.98845011 0.00058210402
5.7291942 -1.4550301 -2.4690194 44 0.1461706 -0.039625157 0.98846549 0.00059496058
5.7251086 -1.4710232 -2.4690194 48 0.14653136 -0.041432142 0.98833793 0.00060295966
5.7013316 -1.4818983 -2.4605403 48 0.1456921 -0.041726656 0.98844963 0.0005913619
5.6841555 -1.4965132 -2.4551444 44 0.14500414 -0.042278185 0.98852742 0.00058734202
5.6621208 -1.507632 -2.4474359 41 0.14521776 -0.04248907 0.98848689 0.00058195315
5.6581545 -1.5224503 -2.4474359 38 0.14515799 -0.042912282 0.98847747 0.00058566639
5.6266341 -1.5329417 -2.435873 50 0.1442408 -0.039883021 0.9887386 0.00086640322
5.6276693 -1.5501184 -2.4381857 48 0.14504015 -0.041270938 0.98856467 0.00086464547
5.6283789 -1.5682954 -2.4404981 44 0.14554223 -0.042016815 0.98845947 0.00086200057
5.6290298 -1.58649 -2.4428108 48 0.14637989 -0.039825384 0.98842645 0.0010509773
5.6426063 -1.6062739 -2.4505191 50 0.14664418 -0.040142559 0.98837447 0.001081359
5.6449094 -1.625051 -2.4536026 41 0.14722535 -0.040875051 0.98825806 0.0010857551
