# .PCD v0.7 - Point Cloud Data file format
VERSION 0.7
FIELDS x y z intensity normal_x normal_y normal_z curvature
SIZE 4 4 4 4 4 4 4 4
TYPE F F F F F F F F
COUNT 1 1 1 1 1 1 1 1
WIDTH 578
HEIGHT 1
VIEWPOINT 0 0 0 1 0 0 0
POINTS 578
DATA ascii
-1.5556718 -2.1349242 -1.4842123 7 0.1287474 -0.019590383 0.99148393 1.7442508e-05
-1.5636891 -2.133384 -1.4861716 7 0.12876862 -0.019599758 0.99148095 1.9506646e-05
-1.5634326 -2.1205883 -1.4802935 7 0.12873147 -0.019722564 0.99148333 1.9828849e-05
-1.5700865 -2.1156664 -1.4802935 7 0.12873751 -0.019725086 0.9914825 2.2263757e-05
-1.5739026 -2.108479 -1.4783342 7 0.12871189 -0.019774802 0.99148482 2.4311021e-05
-1.5808314 -2.1054699 -1.479314 7 0.12873667 -0.019782342 0.99148148 2.3915276e-05
-1.5870717 -2.1007702 -1.479314 7 0.12872714 -0.019813422 0.99148208 2.2420863e-05
-1.594353 -2.09744 -1.4802935 7 0.12872896 -0.019758742 0.99148291 1.6372405e-05
-1.5959674 -2.0874393 -1.4763749 7 0.1287178 -0.019748792 0.99148458 1.367409e-05
-1.602154 -2.0826945 -1.4763749 7 0.12868883 -0.019797083 0.99148738 1.2294762e-05
-1.6083266 -2.0779316 -1.4763749 7 0.12868896 -0.019779842 0.99148768 8.6395894e-06
-1.6116197 -2.070962 -1.4744155 7 0.12867141 -0.019772846 0.99149013 1.2661323e-05
-1.614892 -2.0617707 -1.4714766 7 0.12863915 -0.019809522 0.99149352 1.2701985e-05
-1.6242397 -2.061079 -1.4744155 7 0.12867944 -0.019778481 0.99148893 1.1866964e-05
-1.6289059 -2.0551684 -1.4734359 7 0.12866852 -0.019746479 0.99149102 1.0427014e-05
-1.6349965 -2.0503263 -1.4734359 7 0.12867203 -0.019767264 0.99149013 1.2353214e-05
-1.6418068 -2.0471127 -1.4744155 8 0.12870188 -0.019775167 0.99148613 1.3547745e-05
-1.6471348 -2.0405879 -1.4734359 7 0.12867865 -0.019783333 0.99148905 1.6477346e-05
-1.6444268 -2.0270782 -1.4665781 7 0.1286214 -0.01982303 0.99149561 2.0291891e-05
-1.6551975 -2.0273049 -1.4704968 7 0.12863599 -0.019786907 0.99149442 1.9605557e-05
-1.6597459 -2.0213273 -1.4695171 7 0.12865356 -0.019771729 0.99149245 1.7615888e-05
-1.6642741 -2.0153399 -1.4685374 7 0.12860243 -0.019819589 0.99149811 2.6138854e-05
-1.6683679 -2.0074198 -1.4665781 6 0.12860402 -0.019789271 0.99149859 2.4563982e-05
-1.6750854 -2.0040908 -1.4675577 6 0.12861291 -0.019767052 0.99149787 2.5415326e-05
-1.6784317 -1.9967359 -1.4655983 6 0.1286201 -0.019739756 0.9914974 2.3573715e-05
-1.6840007 -1.9920412 -1.4655983 6 0.1286286 -0.019765051 0.99149585 2.2227185e-05
-1.6891215 -1.9854125 -1.4646188 6 0.12863059 -0.019754447 0.99149585 2.4949739e-05
-1.696484 -1.981421 -1.4655983 7 0.12863654 -0.019761613 0.99149489 2.6447336e-05
-1.7001829 -1.9759485 -1.4646188 7 0.12864065 -0.01977274 0.99149412 2.3896917e-05
-1.7040999 -1.9679605 -1.4626594 7 0.12865305 -0.019762043 0.99149275 2.2985934e-05
-1.7069561 -1.9608624 -1.4607 7 0.12865633 -0.019738771 0.99149275 2.3614955e-05
-1.7116181 -1.9544773 -1.4597204 6 0.12866972 -0.019751882 0.99149078 2.5442463e-05
-1.7220196 -1.9546238 -1.463639 7 0.12866572 -0.019732764 0.99149168 2.5443815e-05
-1.7235255 -1.9439851 -1.4597204 7 0.12866513 -0.019761449 0.99149114 3.1345506e-05
-1.7266268 -1.9365613 -1.4577609 6 0.12868746 -0.019710686 0.99148929 3.0417163e-05
-1.7308631 -1.9304347 -1.4567814 6 0.12873721 -0.019679794 0.99148345 3.1826145e-05
-1.7365838 -1.9252902 -1.4567814 7 0.12871253 -0.019668922 0.99148691 3.377804e-05
-1.7392755 -1.918154 -1.4548219 7 0.12872195 -0.019625783 0.99148649 3.6887574e-05
-1.7499942 -1.9178325 -1.4587407 7 0.12874326 -0.019581689 0.99148464 3.5321224e-05
-1.7521396 -1.9087782 -1.4558016 6 0.12876794 -0.019585578 0.9914813 3.4656412e-05
-1.757131 -1.9041843 -1.4558016 7 0.12878826 -0.019560277 0.99147916 3.4023393e-05
-1.7588836 -1.8954356 -1.4528626 6 0.12879641 -0.019493831 0.99147946 3.3703625e-05
-1.7675399 -1.8921407 -1.4548219 6 0.12881292 -0.019466305 0.99147785 3.448144e-05
-1.7689066 -1.8836941 -1.451883 7 0.12883912 -0.019400971 0.99147576 3.0096971e-05
-1.7768821 -1.8809725 -1.4538423 7 0.1288666 -0.019396318 0.99147218 3.3283817e-05
-1.7776508 -1.8706365 -1.4499235 6 0.12884149 -0.019357117 0.9914763 3.3742905e-05
-1.7801334 -1.8634542 -1.4479642 6 0.12886186 -0.019268841 0.99147534 3.2104293e-05
-1.7868629 -1.8594215 -1.4489439 6 0.12889045 -0.019229908 0.99147242 3.2282471e-05
-1.7899485 -1.8516043 -1.4469845 7 0.12889022 -0.019128518 0.99147433 3.1274423e-05
-1.7938968 -1.8453482 -1.4460049 7 0.12891142 -0.01908005 0.9914726 3.149841e-05
-1.8009043 -1.8409504 -1.4469845 7 0.12893921 -0.019037256 0.99146968 3.2975666e-05
-1.8072608 -1.8371568 -1.4479642 6 0.12893768 -0.018956503 0.99147147 3.4332577e-05
-1.8099318 -1.8296236 -1.4460049 7 0.1289731 -0.018904239 0.99146789 3.2931359e-05
-1.8144403 -1.822693 -1.4450251 7 0.12899959 -0.018798206 0.99146646 3.190188e-05
-1.8182896 -1.8163866 -1.4440455 7 0.12900846 -0.018746018 0.99146634 3.208614e-05
-1.822118 -1.810073 -1.4430658 7 0.12899655 -0.018690871 0.99146885 3.3481389e-05
-1.8249993 -1.8022082 -1.4411064 6 0.12900394 -0.018551188 0.99147058 3.560066e-05
-1.8315825 -1.7980074 -1.4420862 6 0.12905204 -0.018478317 0.99146563 3.4480305e-05
-1.8350357 -1.7919881 -1.4411064 7 0.1290326 -0.018379852 0.99146998 3.435606e-05
-1.8394055 -1.7849995 -1.4401268 6 0.12905271 -0.018284643 0.99146909 3.1206877e-05
-1.8415631 -1.7777561 -1.4381675 6 0.1290658 -0.018169159 0.9914695 2.7785291e-05
-1.8509139 -1.7755829 -1.4411064 7 0.12906922 -0.01810744 0.99147028 2.8108103e-05
-1.8523886 -1.7664733 -1.4381675 6 0.12908582 -0.018016154 0.99146974 2.7802484e-05
-1.8582716 -1.7628181 -1.4391471 6 0.12911506 -0.017972426 0.99146676 2.8623583e-05
-1.8625321 -1.7557749 -1.4381675 7 0.12910087 -0.017865891 0.99147046 3.0275229e-05
-1.8607627 -1.7449296 -1.433269 7 0.12912664 -0.017770728 0.99146879 3.0282608e-05
-1.8672072 -1.7405903 -1.4342488 7 0.12917128 -0.01770217 0.99146426 3.0330651e-05
-1.8736421 -1.7362274 -1.4352283 6 0.12920186 -0.017618559 0.99146181 3.1031836e-05
-1.8787854 -1.7306603 -1.4352283 6 0.12923346 -0.017518526 0.99145943 2.6789421e-05
-1.8797539 -1.7218736 -1.4322892 6 0.12925582 -0.017410057 0.99145842 2.2448154e-05
-1.8835652 -1.7151154 -1.4313097 7 0.12933312 -0.01729906 0.99145031 2.2207958e-05
-1.8883475 -1.7098486 -1.4313097 7 0.12928309 -0.017191807 0.99145865 2.7882787e-05
-1.8918192 -1.7034017 -1.4303299 7 0.12933552 -0.017097514 0.99145347 2.413766e-05
-1.8955659 -1.6966182 -1.4293504 6 0.1293758 -0.016997671 0.99144995 2.4459054e-05
-1.9008863 -1.6906551 -1.4293504 6 0.1294073 -0.01687861 0.99144793 2.6206493e-05
-1.905306 -1.6856726 -1.4293504 6 0.12942469 -0.016773935 0.99144739 2.5599355e-05
-1.9102992 -1.680012 -1.4293504 7 0.12946364 -0.016685629 0.99144381 2.1303153e-05
-1.9162958 -1.6758186 -1.4303299 6 0.12951633 -0.016626664 0.99143791 1.9440255e-05
-1.9189185 -1.667503 -1.4283706 6 0.12956189 -0.016539587 0.99143338 1.8406596e-05
-1.9209291 -1.6598577 -1.4264113 7 0.12958239 -0.016447881 0.99143225 2.0150406e-05
-1.9258456 -1.6541508 -1.4264113 7 0.12965041 -0.016343193 0.9914251 2.1529531e-05
-1.9304575 -1.6487664 -1.4264113 7 0.12967218 -0.016251322 0.99142373 2.3195811e-05
-1.9337251 -1.6422402 -1.4254316 6 0.12970971 -0.016115474 0.99142104 2.3471945e-05
-1.9388745 -1.6361574 -1.4254316 6 0.12977301 -0.01600831 0.99141449 1.9895191e-05
-1.9391445 -1.6277131 -1.4224925 6 0.12977999 -0.01589703 0.99141544 2.2999342e-05
-1.948266 -1.624963 -1.4254316 7 0.12982616 -0.015794367 0.99141097 2.2580369e-05
-1.9514544 -1.6184031 -1.4244519 7 0.12985033 -0.015715847 0.99140906 2.2509286e-05
-1.9549019 -1.6114969 -1.4234723 7 0.12988609 -0.01558783 0.99140638 2.3039174e-05
-1.9577655 -1.6052681 -1.4224925 7 0.12993142 -0.015518047 0.99140155 2.3722039e-05
-1.9614477 -1.598008 -1.421513 7 0.12993762 -0.015394145 0.99140269 2.7291524e-05
-1.9631926 -1.5903296 -1.4195536 7 0.12996764 -0.015291434 0.9914003 2.8424409e-05
-1.9679027 -1.5844977 -1.4195536 7 0.13000895 -0.015204502 0.99139619 3.1653351e-05
-1.9706833 -1.5782502 -1.4185739 6 0.13004205 -0.015111294 0.99139333 3.1733231e-05
-1.9753569 -1.5723965 -1.4185739 7 0.13007753 -0.014997575 0.99139035 3.0008185e-05
-1.9786463 -1.5654466 -1.4175942 7 0.13008268 -0.014884571 0.99139142 2.9507539e-05
-1.9846531 -1.5606467 -1.4185739 7 0.13011563 -0.014757145 0.99138904 2.5938027e-05
-1.9876295 -1.5540246 -1.4175942 7 0.13015789 -0.01468398 0.99138457 2.4771331e-05
-1.9883715 -1.5445633 -1.4146552 7 0.13019224 -0.014502109 0.99138272 2.8958075e-05
-1.9940566 -1.5400708 -1.4156349 7 0.13018633 -0.01439835 0.99138498 2.8662216e-05
-1.9983495 -1.5344962 -1.4156349 7 0.13022695 -0.014317397 0.99138081 2.7757309e-05
-2.0001211 -1.5264448 -1.4136754 6 0.13022353 -0.014208983 0.99138284 3.3404143e-05
-2.0043762 -1.5208534 -1.4136754 7 0.13026813 -0.014091844 0.99137866 3.33362e-05
-2.0088799 -1.5148995 -1.4136754 7 0.13029423 -0.01397757 0.99137682 3.2618889e-05
-2.0147614 -1.5099781 -1.4146552 6 0.13029069 -0.013866037 0.99137884 3.5521778e-05
-2.0147753 -1.5012207 -1.4117161 6 0.13029478 -0.013809705 0.99137914 3.2041426e-05
-2.0172977 -1.4949026 -1.4107364 7 0.13030298 -0.013707462 0.9913795 3.2856187e-05
-2.019176 -1.4864902 -1.4087771 6 0.13030258 -0.013556932 0.99138159 3.3427168e-05
-2.0247262 -1.4818753 -1.4097567 7 0.13030016 -0.013435534 0.99138355 3.73654e-05
-2.029114 -1.4758612 -1.4097567 7 0.13030967 -0.013348505 0.99138343 3.8732356e-05
-2.033484 -1.4698347 -1.4097567 7 0.13031322 -0.013192456 0.9913851 4.1740834e-05
-2.0389967 -1.4651678 -1.4107364 7 0.13030095 -0.013088927 0.99138808 3.9729639e-05
-2.0359859 -1.4544008 -1.405838 7 0.13033992 -0.012953806 0.99138474 3.824347e-05
-2.0417142 -1.4493628 -1.4068178 6 0.13034235 -0.012816766 0.99138618 3.8273414e-05
-2.0488553 -1.4453086 -1.4087771 7 0.13034545 -0.012723716 0.99138695 3.8080776e-05
-2.0502789 -1.4372213 -1.4068178 6 0.13037579 -0.012550081 0.99138522 3.6814188e-05
-2.0514231 -1.4294968 -1.4048584 7 0.13038526 -0.012423556 0.99138558 3.719348e-05
-2.0539739 -1.4227695 -1.4038787 6 0.13037685 -0.012275533 0.99138856 3.8866339e-05
-2.0598698 -1.4172981 -1.4048584 6 0.13039319 -0.012149772 0.99138796 3.9521285e-05
-2.0623803 -1.4105563 -1.4038787 7 0.1303886 -0.012008633 0.99139029 3.5589463e-05
-2.0663114 -1.4047915 -1.4038787 7 0.13035996 -0.011850323 0.99139595 3.7772836e-05
-2.0721595 -1.3992687 -1.4048584 7 0.13038616 -0.011727605 0.99139392 3.8023943e-05
-2.0743682 -1.3928668 -1.4038787 6 0.13036849 -0.011589137 0.99139792 4.0244031e-05
-2.0770411 -1.3857386 -1.402899 7 0.13041562 -0.011425499 0.99139357 4.0744635e-05
-2.0828383 -1.3801692 -1.4038787 7 0.13043335 -0.011253857 0.99139321 3.900881e-05
-2.0789251 -1.3702781 -1.3989804 6 0.13042867 -0.011105548 0.99139553 4.3630884e-05
-2.0861373 -1.3656502 -1.4009397 7 0.13041639 -0.010982573 0.99139851 4.4894248e-05
-2.0887182 -1.3585042 -1.3999599 7 0.13039188 -0.010885929 0.99140275 4.478675e-05
-2.0893393 -1.3511374 -1.3980006 7 0.13038899 -0.010711385 0.99140507 4.4933684e-05
-2.0948062 -1.3458747 -1.3989804 6 0.13038693 -0.010583326 0.99140674 4.5761066e-05
-2.1004937 -1.3402252 -1.3999599 7 0.1303888 -0.010447777 0.99140793 4.2516866e-05
-2.1010509 -1.3328528 -1.3980006 7 0.13044608 -0.010257529 0.99140239 4.0465828e-05
-2.1035209 -1.3256838 -1.3970209 7 0.13047983 -0.010083344 0.99139971 3.8900282e-05
-2.1091533 -1.3199936 -1.3980006 7 0.13047343 -0.0099032922 0.99140233 3.6918809e-05
-2.1138527 -1.315758 -1.3989804 7 0.13042176 -0.0098052928 0.99141014 3.8598275e-05
-2.1120431 -1.3054429 -1.3950615 6 0.13048413 -0.0095701218 0.99140424 3.9560135e-05
-2.1188788 -1.3009958 -1.3970209 7 0.13045235 -0.0094032064 0.99140996 4.1037165e-05
-2.1163244 -1.2918108 -1.3931022 7 0.13050184 -0.0092523368 0.99140489 4.2749751e-05
-2.1233549 -1.2869625 -1.3950615 6 0.1304777 -0.0090927305 0.99140948 4.2365813e-05
-2.1241763 -1.2788584 -1.3931022 7 0.1304848 -0.0089124506 0.99141026 4.5583671e-05
-2.1320055 -1.2759792 -1.3960413 7 0.13047732 -0.0087989494 0.99141228 4.6714082e-05
-2.1310647 -1.2673466 -1.3931022 6 0.13052832 -0.0085777994 0.99140751 4.1279331e-05
-2.1350355 -1.2606453 -1.3931022 7 0.13053307 -0.0083451783 0.99140882 4.0240509e-05
-2.1400514 -1.2555609 -1.394082 7 0.13054211 -0.0082254438 0.99140871 3.9495408e-05
-2.1407545 -1.24745 -1.3921226 6 0.13055988 -0.0080425609 0.99140775 3.831934e-05
-2.1429369 -1.2402191 -1.3911428 7 0.13056889 -0.0078714397 0.99140799 3.5669334e-05
-2.1431537 -1.2328663 -1.3891835 7 0.13057087 -0.0076822857 0.9914093 3.7022739e-05
-2.152858 -1.2299616 -1.3931022 7 0.13054962 -0.0075130882 0.9914133 3.7498521e-05
-2.1519485 -1.2209871 -1.3901632 6 0.13056657 -0.007260642 0.99141294 3.8555703e-05
-2.153831 -1.2141166 -1.3891835 7 0.13057825 -0.0070755342 0.99141276 4.1884712e-05
-2.1576343 -1.2073445 -1.3891835 7 0.13057025 -0.0068418598 0.9914155 4.4201177e-05
-2.1625216 -1.2021616 -1.3901632 7 0.13055982 -0.0066927634 0.99141783 4.1748091e-05
-2.1689229 -1.1978037 -1.3921226 7 0.1305571 -0.0065346919 0.99141926 4.2848984e-05
-2.161972 -1.1851174 -1.3852648 6 0.13056889 -0.0061884448 0.99141997 4.4791395e-05
-2.1681297 -1.1811213 -1.3872241 7 0.13055997 -0.0060576368 0.99142194 4.7495058e-05
-2.1685574 -1.1730239 -1.3852648 7 0.13057768 -0.0057984544 0.99142116 4.9338181e-05
-2.1781728 -1.1698846 -1.3891835 7 0.13048866 -0.0056727673 0.9914335 5.2060514e-05
-2.1737392 -1.1596936 -1.3842852 7 0.1305355 -0.0053330944 0.99142927 5.4237884e-05
-2.1815915 -1.156068 -1.3872241 7 0.13048542 -0.005237801 0.99143642 5.1149756e-05
-2.1790395 -1.1459627 -1.3833054 7 0.13052459 -0.0049029095 0.99143291 6.1362975e-05
-2.1866684 -1.1426766 -1.3862445 7 0.13051538 -0.0046734628 0.99143529 5.6036133e-05
-2.1885011 -1.1353804 -1.3852648 7 0.13048485 -0.0044748434 0.99144018 5.7762714e-05
-2.19031 -1.1280841 -1.3842852 7 0.1305303 -0.0042396057 0.99143529 5.8793536e-05
-2.195004 -1.122757 -1.3852648 7 0.13050069 -0.0040225973 0.99144 5.9561196e-05
-2.1936617 -1.113871 -1.3823258 7 0.13047734 -0.0037811839 0.99144411 6.7086497e-05
-2.1954 -1.1065724 -1.3813461 7 0.13043745 -0.003554997 0.99145013 7.0036389e-05
-2.2000408 -1.1012176 -1.3823258 7 0.13044365 -0.003286351 0.99145031 6.7441724e-05
-2.2001755 -1.0931339 -1.3803664 6 0.13047975 -0.0030154889 0.99144638 6.4634776e-05
-2.2065368 -1.0881433 -1.3823258 6 0.13041066 -0.0027703617 0.99145615 7.0301256e-05
-2.2093778 -1.0823632 -1.3823258 6 0.13039413 -0.0025891694 0.99145889 7.1139577e-05
-2.2061198 -1.0731384 -1.378407 7 0.13041103 -0.0023315744 0.99145722 7.12213e-05
-2.2157614 -1.0692338 -1.3823258 6 0.1303305 -0.0020552068 0.99146843 7.2884191e-05
-2.2171664 -1.0622885 -1.3813461 7 0.13036388 -0.0018194671 0.99146461 7.4392818e-05
-2.218734 -1.0549566 -1.3803664 6 0.130317 -0.0015565634 0.99147111 7.4735159e-05
-2.2218542 -1.0483692 -1.3803664 7 0.13030803 -0.0013232559 0.99147266 7.1887829e-05
-2.2216151 -1.0406811 -1.378407 6 0.13034759 -0.00098163146 0.99146789 7.1043018e-05
-2.2213507 -1.0330026 -1.3764477 5 0.13037577 -0.00070048927 0.99146444 7.2245988e-05
-2.232322 -1.0300597 -1.3813461 7 0.13027482 -0.00051134767 0.99147779 7.6778364e-05
-2.2306123 -1.0212541 -1.378407 6 0.13028909 -0.00016898378 0.99147606 7.8735189e-05
-2.2304575 -1.0131894 -1.3764477 7 0.13028574 4.0904859e-05 0.99147648 7.8012694e-05
-2.2364571 -1.0083901 -1.378407 7 0.13021095 0.00028105269 0.99148619 8.1824117e-05
-2.2392645 -1.0021406 -1.378407 7 0.13023548 0.0005633515 0.99148291 8.3692634e-05
-2.2388675 -0.99446774 -1.3764477 7 0.13023466 0.00082638115 0.99148285 7.9358128e-05
-2.2451718 -0.98883516 -1.378407 7 0.13015762 0.0011114851 0.99149263 8.2865001e-05
-2.2495222 -0.98325992 -1.3793868 6 0.13017362 0.0013903045 0.99149024 8.0724574e-05
-2.2494001 -0.97480124 -1.3774273 6 0.1302084 0.0017161373 0.99148512 7.9771213e-05
-2.2519445 -0.96890873 -1.3774273 6 0.13016944 0.0018972275 0.99149001 7.8243669e-05
-2.2483947 -0.95948529 -1.3735087 6 0.13024452 0.002273103 0.99147934 7.8680911e-05
-2.2530038 -0.95309687 -1.3744884 7 0.13022119 0.0025421213 0.99148166 8.0729144e-05
-2.2585406 -0.94893992 -1.3764477 6 0.13012947 0.0026995379 0.99149328 8.3650921e-05
-2.258292 -0.94049853 -1.3744884 6 0.13017648 0.0031460216 0.99148589 8.2647122e-05
-2.2626836 -0.93445981 -1.375468 6 0.13013187 0.0033679593 0.99149096 8.1239377e-05
-2.2635093 -0.92787153 -1.3744884 7 0.13008018 0.0035408924 0.99149716 8.285902e-05
-2.2678673 -0.9218083 -1.375468 7 0.13005997 0.0038231246 0.99149871 8.4474326e-05
-2.2739871 -0.91598135 -1.3774273 7 0.12999304 0.0040975348 0.9915064 8.6364555e-05
-2.273139 -0.9087308 -1.375468 6 0.13001336 0.0043736086 0.99150264 8.9148431e-05
-2.277446 -0.9026252 -1.3764477 7 0.12998009 0.0046003261 0.99150598 9.0096968e-05
-2.2768691 -0.89458805 -1.3744884 7 0.12992148 0.0049076895 0.99151212 8.8001216e-05
-2.2792029 -0.88862449 -1.3744884 7 0.12992094 0.0051498646 0.99151105 8.5893684e-05
-2.2850823 -0.88311505 -1.3764477 8 0.12990589 0.0054363892 0.9915114 8.7964734e-05
-2.2813318 -0.87343794 -1.3725289 7 0.12991452 0.005792628 0.99150825 9.1095004e-05
-2.2868712 -0.86870068 -1.3744884 7 0.12986746 0.0060524317 0.99151289 9.0271787e-05
-2.289288 -0.86231101 -1.3744884 6 0.12981299 0.0063726828 0.99151802 9.7067859e-05
-2.2888672 -0.85349607 -1.3725289 6 0.12985991 0.0067174551 0.99150962 9.9516532e-05
-2.2910936 -0.84750134 -1.3725289 7 0.12983334 0.006992151 0.99151117 0.00010067665
-2.2934513 -0.84109992 -1.3725289 7 0.12980594 0.0072731655 0.99151272 0.00010186736
-2.2944436 -0.83329594 -1.3715494 7 0.12977219 0.0075846007 0.9915148 0.00010318492
-2.2933366 -0.82610428 -1.36959 7 0.12977597 0.007860546 0.99151218 0.00010243042
-2.3008473 -0.82065254 -1.3725289 6 0.12965918 0.0081252819 0.99152535 0.00010430316
-2.3016279 -0.81324178 -1.3715494 7 0.12965856 0.0084901582 0.99152237 0.00010588936
-2.302104 -0.80663604 -1.3705696 6 0.12958995 0.0087999161 0.99152863 0.00011068977
-2.304487 -0.79980242 -1.3705696 6 0.12963344 0.0090923496 0.99152029 0.0001078259
-2.3084989 -0.79352802 -1.3715494 6 0.12961614 0.0093971696 0.99151969 0.00010984975
-2.3107059 -0.7870782 -1.3715494 7 0.12956919 0.0096821124 0.99152309 0.00011160073
-2.3131669 -0.7798155 -1.3715494 6 0.12957963 0.0099866511 0.99151874 0.00011344105
-2.3103743 -0.77169555 -1.3686103 7 0.12945862 0.010241617 0.99153197 0.00012070179
-2.3141756 -0.76578844 -1.36959 6 0.1295018 0.010585698 0.99152273 0.00011608643
-2.3146479 -0.75878024 -1.3686103 6 0.12937386 0.010909788 0.99153584 0.00011839324
-2.3185477 -0.7524479 -1.36959 7 0.12937526 0.011297558 0.99153137 0.00011665953
-2.3173199 -0.74490297 -1.3676306 6 0.12935667 0.011580215 0.99153054 0.00012073216
-2.3229723 -0.73867542 -1.36959 6 0.12937057 0.01190224 0.99152488 0.00011920559
-2.3215718 -0.7315436 -1.3676306 6 0.1292004 0.012193065 0.99154353 0.0001244547
-2.3270614 -0.72569025 -1.36959 6 0.12930098 0.012521007 0.99152637 0.00011531902
-2.3242059 -0.71724045 -1.3666509 7 0.12905508 0.012843285 0.99155426 0.00012523192
-2.3329942 -0.71237791 -1.3705696 6 0.12919237 0.013115704 0.99153274 0.00012107379
-2.3299673 -0.70434642 -1.3676306 6 0.12907968 0.01345362 0.99154294 0.00012271898
-2.3270352 -0.69593173 -1.3646915 5 0.12889874 0.013731844 0.99156272 0.00013089502
-2.3321931 -0.69082695 -1.3666509 7 0.12895109 0.014105378 0.99155062 0.00012374228
-2.3326783 -0.68300718 -1.3656713 6 0.12883396 0.014420805 0.99156135 0.00012316884
-2.3313451 -0.6751129 -1.363712 7 0.12867177 0.014720809 0.99157798 0.00012694621
-2.3383665 -0.66963321 -1.3666509 6 0.12888514 0.015106667 0.99154449 0.00012518324
-2.3401117 -0.66350836 -1.3666509 6 0.12871203 0.015297389 0.99156404 0.00012572185
-2.3403909 -0.65609187 -1.3656713 6 0.1285896 0.015658231 0.99157429 0.00012483567
-2.340534 -0.64908767 -1.3646915 6 0.12853302 0.015971188 0.99157655 0.00012393385
-2.3458128 -0.64306211 -1.3666509 6 0.12849355 0.016328165 0.99157596 0.00012060703
-2.3460271 -0.63564348 -1.3656713 6 0.12839113 0.016663415 0.99158365 0.00012682322
-2.347903 -0.62867981 -1.3656713 6 0.12832364 0.01705645 0.99158567 0.00013005386
-2.351335 -0.62256694 -1.3666509 6 0.1283327 0.017328478 0.99157977 0.00012910602
-2.351485 -0.61514616 -1.3656713 6 0.12831405 0.01769609 0.99157572 0.00013699084
-2.3513994 -0.60855144 -1.3646915 6 0.12828456 0.017959796 0.99157476 0.00013130136
-2.3516104 -0.60072964 -1.363712 6 0.12817086 0.018370634 0.99158192 0.00012954554
-2.3532789 -0.5941602 -1.363712 6 0.12814884 0.018715773 0.99157834 0.00012916827
-2.3566203 -0.58800882 -1.3646915 6 0.12805125 0.019086808 0.99158388 0.00012615851
-2.3550696 -0.57976866 -1.3627322 6 0.12787473 0.019395789 0.99160069 0.00013208362
-2.3600681 -0.57401383 -1.3646915 6 0.12793836 0.019712714 0.99158621 0.00013047218
-2.3532836 -0.56497347 -1.3597931 5 0.12755473 0.019899504 0.99163187 0.00012748271
-2.359942 -0.55960637 -1.3627322 5 0.12774633 0.020359047 0.99159789 0.00013207443
-2.3613989 -0.5534265 -1.3627322 5 0.1276693 0.020588415 0.99160314 0.00013216145
-2.3665235 -0.54679078 -1.3646915 5 0.12758929 0.02102094 0.99160427 0.00013094555
-2.3664355 -0.53937858 -1.363712 6 0.12754987 0.021367205 0.991602 0.00013004392
-2.3729427 -0.5343309 -1.3666509 6 0.12755196 0.021668989 0.99159515 0.00013356487
-2.3678007 -0.52536261 -1.3627322 6 0.12736297 0.021946276 0.99161333 0.00013492993
-2.369168 -0.5191617 -1.3627322 5 0.12733243 0.022201275 0.9916116 0.00013629468
-2.3672893 -0.51139355 -1.3607728 5 0.12718296 0.022584882 0.99162215 0.00013341114
-2.3756177 -0.50582027 -1.3646915 6 0.12728906 0.022932591 0.99160051 0.00013989639
-2.3736951 -0.49805316 -1.3627322 6 0.12718888 0.023258749 0.99160576 0.00013708061
-2.3733695 -0.49106926 -1.3617526 6 0.12708583 0.023616157 0.99161053 0.00014100524
-2.378233 -0.48472199 -1.363712 5 0.1270014 0.023954278 0.99161327 0.00014041091
-2.3795774 -0.47807866 -1.363712 6 0.12697801 0.024288094 0.99160814 0.00014118443
-2.3774824 -0.47075433 -1.3617526 5 0.12686539 0.024552334 0.99161601 0.00013926171
-2.3806608 -0.46361604 -1.3627322 6 0.12687668 0.024911746 0.99160558 0.00014236444
-2.3785214 -0.45630899 -1.3607728 6 0.12665369 0.025222998 0.99162632 0.00014126599
-2.383213 -0.45031241 -1.3627322 6 0.12667435 0.025568342 0.99161482 0.00014479604
-2.3844612 -0.44365647 -1.3627322 6 0.12662971 0.0258295 0.99161375 0.00014511883
-2.3874822 -0.43689343 -1.363712 6 0.12656005 0.026242701 0.99161172 0.0001500568
-2.3853362 -0.4291895 -1.3617526 6 0.12646042 0.026540466 0.99161655 0.00015088487
-2.3883157 -0.42241421 -1.3627322 6 0.12639692 0.026880223 0.99161547 0.00015437826
-2.3808968 -0.41424915 -1.3578337 5 0.12593454 0.02706095 0.99166936 0.00014780185
-2.3907089 -0.40865126 -1.3627322 5 0.12626967 0.027543074 0.99161351 0.00015459007
-2.3917706 -0.4023914 -1.3627322 6 0.12624176 0.027776066 0.99161053 0.00015539124
-2.393023 -0.39487532 -1.3627322 6 0.12607987 0.028137656 0.99162102 0.00015710254
-2.3906741 -0.3876335 -1.3607728 5 0.1258813 0.028431617 0.99163783 0.00015848635
-2.395324 -0.38066772 -1.3627322 6 0.1258416 0.028840838 0.99163109 0.00016187389
-2.3981006 -0.37424648 -1.363712 6 0.12582047 0.029220095 0.99162263 0.00016299196
-2.3956895 -0.36702004 -1.3617526 5 0.12572172 0.029482542 0.9916274 0.00016515703
-2.4001534 -0.36084685 -1.363712 6 0.12560937 0.029843912 0.99163085 0.00016860792
-2.4012136 -0.3537243 -1.363712 6 0.12559262 0.030227443 0.99162132 0.00016831106
-2.4005265 -0.34634909 -1.3627322 6 0.12544413 0.030614926 0.99162823 0.00016642647
-2.4016027 -0.33880576 -1.3627322 7 0.12535852 0.03087404 0.99163103 0.00016940868
-2.4024236 -0.33293635 -1.3627322 8 0.12534907 0.031211691 0.99162161 0.0001713083
-2.4103692 -0.32632345 -1.3666509 8 0.12534249 0.03161177 0.99160975 0.00017149217
-2.4060299 -0.3193236 -1.363712 7 0.12514071 0.031896122 0.99162614 0.00017207877
-2.4035087 -0.31173471 -1.3617526 6 0.12485362 0.032175343 0.99165344 0.00017198632
-2.404423 -0.30460185 -1.3617526 6 0.12473461 0.032449838 0.9916594 0.00016868229
-2.4122896 -0.29790187 -1.3656713 6 0.12500413 0.032852564 0.9916122 0.00017139196
-2.4026752 -0.29033026 -1.3597931 6 0.12463348 0.033081595 0.99165124 0.00016933486
-2.4087207 -0.28381208 -1.3627322 6 0.12455874 0.033559449 0.99164456 0.00016820263
-2.4147007 -0.27768201 -1.3656713 7 0.12469602 0.033895988 0.99161589 0.00016229629
-2.4190269 -0.27048263 -1.3676306 7 0.12466333 0.03425128 0.99160779 0.00016250926
-2.4127934 -0.26339221 -1.363712 7 0.12439659 0.034526043 0.99163175 0.0001648816
-2.411875 -0.25562644 -1.3627322 7 0.1243948 0.034845848 0.99162078 0.00016575807
-2.4194736 -0.25002861 -1.3666509 7 0.12429538 0.035264626 0.99161839 0.00016307486
-2.4115303 -0.24197824 -1.3617526 6 0.12415078 0.035536271 0.9916268 0.00017097146
-2.4208736 -0.23608907 -1.3666509 7 0.1242066 0.035889354 0.99160707 0.00016417587
-2.419867 -0.22831859 -1.3656713 6 0.12393598 0.036188547 0.99163008 0.0001658916
-2.4170227 -0.22124271 -1.363712 6 0.1239152 0.036418252 0.99162424 0.00016850646
-2.422879 -0.21453151 -1.3666509 6 0.12396616 0.036719717 0.99160677 0.00016185915
-2.4199579 -0.20788904 -1.3646915 7 0.12380292 0.036991153 0.99161708 0.00016459409
-2.4240744 -0.20057352 -1.3666509 6 0.12378938 0.037424393 0.99160254 0.00015954422
-2.4229207 -0.19324091 -1.3656713 6 0.12363742 0.037646905 0.99161309 0.0001570509
-2.4269278 -0.18674204 -1.3676306 6 0.12361618 0.037965368 0.99160361 0.00015208557
-2.4222546 -0.17915499 -1.3646915 7 0.12352803 0.038272895 0.99160272 0.00015551447
-2.4279633 -0.17276119 -1.3676306 6 0.12345869 0.038628969 0.99159759 0.0001513004
-2.4232464 -0.16520061 -1.3646915 7 0.12341008 0.038911618 0.99159265 0.00015001104
-2.4271505 -0.15908389 -1.3666509 7 0.12330915 0.039253663 0.99159163 0.00014796005
-2.4311185 -0.1516756 -1.3686103 7 0.12319856 0.039588522 0.99159205 0.0001492342
-2.4297922 -0.14478217 -1.3676306 7 0.12314892 0.039863545 0.99158728 0.00014824094
-2.4302111 -0.13757206 -1.3676306 7 0.12311682 0.040199649 0.99157768 0.00014457892
-2.430563 -0.13120912 -1.3676306 6 0.12303615 0.040497545 0.99157548 0.0001417496
-2.4396698 -0.12401512 -1.3725289 6 0.1229876 0.04078408 0.99156982 0.00013783462
-2.4312987 -0.11678393 -1.3676306 7 0.1229153 0.041088931 0.99156624 0.0001373651
-2.4333572 -0.11007264 -1.3686103 7 0.12282712 0.041389734 0.99156463 0.00012910906
-2.4267046 -0.10255761 -1.3646915 7 0.12279225 0.041613191 0.99155957 0.00013186058
-2.4304829 -0.095493764 -1.3666509 5 0.12276728 0.041999452 0.99154633 0.00012960972
-2.4376943 -0.089386411 -1.3705696 6 0.12260913 0.042222556 0.99155641 0.00012762332
-2.4362206 -0.081669204 -1.36959 7 0.1224894 0.042590823 0.99155551 0.00012580569
-2.4381819 -0.074919641 -1.3705696 6 0.12240672 0.042832501 0.99155533 0.00012253034
-2.4383817 -0.068110503 -1.3705696 7 0.1223098 0.043106936 0.99155545 0.00012014843
-2.4403267 -0.060492862 -1.3715494 6 0.12224226 0.043377027 0.991552 0.00011720582
-2.4404953 -0.053251866 -1.3715494 6 0.1221189 0.043733578 0.9915514 0.00011287137
-2.4406264 -0.046862874 -1.3715494 7 0.12198028 0.043999474 0.99155682 0.00011003459
-2.437268 -0.039564446 -1.36959 6 0.12201265 0.044283997 0.99154013 0.00010953035
-2.4408615 -0.032378875 -1.3715494 6 0.12187854 0.044602621 0.99154234 0.00010869254
-2.4409511 -0.024710413 -1.3715494 7 0.12179135 0.044884257 0.99154031 0.00010568155
-2.4427512 -0.018333413 -1.3725289 6 0.1216839 0.045166075 0.99154079 0.00010384007
-2.441051 -0.011077497 -1.3715494 7 0.12161521 0.045436881 0.9915368 0.00010549081
-2.4428153 -0.0046899607 -1.3725289 6 0.12150678 0.045705888 0.99153775 0.00010344595
-2.4393308 0.0029796583 -1.3705696 7 0.12151982 0.045979206 0.99152344 0.00010090923
-2.4497731 0.01026124 -1.3764477 7 0.12124801 0.04629251 0.99154222 9.7530698e-05
-2.4410138 0.01746757 -1.3715494 7 0.12117781 0.046544544 0.991539 9.2854862e-05
-2.4461863 0.024336301 -1.3744884 6 0.12102178 0.046825018 0.99154478 9.2122762e-05
-2.4443653 0.031145191 -1.3735087 7 0.1209157 0.047068592 0.99154627 8.9651374e-05
-2.4460056 0.038424574 -1.3744884 6 0.12083348 0.047346588 0.99154305 8.8884452e-05
-2.4424098 0.044764347 -1.3725289 7 0.12078579 0.047562204 0.99153852 8.7939712e-05
-2.4422569 0.052437294 -1.3725289 7 0.12060462 0.047825612 0.99154788 9.0433052e-05
-2.4438443 0.059299618 -1.3735087 7 0.1204611 0.048106041 0.99155182 8.7388202e-05
-2.4436576 0.066549942 -1.3735087 7 0.12035522 0.04835223 0.99155265 8.7613022e-05
-2.4487035 0.073103473 -1.3764477 7 0.12020239 0.048621044 0.99155813 8.6267566e-05
-2.4467049 0.081165545 -1.375468 6 0.1201041 0.048850421 0.99155879 8.6509674e-05
-2.4464839 0.087570913 -1.375468 6 0.11994611 0.049129695 0.99156404 8.6457607e-05
-2.4462299 0.094402023 -1.375468 7 0.11979984 0.049332201 0.99157172 8.7693319e-05
-2.4476635 0.10215945 -1.3764477 6 0.11970153 0.049559657 0.99157214 8.8611945e-05
-2.4473686 0.10899437 -1.3764477 6 0.11958084 0.049794722 0.991575 8.6812295e-05
-2.4505379 0.11599274 -1.378407 7 0.11944429 0.050005008 0.99158078 8.6473177e-05
-2.4519248 0.12335087 -1.3793868 7 0.11939318 0.050249092 0.99157476 8.7632739e-05
-2.446347 0.12992021 -1.3764477 6 0.11928736 0.050499666 0.9915747 8.8676257e-05
-2.4546552 0.13766582 -1.3813461 6 0.11914182 0.050727434 0.99158055 8.5726657e-05
-2.4507549 0.14474286 -1.3793868 7 0.1190905 0.050963216 0.99157459 8.1725528e-05
-2.453795 0.15223041 -1.3813461 7 0.11893129 0.051201511 0.99158144 8.2001403e-05
-2.4516482 0.15854099 -1.3803664 7 0.11885603 0.051409535 0.99157977 8.134004e-05
-2.451138 0.16624182 -1.3803664 7 0.11880533 0.051615823 0.99157506 7.7956458e-05
-2.4506643 0.17308621 -1.3803664 6 0.1187271 0.051890172 0.99157012 7.3171803e-05
-2.453649 0.18018462 -1.3823258 7 0.11861997 0.052057877 0.99157411 7.1519971e-05
-2.4531035 0.18746409 -1.3823258 7 0.11850532 0.052290205 0.99157566 7.2941664e-05
-2.454309 0.19445159 -1.3833054 6 0.11837438 0.052551035 0.99157751 6.9207497e-05
-2.4485078 0.20130377 -1.3803664 6 0.11829948 0.052690353 0.991579 6.8361463e-05
-2.4531116 0.20901196 -1.3833054 7 0.11816249 0.05295356 0.99158132 6.7706103e-05
-2.4542553 0.21601456 -1.3842852 6 0.11811152 0.053113297 0.99157888 6.456198e-05
-2.4518673 0.22313705 -1.3833054 7 0.1180848 0.053316381 0.99157113 6.2154038e-05
-2.4511945 0.23041105 -1.3833054 6 0.11803525 0.053505357 0.9915669 5.9598638e-05
-2.4539707 0.23801965 -1.3852648 6 0.11794059 0.053677302 0.99156886 5.611105e-05
-2.4533393 0.24444351 -1.3852648 7 0.11785231 0.053859729 0.9915694 5.8175268e-05
-2.4577627 0.25268418 -1.3882039 6 0.11770952 0.054100066 0.99157327 5.5829478e-05
-2.4518454 0.25899723 -1.3852648 7 0.11769238 0.054205403 0.99156964 5.286068e-05
-2.4527998 0.26645935 -1.3862445 7 0.11760419 0.05441587 0.99156857 5.3687651e-05
-2.4537313 0.27392876 -1.3872241 7 0.11744384 0.05461425 0.99157661 5.6031178e-05
-2.4529567 0.28077996 -1.3872241 6 0.1174008 0.054800615 0.99157143 5.3143114e-05
-2.4504313 0.28742585 -1.3862445 6 0.11736123 0.054908343 0.99157017 5.1413874e-05
-2.4495163 0.2951228 -1.3862445 6 0.11725218 0.055123799 0.99157113 4.988115e-05
-2.4522491 0.30153245 -1.3882039 7 0.11716454 0.055288143 0.99157238 5.3372689e-05
-2.4478297 0.30879915 -1.3862445 6 0.1171613 0.05542697 0.99156493 4.9291757e-05
-2.4520907 0.31673029 -1.3891835 6 0.11707886 0.055628713 0.99156332 4.7016554e-05
-2.4495244 0.32292044 -1.3882039 6 0.11703378 0.055743769 0.99156225 4.2800977e-05
-2.4519536 0.33108163 -1.3901632 7 0.11695225 0.055920448 0.99156195 4.1922995e-05
-2.4492924 0.33768895 -1.3891835 6 0.11690252 0.056063063 0.99155974 3.5479854e-05
-2.4552462 0.34549934 -1.3931022 6 0.11687627 0.056184366 0.99155605 3.6222256e-05
-2.4524844 0.35253415 -1.3921226 6 0.11680315 0.056283362 0.99155897 3.5775494e-05
-2.4514277 0.3598094 -1.3921226 6 0.11674439 0.056436397 0.99155724 3.2721509e-05
-2.4522018 0.3664839 -1.3931022 7 0.11664046 0.056572974 0.99156159 3.5809138e-05
-2.4579329 0.37523797 -1.3970209 6 0.11654148 0.056748409 0.99156326 3.6175734e-05
-2.4499838 0.38102874 -1.3931022 7 0.11651407 0.056842513 0.99156106 3.4927711e-05
-2.4523544 0.38841453 -1.3950615 6 0.1164671 0.056962341 0.99155974 3.6229805e-05
-2.4529128 0.39596716 -1.3960413 6 0.11638071 0.057087541 0.99156272 3.8634033e-05
-2.4482858 0.40267751 -1.394082 7 0.11633459 0.057199717 0.99156165 3.881564e-05
-2.4488714 0.4098008 -1.3950615 7 0.11625023 0.057309683 0.99156511 4.1569569e-05
-2.4493639 0.41735739 -1.3960413 7 0.11620351 0.05746451 0.99156171 3.4936413e-05
-2.4498327 0.42492107 -1.3970209 7 0.1161487 0.057554837 0.99156284 3.8694889e-05
-2.4485612 0.43218756 -1.3970209 7 0.11610266 0.057700317 0.99155986 3.3329659e-05
-2.4507773 0.43963945 -1.3989804 7 0.1160333 0.057811867 0.99156147 2.9305502e-05
-2.4511774 0.4472222 -1.3999599 6 0.11600005 0.057889998 0.99156076 2.8738765e-05
-2.4481251 0.45417514 -1.3989804 6 0.11590987 0.057999969 0.99156493 2.9680763e-05
-2.4503548 0.46122739 -1.4009397 7 0.11587512 0.058115102 0.99156213 2.776421e-05
-2.4524007 0.46915171 -1.402899 7 0.11584192 0.058194865 0.99156147 2.5895361e-05
-2.4527094 0.4767583 -1.4038787 7 0.11576897 0.058288701 0.99156439 2.9420495e-05
-2.4495733 0.48369589 -1.402899 7 0.11571836 0.058353912 0.99156642 3.0681196e-05
-2.4499228 0.49087721 -1.4038787 7 0.11566193 0.058479764 0.9915657 2.8340786e-05
-2.4417078 0.49632704 -1.3999599 6 0.11561051 0.058508959 0.99156994 2.773155e-05
-2.4437277 0.50384802 -1.4019194 5 0.11552858 0.058582217 0.99157512 3.1498959e-05
-2.4455459 0.51223773 -1.4038787 5 0.11550582 0.058698203 0.99157101 2.7310869e-05
-2.440695 0.51834017 -1.4019194 5 0.11549044 0.058744244 0.99157006 2.5285433e-05
-2.4373498 0.52563775 -1.4009397 5 0.11549443 0.058838371 0.99156392 1.813235e-05
-2.4411688 0.53270721 -1.4038787 6 0.11552137 0.058912348 0.99155647 1.1780284e-05
-2.442888 0.54112744 -1.405838 6 0.11549275 0.059008826 0.99155396 1.1442168e-05
-2.4462795 0.54994678 -1.4087771 6 0.11548198 0.059088726 0.99155056 1.2116797e-05
-2.4415278 0.55514956 -1.4068178 6 0.11543705 0.059165686 0.99155122 1.4015326e-05
-2.4414706 0.56320852 -1.4077973 6 0.11540473 0.059235781 0.9915508 1.5569314e-05
-2.4363935 0.56965625 -1.405838 6 0.11539856 0.059337523 0.99154538 1.0548561e-05
-2.434793 0.57645792 -1.405838 5 0.11537635 0.059402462 0.99154407 1.1561297e-05
-2.4382606 0.58447438 -1.4087771 6 0.11537427 0.059463345 0.99154067 1.0641756e-05
-2.4381065 0.59254277 -1.4097567 6 0.1153793 0.059537552 0.99153566 8.5553402e-06
-2.4382401 0.59934008 -1.4107364 6 0.11539165 0.05957206 0.99153209 4.4138014e-06
-2.4364512 0.60657203 -1.4107364 6 0.11539546 0.059646357 0.99152714 3.3524866e-06
-2.4380221 0.61465108 -1.4126958 6 0.11539869 0.059696291 0.99152386 9.7572536e-07
-2.434715 0.62060124 -1.4117161 6 0.11538344 0.059759099 0.99152184 0
-2.4310651 0.62781054 -1.4107364 6 0.1153805 0.059831116 0.99151778 0
-2.4359396 0.63678509 -1.4146552 6 0.11537038 0.059886925 0.99151558 0
-2.4325781 0.64271492 -1.4136754 6 0.1153506 0.059944239 0.99151444 1.7248755e-06
-2.4323449 0.65038025 -1.4146552 6 0.11537145 0.059992805 0.99150908 0
-2.4353387 0.65938503 -1.4175942 6 0.11538545 0.06007598 0.99150246 0
-2.4302406 0.66483849 -1.4156349 6 0.1153409 0.060120769 0.99150491 0
-2.4283745 0.67162198 -1.4156349 6 0.115341 0.060172528 0.99150169 0
-2.4312897 0.68065858 -1.4185739 6 0.11533634 0.060256951 0.99149722 0
-2.4294996 0.6870209 -1.4185739 6 0.11537818 0.060288563 0.99149036 0
-2.4256527 0.69417036 -1.4175942 6 0.11535126 0.06034334 0.99149019 1.1225482e-06
-2.4252574 0.70184922 -1.4185739 6 0.11534464 0.060411859 0.99148673 0
-2.426759 0.70917392 -1.4205332 6 0.11540356 0.060467254 0.99147654 0
-2.4245191 0.71679437 -1.4205332 6 0.11537211 0.060507912 0.99147773 5.4675602e-06
-2.417496 0.72206467 -1.4175942 6 0.11535929 0.060571332 0.99147534 9.0657913e-06
-2.4238164 0.73133123 -1.4224925 6 0.11537407 0.060641706 0.99146932 6.4196565e-06
-2.4215066 0.73894298 -1.4224925 6 0.11540502 0.060700804 0.99146205 6.4459073e-06
-2.4161017 0.74467415 -1.4205332 6 0.11537199 0.060768906 0.99146175 1.0644236e-05
-2.4123478 0.75090021 -1.4195536 6 0.115309 0.06083557 0.99146503 1.8297938e-05
-2.4184258 0.76067042 -1.4244519 6 0.11535482 0.060834635 0.99145973 1.9051999e-05
-2.4144962 0.76731473 -1.4234723 6 0.11534607 0.060908012 0.99145621 1.9072486e-05
-2.4123442 0.77405441 -1.4234723 6 0.11531361 0.060947023 0.99145764 2.1598595e-05
-2.4133542 0.78228337 -1.4254316 6 0.11528212 0.060994927 0.9914583 2.6296246e-05
-2.4146121 0.78968364 -1.4273909 6 0.11529897 0.061061192 0.99145234 2.5781625e-05
-2.410464 0.79671782 -1.4264113 6 0.11532842 0.061090328 0.99144703 2.9240364e-05
-2.4082296 0.80344617 -1.4264113 6 0.11529417 0.061133843 0.99144834 2.955994e-05
-2.4125865 0.81239396 -1.4303299 6 0.11535143 0.06118061 0.99143881 2.9038307e-05
-2.4083719 0.81940728 -1.4293504 6 0.11534941 0.061229631 0.99143606 2.845068e-05
-2.406074 0.82612967 -1.4293504 6 0.11538047 0.061258357 0.99143064 3.1456268e-05
-2.4021101 0.83227479 -1.4283706 6 0.11540148 0.061311565 0.99142492 2.8082606e-05
-2.4060667 0.84212059 -1.4322892 6 0.11542419 0.061317079 0.99142194 3.3234151e-05
-2.4022095 0.84783739 -1.4313097 6 0.11545306 0.06135847 0.99141604 3.3286713e-05
-2.3980408 0.85437542 -1.4303299 6 0.11551452 0.061373536 0.99140793 3.3285156e-05
-2.3971362 0.86207706 -1.4313097 6 0.11551832 0.061427794 0.99140412 3.4989778e-05
-2.3963583 0.86936247 -1.4322892 6 0.11554392 0.061450265 0.99139977 3.6014062e-05
-2.3922842 0.87545145 -1.4313097 6 0.115571 0.06146289 0.99139583 3.7678779e-05
-2.3929474 0.8837533 -1.433269 6 0.11559642 0.06149736 0.99139065 3.824932e-05
-2.3903146 0.89085007 -1.433269 6 0.11564018 0.061548866 0.99138242 3.4254888e-05
-2.3910818 0.89874816 -1.4352283 6 0.11564998 0.06155514 0.99138087 3.8936858e-05
-2.3900349 0.90645719 -1.4362081 6 0.11567605 0.061579686 0.99137634 4.0219598e-05
-2.3826089 0.91125888 -1.433269 6 0.11571151 0.061613943 0.99137002 3.8376966e-05
-2.3831477 0.91957968 -1.4352283 6 0.11571838 0.06164949 0.99136698 3.8929498e-05
-2.3820338 0.92727929 -1.4362081 6 0.11572284 0.061704803 0.99136305 4.2916861e-05
-2.3826809 0.93520182 -1.4381675 6 0.11575337 0.061731961 0.99135786 4.2393007e-05
-2.3816817 0.94249362 -1.4391471 6 0.11577827 0.061765801 0.9913528 4.0302006e-05
-2.3819475 0.95126414 -1.4411064 6 0.11578002 0.061811637 0.99134982 3.9082992e-05
-2.3807318 0.95897955 -1.4420862 7 0.11580881 0.061831579 0.99134517 3.3733933e-05
-2.3782132 0.96520865 -1.4420862 7 0.11581016 0.061868355 0.99134266 3.2432883e-05
-2.371942 0.97135317 -1.4401268 7 0.11581551 0.061894774 0.9913404 3.0085766e-05
-2.3711734 0.97781092 -1.4411064 7 0.11582945 0.061936487 0.99133617 3.274476e-05
-2.3696997 0.98592532 -1.4420862 7 0.11583779 0.061971571 0.99133301 3.2708613e-05
-2.3714137 0.99538904 -1.4450251 8 0.11583956 0.061997917 0.99133116 3.0891919e-05
-2.3670189 1.0013282 -1.4440455 7 0.11583868 0.061990764 0.99133176 3.2837906e-05
-2.3626096 1.0072507 -1.4430658 7 0.11585516 0.062006209 0.99132878 3.018017e-05
-2.3612125 1.0149449 -1.4440455 7 0.11589564 0.062034562 0.99132222 3.3514068e-05
-2.3601475 1.0218154 -1.4450251 7 0.11594503 0.062046651 0.99131578 3.3062177e-05
-2.3555071 1.0281168 -1.4440455 6 0.11595798 0.062076822 0.99131233 3.9972343e-05
-2.3506699 1.0348089 -1.4430658 5 0.11597294 0.062116552 0.99130815 4.0797047e-05
-2.3511407 1.0423723 -1.4450251 5 0.11599867 0.062125299 0.99130452 4.2111813e-05
-2.3512213 1.0507674 -1.4469845 5 0.11604741 0.062127367 0.99129874 4.3766042e-05
-2.351088 1.0595812 -1.4489439 5 0.11611337 0.062123485 0.99129128 4.1098589e-05
-2.3437283 1.0631621 -1.4460049 5 0.11610873 0.062142354 0.99129063 4.2907363e-05
-2.3356197 1.0683441 -1.4430658 4 0.11615515 0.06216028 0.99128407 4.1943771e-05
-2.3435237 1.0803792 -1.4499235 5 0.11624289 0.062136434 0.99127519 4.0155177e-05
-2.345432 1.088713 -1.4528626 6 0.11629077 0.062128499 0.99127012 3.9193186e-05
-2.3388417 1.0945979 -1.4509032 6 0.11634759 0.06213003 0.99126339 3.8366485e-05
-2.3389304 1.1026115 -1.4528626 6 0.11639575 0.062109198 0.99125898 4.4215114e-05
-2.3405676 1.1113826 -1.4558016 6 0.11641502 0.062078308 0.99125874 3.9731098e-05
-2.332541 1.1160648 -1.4528626 6 0.11645556 0.062071741 0.99125439 3.7296777e-05
-2.333931 1.1252525 -1.4558016 6 0.11649577 0.062024996 0.99125254 3.7325364e-05
-2.3307796 1.1317657 -1.4558016 6 0.11656094 0.06198962 0.99124718 3.6386216e-05
-2.3274114 1.1386759 -1.4558016 6 0.11670963 0.061739527 0.99124527 3.8250109e-05
-2.3224585 1.1448057 -1.4548219 6 0.11682703 0.061551787 0.99124306 3.8884653e-05
-2.3225775 1.1524321 -1.4567814 6 0.11697748 0.061422653 0.99123329 4.4063134e-05
-2.3173864 1.1589427 -1.4558016 6 0.11715324 0.061074734 0.991234 4.9826405e-05
-2.32037 1.1685467 -1.4597204 6 0.11784649 0.060177341 0.99120677 7.017031e-05
-2.3186526 1.1758106 -1.4607 6 0.11796115 0.060008854 0.99120337 7.3684845e-05
-2.3149471 1.1830891 -1.4607 6 0.11814643 0.059747171 0.99119705 8.1501043e-05
-2.3131847 1.1903472 -1.4616797 6 0.11818784 0.059714537 0.99119413 8.2329694e-05
-2.3083034 1.1960001 -1.4607 6 0.11827749 0.059603013 0.99119025 8.5311105e-05
-2.3091717 1.2056664 -1.463639 6 0.11841286 0.059389751 0.9911868 8.7871304e-05
-2.3073394 1.2129217 -1.4646188 6 0.11853904 0.059231248 0.99118119 9.2849623e-05
-2.3039432 1.2193605 -1.4646188 6 0.11860347 0.05914285 0.99117875 9.4563278e-05
-2.2987764 1.2253704 -1.463639 6 0.11865469 0.059073303 0.99117678 9.4376053e-05
-2.3001702 1.2338572 -1.4665781 6 0.11867254 0.059050359 0.99117601 9.705218e-05
-2.2945321 1.2406489 -1.4655983 6 0.11872521 0.059002828 0.99117249 9.7483418e-05
-2.2971842 1.250386 -1.4695171 6 0.11869764 0.058959987 0.99117839 0.00010185831
-2.287786 1.2530451 -1.4655983 6 0.11880626 0.058889668 0.99116957 0.00010404542
-2.2901654 1.2631956 -1.4695171 6 0.11903397 0.058696128 0.99115372 0.0001058036
-2.2833588 1.268292 -1.4675577 6 0.11910257 0.058556248 0.99115372 0.00011206201
-2.2813301 1.2755145 -1.4685374 6 0.11928261 0.058318816 0.99114609 0.00011666503
-2.2790546 1.2831331 -1.4695171 6 0.11984181 0.057894927 0.99110347 0.00012527582
-2.2797883 1.292469 -1.4724561 6 0.12047882 0.057360727 0.99105728 0.00014217706
-2.27617 1.2988304 -1.4724561 6 0.12054946 0.057290543 0.99105275 0.00014204756
-2.2707944 1.3047098 -1.4714766 6 0.12065563 0.057102967 0.99105072 0.00014009808
-2.2731798 1.3145376 -1.4753952 6 0.1210215 0.056786984 0.99102432 0.00014690049
-2.2649789 1.3182491 -1.4724561 6 0.12104034 0.056817323 0.99102014 0.00014460288
-2.263835 1.3271215 -1.4744155 6 0.12120293 0.056588531 0.99101347 0.00014540429
-2.2616217 1.3343244 -1.4753952 6 0.12137859 0.056579266 0.99099243 0.00014559769
-2.2578869 1.3406349 -1.4753952 6 0.12139966 0.056507844 0.99099392 0.00014722964
-2.2538989 1.3473284 -1.4753952 6 0.12150747 0.056476239 0.99098253 0.00014882439
-2.2546101 1.3563139 -1.4783342 6 0.12148202 0.056409996 0.99098939 0.00014996914
-2.2490845 1.3620938 -1.4773545 6 0.12155094 0.056349739 0.99098444 0.00014702407
-2.2465219 1.3696687 -1.4783342 6 0.12151159 0.056409143 0.99098581 0.00015394126
-2.2441745 1.3768489 -1.479314 6 0.1216047 0.056358486 0.99097723 0.00015007342
-2.2385962 1.3825847 -1.4783342 7 0.1218148 0.056297772 0.990955 0.00015850071
-2.2389264 1.3919828 -1.4812733 7 0.12175639 0.056234136 0.99096566 0.00016140143
-2.233552 1.3973049 -1.4802935 7 0.12167103 0.056590836 0.99095589 0.00017422139
-2.2384949 1.4091101 -1.4861716 7 0.1210798 0.057061933 0.99100137 0.00018821645
-2.231112 1.4142683 -1.4842123 7 0.12101937 0.057292175 0.99099541 0.00019584798
-2.230094 1.4223684 -1.4861716 7 0.12078234 0.057648931 0.99100363 0.00021346469
-2.2217109 1.4257654 -1.4832326 7 0.12110224 0.057404187 0.99097884 0.00021162276
-2.2245433 1.4374695 -1.488131 7 0.12071437 0.057735234 0.99100691 0.00022647232
-2.2210243 1.4429009 -1.488131 8 0.12063859 0.057774246 0.99101388 0.00022766164
-2.2164803 1.4498715 -1.488131 7 0.12069045 0.057860967 0.99100244 0.00023311646
-2.2119143 1.4568276 -1.488131 7 0.1207998 0.057779323 0.99099392 0.0002433522
-2.2098019 1.4631903 -1.4891107 7 0.12084107 0.057900708 0.99098182 0.00025193181
-2.205194 1.470126 -1.4891107 7 0.12087785 0.057932131 0.9909755 0.0002515435
-2.2022705 1.4776336 -1.4900904 7 0.12082285 0.058205582 0.9909662 0.00026130959
-2.1983948 1.4833937 -1.4900904 7 0.12096569 0.058416031 0.99093634 0.00027543752
-2.1994925 1.4942129 -1.4940091 8 0.12076 0.058751062 0.99094158 0.00028778173
-2.1936102 1.4997476 -1.4930294 8 0.12079585 0.059075605 0.99091798 0.00030348872
-2.1925497 1.5074612 -1.4949887 8 0.12048594 0.059793618 0.99091268 0.00032847075
-2.1880677 1.5139595 -1.4949887 8 0.12038287 0.060194999 0.99090087 0.00034540991
-2.1849968 1.5214416 -1.4959685 7 0.12023742 0.060616225 0.99089283 0.00035838041
-2.1852911 1.5301571 -1.4989074 8 0.1202389 0.060831867 0.99087942 0.00036910953
-2.1776233 1.5350053 -1.4969481 7 0.12058468 0.060698509 0.99084562 0.00036322686
-2.1801698 1.5465038 -1.5018466 8 0.12003743 0.061820418 0.9908427 0.00039014276
-2.1775329 1.553219 -1.5028261 8 0.1200548 0.062066838 0.99082518 0.00039455653
-2.1689374 1.5562438 -1.4998871 7 0.12052357 0.062303502 0.99075347 0.00041216036
-2.1694181 1.5675126 -1.5038059 7 0.12029826 0.063063987 0.99073273 0.00042951861
-2.1667168 1.5742122 -1.5047854 8 0.12043365 0.06365303 0.99067855 0.00044866034
-2.1651287 1.5823137 -1.506745 8 0.12037818 0.064298056 0.99064356 0.00046740388
-2.158742 1.588075 -1.5057652 7 0.12110244 0.064422809 0.9905473 0.00048861344
-2.1573806 1.5957944 -1.5077245 8 0.12089463 0.064985394 0.99053591 0.00050527416
-2.1512377 1.6011478 -1.506745 7 0.1214539 0.065281503 0.99044806 0.00052416808
-2.1461968 1.6078984 -1.506745 7 0.12156343 0.065694593 0.99040729 0.00054987299
-2.1419804 1.6135112 -1.506745 7 0.12162568 0.066058114 0.9903754 0.00055808248
-2.139679 1.6223398 -1.5087043 7 0.12190565 0.066116229 0.99033713 0.00057321426
-2.1392996 1.6314809 -1.5116433 8 0.12192225 0.066345096 0.99031979 0.00058442523
-2.1347358 1.6374477 -1.5116433 8 0.122048 0.066619866 0.99028587 0.00058562314
-2.1315353 1.6444677 -1.512623 7 0.12220968 0.067185067 0.99022776 0.00059839553
-2.1249812 1.6500874 -1.5116433 7 0.12232499 0.067432404 0.9901967 0.00059938355
-2.1217391 1.6570878 -1.512623 7 0.12229747 0.067982942 0.99016237 0.00061125669
-2.1181846 1.6644528 -1.5136026 7 0.12215909 0.068347774 0.99015439 0.00062011008
-2.1192918 1.6743166 -1.5175213 8 0.12171407 0.069131531 0.99015474 0.00063760171
-2.1115851 1.6784271 -1.5155619 7 0.12210496 0.069077417 0.99011046 0.00064300763
-2.106302 1.6850523 -1.5155619 7 0.1220857 0.06991566 0.99005401 0.00065868557
-2.1032414 1.691654 -1.5165417 7 0.12205014 0.069918461 0.99005818 0.00066560722
-2.1022799 1.7011774 -1.5194807 7 0.12238052 0.070029899 0.99000955 0.00068421254
-2.0982769 1.7088743 -1.5204604 7 0.12217164 0.070582852 0.98999602 0.00069626007
-2.0913966 1.7117873 -1.518501 7 0.12248562 0.070509933 0.98996246 0.00068921968
-2.0940831 1.7250016 -1.5243791 8 0.12193343 0.071458653 0.98996258 0.00071360404
-2.0889559 1.7312069 -1.5243791 7 0.12190161 0.071958348 0.98993033 0.00072362181
-2.0824707 1.7362807 -1.5233994 7 0.12180693 0.072445288 0.98990643 0.00073477637
-2.0789502 1.7432098 -1.5243791 8 0.12143849 0.073249787 0.98989248 0.00074413163
-2.0724361 1.7482458 -1.5233994 7 0.1213556 0.073759601 0.98986483 0.0007524605
-2.0745013 1.7593045 -1.5282978 8 0.12124614 0.074448816 0.98982662 0.00074992952
-2.0719247 1.7677153 -1.5302571 8 0.1212275 0.074582577 0.98981887 0.00075702264
-2.0640244 1.771584 -1.5282978 7 0.12129006 0.074757166 0.98979795 0.0007604385
-2.0617094 1.7796191 -1.5302571 8 0.12108696 0.075056776 0.98980016 0.00076919718
-2.0590527 1.7880156 -1.5322165 8 0.12127792 0.07531891 0.98975694 0.00077705859
-2.0511124 1.7918224 -1.5302571 7 0.12118797 0.075539477 0.98975104 0.00078898395
-2.0503452 1.8006375 -1.5331962 8 0.12129478 0.075821884 0.98971641 0.00078816595
-2.0463004 1.8078678 -1.5341759 8 0.12121481 0.076183029 0.98969847 0.00079692609
-2.0419135 1.815446 -1.5351555 9 0.12119561 0.076442771 0.98968083 0.00080137223
