# .PCD v0.7 - Point Cloud Data file format
VERSION 0.7
FIELDS x y z intensity normal_x normal_y normal_z curvature
SIZE 4 4 4 4 4 4 4 4
TYPE F F F F F F F F
COUNT 1 1 1 1 1 1 1 1
WIDTH 111
HEIGHT 1
VIEWPOINT 0 0 0 1 0 0 0
POINTS 111
DATA ascii
-2.6786909 2.8998208 -1.5415261 60 0.11781722 0.07027518 0.99054551 0.0016912612
-2.6737616 2.9271154 -1.5480733 51 0.11846256 0.066038184 0.99076009 0.001865618
-2.6882272 2.9264975 -1.5517107 64 0.11829756 0.06589447 0.99078935 0.0018788063
-2.7230349 2.8966951 -1.5524381 60 0.1178185 0.07047268 0.99053133 0.0017900694
-2.6933517 2.9672287 -1.5648053 56 0.11889154 0.058814127 0.99116373 0.00213525
-2.7276571 2.9178979 -1.5597129 56 0.11745545 0.067757182 0.99076396 0.0019174536
-2.7271085 2.9336908 -1.5640779 60 0.11742621 0.063504212 0.99104911 0.0020648378
-2.7367373 2.8940179 -1.555348 51 0.11767172 0.070774041 0.99052733 0.0018435529
-2.7594366 2.9007328 -1.5633504 51 0.11648539 0.070531912 0.99068481 0.0018644354
-2.7585118 2.8835924 -1.5582581 48 0.11666202 0.071706519 0.99057972 0.0018442888
-2.7005565 2.9908628 -1.5735351 56 0.11769328 0.056403562 0.99144691 0.0021162753
-2.6854482 2.9919302 -1.5698975 60 0.11848357 0.056241319 0.99136198 0.0020909274
-2.6710758 2.9947903 -1.5669878 51 0.11894215 0.056515992 0.9912914 0.0020628853
-2.772223 2.8807642 -1.561168 51 0.11666127 0.072009131 0.99055779 0.0018462552
-2.7763689 2.8689961 -1.5589855 51 0.11642126 0.073246345 0.99049532 0.0018142087
-2.7978652 2.8740942 -1.5662602 56 0.11634622 0.072252378 0.99057722 0.0018565679
-2.8024702 2.8617868 -1.5640779 42 0.11614549 0.073329911 0.99052155 0.0018271684
-2.6761174 3.0152411 -1.5742625 64 0.11855154 0.054608226 0.99144512 0.0020860215
-2.67156 3.0292237 -1.5771725 60 0.11964556 0.051215474 0.99149483 0.0023462628
-2.8065286 2.849968 -1.5618954 53 0.1157236 0.075669475 0.99039495 0.0017363083
-2.8105438 2.8381481 -1.5597129 53 0.1153897 0.076606095 0.99036193 0.0016783096
-2.8128715 2.8227062 -1.5560756 60 0.11532973 0.07724119 0.99031955 0.0016477642
-2.8242066 2.8192816 -1.5582581 48 0.11519721 0.077359915 0.99032575 0.0016526667
-2.6687012 3.0441408 -1.5808098 60 0.12182852 0.045928054 0.99148798 0.0025514439
-2.6503959 3.0403469 -1.57499 53 0.12027615 0.049457889 0.99150771 0.0024342448
-2.6479967 3.0547752 -1.5786273 60 0.12122963 0.045097064 0.9915995 0.0025251771
-2.6493292 3.075783 -1.5851747 53 0.12359351 0.037195832 0.99163562 0.0026028266
-2.6473289 3.0897818 -1.588812 53 0.12371268 0.033986341 0.99173588 0.002600614
-2.6550601 3.1174805 -1.5989969 53 0.12555371 0.025825048 0.99175066 0.0025376393
-2.6494102 3.1296096 -1.6011792 51 0.12631515 0.022716716 0.99173003 0.0024366856
-2.6377146 3.1346052 -1.5997243 51 0.12610903 0.023165792 0.99174589 0.0024396072
-2.6211278 3.1315007 -1.5946319 53 0.12488294 0.025627894 0.99184048 0.0023923102
-2.630338 3.1626368 -1.6062716 48 0.12720366 0.019805733 0.99167889 0.0023093654
-2.620862 3.1680763 -1.605544 48 0.12709484 0.019807968 0.99169284 0.002301276
-2.6043503 3.1672056 -1.6011792 44 0.12661713 0.019977128 0.99175048 0.0023195818
-2.602639 3.1854701 -1.6062716 46 0.12691623 0.019571589 0.99172032 0.0022931956
-2.5713148 3.1821167 -1.5975418 53 0.12638967 0.021115482 0.9917559 0.0022656198
-2.5683036 3.198895 -1.6019068 46 0.12728553 0.020294687 0.99165845 0.0022916282
-2.5413184 3.1823163 -1.5902671 60 0.12549828 0.022863321 0.99183035 0.0021745281
-2.5249166 3.1810868 -1.5859021 60 0.12455986 0.024662657 0.99190557 0.0021290272
-2.5368299 3.2167969 -1.5997243 48 0.12662864 0.0214999 0.99171716 0.0021761756
-2.5302784 3.2456081 -1.606999 56 0.12891684 0.020891143 0.99143535 0.0022505934
-2.5194969 3.2516282 -1.6062716 51 0.12917292 0.021667225 0.99138534 0.0022470441
-2.5502448 3.2512796 -1.6135464 48 0.12910615 0.019636154 0.99143636 0.0022594444
-2.5115428 3.2601278 -1.606999 51 0.12923554 0.021459315 0.9913817 0.0022461656
-2.5182893 3.2878344 -1.6171837 56 0.13020153 0.020277476 0.99128014 0.0022466928
-2.4921522 3.2749743 -1.606999 46 0.12899384 0.022364775 0.99139315 0.0021933469
-2.4976101 3.3012347 -1.6164563 51 0.13101593 0.019621413 0.99118608 0.0022731633
-2.4984612 3.3215954 -1.6230036 53 0.131483 0.018669207 0.99114257 0.0022623339
-2.4757876 3.3106556 -1.6142738 51 0.13200717 0.020036021 0.99104619 0.0022719966
-2.4515061 3.2985492 -1.6048166 64 0.13057409 0.023065589 0.99117023 0.0021904339
-2.473223 3.3496978 -1.6259135 51 0.13283208 0.018882919 0.99095863 0.0022560097
-2.4644439 3.3561621 -1.6259135 56 0.13305493 0.019077353 0.99092501 0.0022495501
-2.4533775 3.361954 -1.6251861 60 0.1333271 0.018922795 0.9908914 0.0022473193
-2.441205 3.3662016 -1.623731 60 0.13347577 0.019608093 0.99085808 0.0022533634
-2.4400113 3.3831592 -1.6288234 60 0.13421041 0.019464202 0.99076164 0.0022492816
-2.4250312 3.3847499 -1.6259135 60 0.13347165 0.020265479 0.99084538 0.0022010519
-2.4171393 3.3949645 -1.6273683 60 0.13394217 0.020162851 0.99078405 0.0021848145
-2.4190078 3.4164867 -1.6346433 51 0.1351998 0.019726854 0.99062192 0.0022604321
-2.4104066 3.4271166 -1.6360981 51 0.13537513 0.020170061 0.99058908 0.0022715889
-2.3783374 3.4245284 -1.628096 51 0.1349313 0.021044809 0.99063146 0.0022196192
-2.3810098 3.4476051 -1.6360981 51 0.13561502 0.020825876 0.99054271 0.0022457116
-2.3579638 3.4566445 -1.6339157 51 0.13532734 0.021509863 0.99056745 0.0022334652
-2.3802564 3.4684799 -1.6426455 48 0.13627529 0.020635931 0.9904561 0.002252822
-2.3518791 3.4697938 -1.6368256 48 0.13569272 0.021877397 0.99050939 0.0022336526
-2.3467762 3.4844837 -1.640463 48 0.1362191 0.022015434 0.99043405 0.0022428152
-2.3132002 3.455416 -1.623731 51 0.13419035 0.023638938 0.99067354 0.0021766869
-2.3080621 3.4923959 -1.6346433 46 0.13551405 0.023736235 0.99049103 0.0022157633
-2.3028033 3.5070148 -1.6382806 60 0.13636258 0.023082569 0.99039 0.0021887943
-2.2977777 3.454509 -1.6200936 56 0.13401425 0.02427501 0.99068201 0.00212332
-2.2691693 3.4755931 -1.6208211 74 0.1351016 0.025109617 0.9905135 0.0020949717
-2.2791245 3.5135698 -1.6353707 53 0.13649587 0.024439637 0.9903391 0.0021441621
-2.2854564 3.5449731 -1.6470103 56 0.1381405 0.023527805 0.99013317 0.0021494278
-2.2612481 3.5317395 -1.6375532 53 0.13753732 0.025012504 0.99018073 0.002133501
-2.2703805 3.5679035 -1.6513753 51 0.13916908 0.023698203 0.98998505 0.0021153016
-2.2584171 3.5710802 -1.6499202 60 0.1393186 0.024459179 0.98994553 0.0021060428
-2.2494264 3.5789511 -1.6506476 53 0.13972193 0.024768895 0.98988098 0.002122581
-2.2394238 3.5852182 -1.6506476 69 0.13941064 0.024996646 0.98991907 0.0021074596
-2.2271683 3.5906522 -1.6499202 56 0.13968478 0.025367262 0.98987108 0.0020858075
-2.2073557 3.5809991 -1.6426455 53 0.13932389 0.025857775 0.98990923 0.0020498724
-2.1954014 3.5839717 -1.6411904 53 0.1397661 0.02615968 0.98983896 0.0020550177
-2.1792912 3.5828922 -1.6375532 64 0.13874231 0.027045406 0.98995912 0.0020299936
-2.1737585 3.5949628 -1.640463 69 0.13914098 0.02743982 0.98989236 0.0020470528
-2.160023 3.6205983 -1.6462828 64 0.13983116 0.028082171 0.98977709 0.0020298711
-2.1381428 3.5598726 -1.6215485 78 0.13698268 0.029483873 0.9901346 0.0018303872
-2.1396315 3.6586082 -1.6550126 53 0.14047237 0.029167742 0.98965484 0.0019887334
-2.1228552 3.6532929 -1.6499202 53 0.14021923 0.029534584 0.98967987 0.0019147062
-2.1703289 3.6859555 -1.6702895 53 0.14287709 0.027085209 0.98936981 0.0020245642
-2.178072 3.6770561 -1.6688347 64 0.14231917 0.026989853 0.98945278 0.002017729
-2.0911746 3.6736627 -1.6506476 69 0.13881749 0.031315591 0.98982275 0.0016243542
-2.1439512 3.716424 -1.675382 53 0.14315908 0.026995113 0.98933148 0.0019792365
-2.1270781 3.7110825 -1.6702895 48 0.14256987 0.027962433 0.98938972 0.0019469936
-2.1209962 3.7488489 -1.6819292 48 0.14430566 0.027588593 0.9891485 0.0019467134
-2.1162524 3.766494 -1.6870215 48 0.14529748 0.027364964 0.98900944 0.0019314607
-2.1080401 3.7796321 -1.6899316 51 0.14435273 0.028178405 0.98912507 0.001807821
-2.0845885 3.7606974 -1.6790193 60 0.14095044 0.029758453 0.98956931 0.0015551852
-2.0667026 3.7811751 -1.6826568 51 0.14061224 0.03035184 0.98959941 0.0014158991
-2.063473 3.8020263 -1.689204 53 0.14107955 0.030453898 0.98952973 0.0014143644
-2.061743 3.7456481 -1.6695621 56 0.13873987 0.031001316 0.98984349 0.0013990221
-2.046438 3.7942979 -1.6833843 60 0.13971213 0.030812522 0.98971266 0.0013685389
-2.0353858 3.8023512 -1.6841117 74 0.13877684 0.031685174 0.98981667 0.0013190493
-2.0420485 3.8389173 -1.6979338 56 0.14146884 0.031136697 0.98945296 0.0013692462
-2.0117142 3.8107154 -1.6826568 51 0.1393694 0.032328185 0.9897126 0.0013182734
-2.0133703 3.8414195 -1.6935689 51 0.14044368 0.032587569 0.98955226 0.0013052741
-1.9912598 3.823544 -1.6833843 64 0.1396741 0.033072975 0.98964506 0.0012950816
-1.9627948 3.7963369 -1.6688347 74 0.13911125 0.033578623 0.98970729 0.0013270058
-1.9408964 3.807579 -1.6688347 44 0.13954879 0.034013547 0.98963082 0.0012733507
-1.9413126 3.7822554 -1.6601049 78 0.1394935 0.033664934 0.98965055 0.0012957262
-1.9193181 3.7913761 -1.6593775 53 0.13979276 0.034001268 0.9895969 0.0012633357
-1.9187635 3.8166955 -1.6681073 53 0.14008431 0.034144364 0.98955065 0.0012534725
-1.924227 3.8577139 -1.6833843 53 0.14011139 0.034614515 0.98953056 0.0012268175
