# .PCD v0.7 - Point Cloud Data file format
VERSION 0.7
FIELDS x y z intensity normal_x normal_y normal_z curvature
SIZE 4 4 4 4 4 4 4 4
TYPE F F F F F F F F
COUNT 1 1 1 1 1 1 1 1
WIDTH 190
HEIGHT 1
VIEWPOINT 0 0 0 1 0 0 0
POINTS 190
DATA ascii
3.6845012 3.7337031 -2.3354819 16 0.095350273 0.058242824 0.99373841 0.0011045609
3.6743226 3.7026477 -2.3224661 16 0.096341521 0.058600254 0.99362177 0.0010856875
3.6872272 3.6923802 -2.3232799 18 0.09635672 0.058524523 0.99362481 0.0010671485
3.7065859 3.6910942 -2.3289742 23 0.096863732 0.057666011 0.9936257 0.0010560498
3.7246697 3.6884415 -2.3338549 25 0.096803442 0.057522725 0.99363989 0.0010357427
3.7453542 3.6856935 -2.3395493 32 0.097452559 0.056831546 0.99361622 0.0010218857
3.7621825 3.6841998 -2.3444302 37 0.097400174 0.056514405 0.99363947 0.0010107334
3.7855217 3.683831 -2.3517513 22 0.097147085 0.05604703 0.99369067 0.00098597759
3.7977481 3.6738544 -2.3525648 39 0.097662717 0.056285791 0.99362659 0.00094755029
3.8113039 3.6676989 -2.3550053 37 0.097773209 0.056321308 0.99361378 0.00093601074
3.8314106 3.6652157 -2.3606997 33 0.096484363 0.056695055 0.9937185 0.00073170266
3.8475659 3.6588669 -2.3639536 25 0.096625373 0.056580216 0.99371135 0.00072988379
3.8617501 3.6518753 -2.3663938 20 0.096520819 0.056671984 0.9937163 0.00072539988
3.873899 3.6416528 -2.3672073 18 0.096693248 0.056653 0.99370056 0.0007198024
3.8853197 3.6294656 -2.3672073 13 0.096867584 0.058030222 0.99360406 0.00068061176
3.8921328 3.6167927 -2.3655806 15 0.09708862 0.058106333 0.99357808 0.00068892451
3.9068727 3.6089487 -2.368021 19 0.097174622 0.058018662 0.9935748 0.00068771403
3.9175649 3.5973399 -2.368021 14 0.097426116 0.058832865 0.99350226 0.00068686297
3.9269683 3.5870721 -2.368021 23 0.097667448 0.058769461 0.99348241 0.00068322319
3.9341586 3.571034 -2.3655806 24 0.098160051 0.058690324 0.99343854 0.00067995425
3.9427602 3.5588081 -2.3647668 24 0.098681323 0.058536761 0.99339592 0.00066899438
3.954042 3.5490053 -2.3655806 26 0.098976597 0.05855114 0.99336565 0.00067294767
3.9638078 3.5353503 -2.3647668 23 0.099358097 0.058725297 0.99331737 0.00067075761
3.9763999 3.5266912 -2.3663938 22 0.10006926 0.058447301 0.99326229 0.00066892226
3.9874589 3.5141823 -2.3663938 22 0.10029455 0.05819919 0.99325418 0.00066610886
3.9972563 3.5030341 -2.3663938 15 0.10058191 0.058602665 0.99320143 0.00066252408
4.0111566 3.4954579 -2.3688343 15 0.1010715 0.058344088 0.99316692 0.00066749373
4.0242729 3.4859324 -2.3704612 17 0.10127686 0.058204118 0.99315423 0.00066852733
4.0278482 3.4706147 -2.3672073 20 0.10160141 0.058537208 0.99310148 0.0006561671
4.037343 3.4567568 -2.3663938 20 0.10199823 0.058332346 0.99307287 0.00065159291
4.0483708 3.4466536 -2.3672073 18 0.10240611 0.058188103 0.99303937 0.00065079314
4.058579 3.4346273 -2.3672073 17 0.10255323 0.058377475 0.99301302 0.00063959719
4.0689564 3.4251661 -2.368021 19 0.10273131 0.058020212 0.99301559 0.00063541176
4.0810971 3.4135392 -2.3688343 19 0.10326634 0.05772296 0.99297738 0.00062124361
4.0934238 3.4044645 -2.3704612 19 0.10388795 0.057581753 0.99292076 0.00061191834
4.0972824 3.3883631 -2.3672073 17 0.10435677 0.057278946 0.99288911 0.00061490998
4.1157861 3.3831539 -2.3720882 17 0.10479306 0.056887232 0.99286568 0.00060533092
4.1263938 3.3702078 -2.3720882 14 0.10520611 0.056570552 0.99284005 0.00059338327
4.1352038 3.3593919 -2.3720882 11 0.1050825 0.056908637 0.99283379 0.00056135806
4.1423092 3.3448126 -2.3704612 11 0.10566328 0.056833785 0.99277651 0.00055040803
4.1573334 3.3378062 -2.3737152 9 0.10601977 0.056391537 0.9927637 0.00054567575
4.1706548 3.3270087 -2.3753421 9 0.10648112 0.056720745 0.99269557 0.00050220522
4.1770663 3.3130794 -2.3737152 9 0.10661528 0.056585532 0.99268895 0.00049559015
4.1868787 3.3006697 -2.3737152 8 0.10668052 0.056371056 0.99269408 0.00049587636
4.1952147 3.2871065 -2.3729017 8 0.10711177 0.057102028 0.99260587 0.00045362182
4.2081304 3.27948 -2.3753421 8 0.1072659 0.056888115 0.99260151 0.00045470282
4.2198563 3.2673628 -2.3761556 9 0.10721367 0.056877792 0.99260771 0.00045690837
4.2255001 3.2540753 -2.3745286 8 0.1073873 0.056625847 0.99260336 0.00045313797
4.2403746 3.2467046 -2.3777826 8 0.10767052 0.056016739 0.99260724 0.00044796997
4.2511172 3.232626 -2.3777826 8 0.10787742 0.055842642 0.9925946 0.00044162117
4.2551947 3.2181776 -2.3753421 8 0.10827318 0.056540716 0.99251199 0.00038128215
4.2685456 3.2095771 -2.3777826 7 0.10857436 0.056159314 0.99250072 0.00037504817
4.2800708 3.1972456 -2.3785958 7 0.10882677 0.055850908 0.99249053 0.00036786732
4.2884259 3.1860301 -2.3785958 6 0.10904244 0.055560306 0.99248314 0.000359281
4.2969446 3.1714559 -2.3777826 7 0.10931908 0.055324662 0.99246585 0.00034451368
4.3063354 3.1586933 -2.3777826 6 0.10982494 0.05602004 0.99237102 0.00031227004
4.3175416 3.1495628 -2.3794096 6 0.11021201 0.056914851 0.99227715 0.00024186737
4.3253894 3.1356649 -2.3785958 7 0.11044864 0.056613281 0.99226815 0.00023279479
4.3331904 3.1217504 -2.3777826 6 0.11035843 0.057036735 0.9922539 0.00022790841
4.3433766 3.110702 -2.3785958 7 0.1104067 0.057238456 0.99223697 0.00022041397
4.3531299 3.0970383 -2.3785958 6 0.11090372 0.059497241 0.99204856 0.00011394292
4.3597307 3.0845764 -2.3777826 5 0.11103083 0.059656389 0.99202484 0.00010047859
4.3718529 3.0737302 -2.3794096 6 0.11122523 0.059431646 0.99201655 9.9776124e-05
4.3824506 3.0617919 -2.380223 5 0.11141793 0.059412304 0.99199605 8.9067114e-05
4.3909845 3.0495405 -2.380223 6 0.11174441 0.060407568 0.99189925 9.6870162e-06
4.3975348 3.0336568 -2.3785958 6 0.11177868 0.060270637 0.99190372 1.2951318e-05
4.4105105 3.0244634 -2.3810363 5 0.11179252 0.060246687 0.99190366 1.3494508e-05
4.4169035 3.0118775 -2.380223 6 0.11186343 0.060120963 0.99190325 1.5623629e-05
4.4227948 2.9967101 -2.3785958 5 0.1117802 0.060129985 0.99191213 1.0156535e-05
4.4382515 2.9868803 -2.38185 6 0.11176608 0.060185008 0.99191034 1.1938795e-05
4.4445367 2.9742351 -2.3810363 6 0.11181056 0.060052089 0.99191338 9.750941e-06
4.4548645 2.9620452 -2.38185 6 0.11182178 0.059936747 0.9919191 1.3872439e-05
4.4651561 2.9498241 -2.3826632 5 0.11187392 0.059817642 0.99192041 1.2802991e-05
4.4703221 2.9353366 -2.3810363 6 0.11191322 0.059701752 0.99192291 1.7754999e-05
4.4795213 2.921279 -2.3810363 6 0.11193609 0.05948808 0.99193323 1.9747182e-05
4.4886866 2.9105365 -2.38185 6 0.1119644 0.059354484 0.99193799 2.3081378e-05
4.498333 2.8989785 -2.3826632 6 0.112063 0.059177052 0.99193746 2.1697217e-05
4.5074191 2.884831 -2.3826632 5 0.11212542 0.05900966 0.99194044 1.6122787e-05
4.5169973 2.8732166 -2.3834767 5 0.11215363 0.058715634 0.99195468 1.4868622e-05
4.5250044 2.86059 -2.3834767 5 0.11224715 0.058686823 0.9919458 1.0652469e-05
4.5350204 2.8481219 -2.3842905 6 0.11230706 0.05874718 0.99193543 9.8784403e-06
4.5414052 2.8344798 -2.3834767 6 0.11232727 0.058443606 0.99195111 1.2409952e-05
4.5482416 2.8200307 -2.3826632 5 0.11238771 0.058239419 0.99195623 1.3746256e-05
4.5565901 2.8065221 -2.3826632 5 0.11252322 0.058105424 0.99194872 1.4228435e-05
4.5700603 2.7950544 -2.3851037 6 0.11253444 0.057962012 0.99195582 1.366267e-05
4.5789223 2.7840302 -2.3859172 6 0.1125069 0.057696197 0.99197447 1.5065735e-05
4.5809078 2.7666521 -2.3826632 6 0.11257554 0.057389084 0.99198449 1.6762142e-05
4.5933151 2.7566707 -2.3851037 6 0.11260741 0.057284545 0.99198693 1.1868322e-05
4.5994272 2.7428956 -2.3842905 5 0.11253682 0.056632888 0.99203235 2.1006163e-05
4.6095929 2.7293646 -2.3851037 6 0.11252576 0.056447469 0.99204415 2.0484747e-05
4.6160955 2.7147501 -2.3842905 5 0.11258325 0.056298036 0.99204618 2.1602424e-05
4.6252356 2.7027717 -2.3851037 6 0.11256284 0.05604779 0.99206263 1.7430986e-05
4.6343455 2.6907609 -2.3859172 6 0.11265519 0.055867907 0.99206221 2.1454394e-05
4.6423087 2.6769996 -2.3859172 5 0.11264307 0.055778656 0.99206871 2.3292971e-05
4.6513524 2.6649323 -2.3867309 5 0.11264417 0.055676054 0.99207437 2.412601e-05
4.6565247 2.6485009 -2.3851037 5 0.11268745 0.05549321 0.99207962 2.249397e-05
4.6677532 2.6398139 -2.3875442 6 0.11276296 0.055319935 0.99208069 2.0252024e-05
4.676024 2.6251354 -2.3875442 4 0.11282762 0.055052221 0.99208832 1.8554569e-05
4.6785502 2.609396 -2.3851037 5 0.11288922 0.054905694 0.99208939 1.949227e-05
4.6922097 2.5998657 -2.3883576 5 0.11288625 0.054706808 0.99210072 1.9680025e-05
4.6983032 2.5850501 -2.3875442 5 0.11289911 0.054543357 0.99210829 2.4176879e-05
4.7059531 2.5710974 -2.3875442 4 0.11296043 0.054308053 0.99211419 2.3336899e-05
4.7099013 2.5562055 -2.3859172 4 0.11300033 0.0540368 0.99212444 2.6857184e-05
4.7190742 2.5430851 -2.3867309 4 0.11294723 0.053831246 0.99214166 2.9973884e-05
4.7265997 2.5290709 -2.3867309 4 0.11296994 0.053399179 0.99216241 3.9097446e-05
4.737308 2.516753 -2.3883576 4 0.11303749 0.053317744 0.99215913 4.0263239e-05
4.744318 2.5035129 -2.3883576 4 0.11300576 0.052979641 0.99218088 3.9487233e-05
4.7517262 2.4894235 -2.3883576 4 0.11303483 0.05282221 0.99218595 3.501766e-05
4.7566066 2.4761324 -2.3875442 4 0.11310396 0.052679617 0.99218559 3.0411118e-05
4.7659845 2.4620161 -2.3883576 4 0.11311688 0.052540936 0.99219149 3.3156324e-05
4.7712164 2.4478621 -2.3875442 4 0.11317008 0.052363791 0.99219483 2.9688741e-05
4.7821388 2.4345195 -2.3891711 4 0.11314695 0.052192107 0.99220651 2.9970119e-05
4.7836046 2.4195182 -2.3867309 4 0.11319738 0.05205705 0.99220783 3.018787e-05
4.7891302 2.4044931 -2.3859172 4 0.11320541 0.051865745 0.992217 3.353072e-05
4.8007312 2.3935566 -2.3883576 4 0.11317115 0.051651068 0.99223202 3.3582688e-05
4.8041224 2.3785183 -2.3867309 4 0.11325563 0.051473193 0.99223167 3.4963196e-05
4.8148503 2.365026 -2.3883576 4 0.11323471 0.05128739 0.99224371 3.4503293e-05
4.8214355 2.3515718 -2.3883576 4 0.11324621 0.05106435 0.9922539 3.3917509e-05
4.8267469 2.3364611 -2.3875442 4 0.11325781 0.050844964 0.99226385 3.1150001e-05
4.8336587 2.3221283 -2.3875442 4 0.11331455 0.050669543 0.9922663 3.6525944e-05
4.8438253 2.3093495 -2.3891711 4 0.11333974 0.050417464 0.99227625 4.2326566e-05
4.8494534 2.2975078 -2.3891711 4 0.11333508 0.050191846 0.99228823 3.7129692e-05
4.8500333 2.2791514 -2.3859172 4 0.11335716 0.049938247 0.99229842 4.0789415e-05
4.866313 2.2702343 -2.3907981 4 0.11334809 0.049630776 0.99231493 4.6539826e-05
4.861814 2.2495656 -2.3851037 4 0.11344351 0.049272072 0.99232191 5.0242954e-05
4.8730583 2.2382665 -2.3875442 4 0.1135197 0.04891219 0.99233103 5.6698107e-05
4.8759642 2.2231343 -2.3859172 4 0.11349432 0.048747942 0.99234205 5.4092932e-05
4.8804898 2.2087548 -2.3851037 4 0.11355057 0.048616756 0.992342 5.6388213e-05
4.8916388 2.1973641 -2.3875442 4 0.11353637 0.048527889 0.99234796 5.696974e-05
4.8935103 2.1797564 -2.3851037 4 0.1135614 0.048343435 0.99235409 5.7709429e-05
4.909605 2.1705139 -2.3899846 4 0.11354527 0.048186995 0.99236351 5.8399153e-05
4.9089541 2.1538594 -2.3867309 4 0.11360555 0.048035245 0.99236399 5.8555721e-05
4.9123454 2.1369703 -2.3851037 4 0.113625 0.047857627 0.99237043 5.3894008e-05
4.9263091 2.1277254 -2.3891711 4 0.11367012 0.047681335 0.99237365 5.4898621e-05
4.9275632 2.1109395 -2.3867309 4 0.11372812 0.047498703 0.99237579 5.3964526e-05
4.938849 2.0984542 -2.3891711 4 0.11377068 0.047314983 0.99237972 5.483393e-05
4.9454179 2.0829265 -2.3891711 4 0.11383554 0.047061652 0.99238431 5.3467949e-05
4.9424253 2.0664492 -2.3851037 4 0.11383959 0.046920046 0.99239057 5.5245342e-05
4.950222 2.0524762 -2.3859172 4 0.11392199 0.046686579 0.99239212 5.3515683e-05
4.9508657 2.0365579 -2.3834767 4 0.11399563 0.046456285 0.99239451 5.609775e-05
4.9599166 2.0241063 -2.3851037 4 0.11406838 0.04621445 0.99239737 5.4367356e-05
4.9675946 2.0100648 -2.3859172 4 0.11409938 0.045948308 0.99240619 5.3280026e-05
4.9721889 1.9937698 -2.3851037 4 0.11411481 0.045640312 0.99241865 5.2479481e-05
4.979435 1.9805505 -2.3859172 4 0.11418393 0.04530713 0.99242592 5.0089202e-05
4.978148 1.9639564 -2.3826632 3 0.11421913 0.045122672 0.99243027 5.6458342e-05
4.989398 1.950304 -2.3851037 4 0.11436195 0.044543996 0.99243999 6.18419e-05
4.9978933 1.9385574 -2.3867309 4 0.11451712 0.044289298 0.99243355 6.1455838e-05
4.9950967 1.92044 -2.3826632 3 0.11447784 0.043964665 0.9924525 5.8632155e-05
4.9973578 1.9043105 -2.3810363 3 0.11459744 0.043599661 0.99245483 6.3572421e-05
5.002656 1.8903487 -2.3810363 3 0.11461004 0.043172903 0.99247199 6.8314715e-05
5.0096269 1.8770108 -2.38185 3 0.11474536 0.042751547 0.99247456 6.7792222e-05
5.0189242 1.8625356 -2.3834767 3 0.11493154 0.042301483 0.99247229 7.2827199e-05
5.0169244 1.8468657 -2.380223 3 0.11499666 0.041882575 0.9924826 7.3279036e-05
5.0292482 1.8344752 -2.3834767 4 0.11511835 0.041416906 0.99248803 7.3931558e-05
5.0298314 1.816805 -2.3810363 3 0.11508147 0.041177068 0.99250227 8.0621234e-05
5.0380101 1.8048638 -2.3826632 3 0.11529113 0.040605009 0.9925015 8.0553989e-05
5.0413094 1.7901753 -2.38185 3 0.11544103 0.040016856 0.99250793 8.5368549e-05
5.0331197 1.7694793 -2.3753421 3 0.11555654 0.039480198 0.99251604 8.6577675e-05
5.0432162 1.7572241 -2.3777826 3 0.11555376 0.039175447 0.99252838 8.6886983e-05
5.0469861 1.7407721 -2.3769691 3 0.11559233 0.038282778 0.99255878 8.7073175e-05
5.0549836 1.7287363 -2.3785958 3 0.11586858 0.0378033 0.99254489 9.7799828e-05
5.0615215 1.7152008 -2.3794096 2 0.11596659 0.037027892 0.99256265 9.9263976e-05
5.0668845 1.6992922 -2.3794096 3 0.11613838 0.036352966 0.99256754 0.00010648348
5.0765181 1.6877489 -2.38185 2 0.11632553 0.035568438 0.99257404 0.00011288113
5.0745606 1.6703949 -2.3785958 2 0.11632802 0.035230353 0.99258578 0.00011307127
5.0902076 1.6578379 -2.3834767 2 0.11686873 0.034048617 0.99256355 0.00012541308
5.0896001 1.6419349 -2.3810363 2 0.11696563 0.033279814 0.99257821 0.00012863542
5.0924249 1.6271603 -2.380223 2 0.11693875 0.032813709 0.99259686 0.00013270679
5.1111665 1.6164522 -2.3867309 2 0.11739201 0.031479653 0.99258661 0.00014619426
5.1104307 1.600533 -2.3842905 1 0.1173205 0.031035434 0.99260902 0.0001464317
5.1241593 1.5871742 -2.3883576 1 0.11798837 0.029750615 0.99256915 0.00014812025
5.1250777 1.5717881 -2.3867309 2 0.1178987 0.029239409 0.99259502 0.00015050516
5.1329441 1.5585301 -2.3883576 1 0.11782847 0.02868562 0.99261963 0.00015322499
5.1405063 1.5461402 -2.3899846 1 0.11867259 0.028112207 0.99253541 0.00016654687
5.1456046 1.5290862 -2.3899846 1 0.11867264 0.026652094 0.99257571 0.00017819797
5.1548495 1.5171534 -2.3924251 1 0.1191043 0.025223922 0.99256134 0.00019310313
5.1488018 1.4987913 -2.3875442 1 0.11906305 0.024142412 0.99259311 0.00019138098
5.1637611 1.4865391 -2.3924251 1 0.11940232 0.023755424 0.9925617 0.00019025969
5.1731644 1.4736134 -2.3948655 1 0.11930975 0.023193726 0.9925862 0.00019346953
5.1772585 1.4591647 -2.3948655 1 0.12027988 0.021509334 0.99250692 0.0001969422
5.1745253 1.441834 -2.3916116 1 0.12011513 0.020893835 0.99254006 0.0001951895
5.192873 1.4303545 -2.3981194 1 0.11997214 0.020222995 0.99257129 0.00019381399
5.197094 1.4149415 -2.3981194 1 0.11982708 0.019535964 0.99260253 0.00019723167
5.1974955 1.3994739 -2.3964925 1 0.11965344 0.018833635 0.9926371 0.00020047859
5.2033911 1.3845146 -2.3973057 1 0.11949839 0.018094705 0.99266952 0.00019711039
5.205709 1.3686061 -2.3964925 1 0.11928773 0.01730757 0.99270892 0.00018959111
5.2095103 1.3540647 -2.3964925 1 0.11906224 0.016545545 0.99274898 0.00018621617
5.2415853 1.3467851 -2.409508 1 0.11912651 0.016287116 0.99274546 0.00018967436
5.2493324 1.3312109 -2.411135 1 0.11895821 0.01544439 0.99277914 0.00018998062
5.2618904 1.3187685 -2.4152024 1 0.11867464 0.014645948 0.99282521 0.00019134651
