# .PCD v0.7 - Point Cloud Data file format
VERSION 0.7
FIELDS x y z intensity normal_x normal_y normal_z curvature
SIZE 4 4 4 4 4 4 4 4
TYPE F F F F F F F F
COUNT 1 1 1 1 1 1 1 1
WIDTH 496
HEIGHT 1
VIEWPOINT 0 0 0 1 0 0 0
POINTS 496
DATA ascii
-2.5476727 -3.5836003 -1.3720112 63 0.080463283 0.059901267 0.99495602 0.070820473
-2.5633628 -3.5817888 -1.3743942 56 0.078390524 0.060051408 0.99511248 0.071321338
-2.5639379 -3.5602238 -1.3690324 60 0.078871429 0.066445105 0.99466795 0.070072033
-2.5900466 -3.5766945 -1.3779687 63 0.070190899 0.061647158 0.99562687 0.07198593
-2.6017709 -3.5705371 -1.3785644 63 0.070399068 0.059758984 0.9957273 0.068221599
-2.6060884 -3.5555577 -1.3755856 67 0.07026796 0.067600474 0.99523497 0.068290159
-2.6092103 -3.5390465 -1.3720112 60 0.070714481 0.068372637 0.99515057 0.066644698
-2.6100745 -3.5170338 -1.3666494 56 0.068293028 0.078208901 0.99459511 0.068389215
-2.6164596 -3.5051413 -1.3648622 49 0.069173753 0.075850084 0.99471688 0.064849548
-2.6262379 -3.4978209 -1.3648622 49 0.066410422 0.07975433 0.99459988 0.064720795
-2.6343031 -3.4869664 -1.3636706 56 0.064052008 0.08418721 0.99438924 0.064219408
-2.6423273 -3.4760952 -1.3624792 60 0.064082384 0.084992357 0.99431878 0.062245622
-2.649704 -3.4656699 -1.3612876 63 0.064020656 0.088458955 0.9940204 0.060270891
-2.654155 -3.4502265 -1.358309 63 0.063110001 0.089599758 0.99397647 0.058994204
-2.6620433 -3.4393165 -1.3571174 67 0.063142344 0.091923468 0.99376208 0.057887129
-2.6698661 -3.4308286 -1.3565217 67 0.062616296 0.089982212 0.99397302 0.056145974
-2.681808 -3.4239273 -1.3571174 67 0.059533507 0.093788169 0.99381059 0.055500425
-2.6895907 -3.4129562 -1.3559259 70 0.058108889 0.095327877 0.99374843 0.053651329
-2.6991112 -3.405432 -1.3559259 56 0.055574521 0.096498057 0.99378043 0.053288873
-2.7092035 -3.3974085 -1.3559259 46 0.055537578 0.099234372 0.99351299 0.052898306
-2.7198753 -3.3913193 -1.3565217 39 0.054310001 0.098204605 0.99368322 0.050857123
-2.723321 -3.3738439 -1.3529472 46 0.055739563 0.098112762 0.99361312 0.048918702
-2.7351656 -3.3716273 -1.3547344 60 0.054009855 0.10030858 0.99348933 0.048582606
-2.7384992 -3.3541451 -1.3511599 49 0.053505443 0.10474862 0.99305838 0.047829978
-2.7478549 -3.3464847 -1.3511599 49 0.052926708 0.10854582 0.9926815 0.047479928
-2.7547581 -3.3358531 -1.3499684 43 0.053258166 0.11159565 0.99232554 0.045834426
-2.7554617 -3.3154368 -1.3452024 56 0.056064136 0.11336854 0.99197 0.04409004
-2.7610362 -3.3033345 -1.3434151 56 0.054848075 0.11380199 0.9919883 0.043563381
-2.7702503 -3.2956111 -1.3434151 46 0.052562438 0.11558486 0.99190599 0.042925254
-2.7757442 -3.2834885 -1.341628 49 0.052697204 0.11409798 0.99207085 0.04140285
-2.7872841 -3.2762053 -1.3422236 39 0.052442156 0.11161567 0.99236673 0.039626982
-2.7950788 -3.2645328 -1.3410323 43 0.053284418 0.10979984 0.99252439 0.037910312
-2.7993109 -3.2533524 -1.339245 53 0.053511214 0.11097129 0.99238193 0.03748478
-2.8057694 -3.240211 -1.3374577 46 0.055042256 0.10774525 0.99265373 0.035541866
-2.8129888 -3.231415 -1.336862 46 0.055532519 0.10573386 0.99284267 0.034823872
-2.8225644 -3.2230542 -1.336862 36 0.057811972 0.10283252 0.9930172 0.033115204
-2.830852 -3.2132332 -1.3362662 39 0.058584467 0.10259683 0.99299639 0.031530265
-2.8358674 -3.1986089 -1.3338832 39 0.060905389 0.098490842 0.99327248 0.02991133
-2.8435183 -3.1892521 -1.3332875 43 0.064037181 0.095297582 0.99338692 0.028050404
-2.8473136 -3.1756141 -1.3309045 43 0.066839233 0.092995517 0.99342048 0.026350023
-2.8605604 -3.1714041 -1.3326917 39 0.068507582 0.089016192 0.99367142 0.024624769
-2.8701358 -3.1653194 -1.3332875 26 0.070272163 0.086476892 0.99377239 0.022988778
-2.8787785 -3.1548762 -1.3326917 18 0.072607964 0.084395148 0.99378341 0.021341898
-2.8790891 -3.1364753 -1.3285214 16 0.076298237 0.079217121 0.9939332 0.019547056
-2.8898804 -3.1317332 -1.329713 21 0.077992834 0.075711243 0.99407494 0.018571775
-2.8921216 -3.116653 -1.3267342 15 0.080369942 0.071746215 0.99417955 0.017388491
-2.9037445 -3.1084409 -1.32733 14 0.083197854 0.067124434 0.99426979 0.015524433
-2.9066441 -3.0952616 -1.324947 13 0.085156821 0.064588949 0.99427187 0.014784564
-2.9131923 -3.0838482 -1.3237555 14 0.087641507 0.060391363 0.99431986 0.013611758
-2.9183838 -3.0710392 -1.3219682 15 0.089538343 0.05754599 0.9943195 0.012673888
-2.9250958 -3.0620077 -1.3213725 14 0.092156962 0.054749571 0.99423814 0.011526795
-2.9341681 -3.0533152 -1.3213725 15 0.094178818 0.05223757 0.99418384 0.010848363
-2.9405603 -3.0418499 -1.3201809 16 0.096965387 0.047568627 0.9941504 0.0096545992
-2.9477131 -3.0322578 -1.3195852 17 0.099102966 0.045750335 0.99402487 0.0089586722
-2.9558887 -3.0216177 -1.3189894 16 0.10085081 0.041955538 0.99401653 0.0082644001
-2.9589598 -3.0079074 -1.3166064 14 0.10408613 0.038538184 0.99382144 0.0074387346
-2.9686909 -3.0009897 -1.3172022 15 0.10664389 0.034706172 0.99369138 0.0066379989
-2.9754097 -2.9889429 -1.3160107 14 0.10878521 0.031738389 0.99355847 0.0058998307
-2.9796927 -2.9765739 -1.3142234 13 0.11118703 0.027937841 0.99340671 0.0051174061
-2.9825757 -2.9628594 -1.3118405 12 0.11340255 0.024739869 0.99324107 0.0044855075
-2.9913538 -2.9539967 -1.3118405 13 0.11543658 0.02207635 0.99306953 0.0040069041
-3.0001044 -2.9451089 -1.3118405 13 0.118273 0.018282518 0.99281275 0.0032929473
-3.0009742 -2.9305754 -1.3088616 13 0.12025105 0.015653858 0.99262011 0.0028155877
-3.0087969 -2.9198024 -1.3082659 12 0.12236933 0.012799702 0.99240208 0.0023478039
-3.0123096 -2.907938 -1.3064787 13 0.12404579 0.011068936 0.99221474 0.0020937196
-3.0228078 -2.8997815 -1.3070744 14 0.12526037 0.009349755 0.99207985 0.001865115
-3.0272539 -2.8868473 -1.3052872 12 0.12740493 0.0072661024 0.99182415 0.001510838
-3.0334153 -2.8775985 -1.3046914 12 0.12816457 0.0064371186 0.991732 0.0013962896
-3.0424416 -2.8680537 -1.3046914 12 0.12904595 0.0054242881 0.99162376 0.0012762414
-3.0443685 -2.8548553 -1.3023084 12 0.12994254 0.0046239821 0.99151081 0.0011611802
-3.0486357 -2.8419054 -1.3005213 12 0.13081777 0.003487214 0.9914003 0.0010484479
-3.0598552 -2.8354425 -1.3017128 12 0.13165802 0.0025027962 0.991292 0.00094065466
-3.0640421 -2.8224704 -1.2999254 12 0.13250047 0.001399254 0.99118191 0.00082602934
-3.0733199 -2.8151925 -1.3005213 12 0.13323221 0.00056166196 0.99108469 0.00072471116
-3.0703654 -2.7957788 -1.2957553 17 0.13367175 -0.00041914717 0.99102557 0.00066813827
-3.078161 -2.7871933 -1.2957553 12 0.13455401 -0.0023792046 0.99090344 0.00048435855
-3.0859327 -2.7785864 -1.2957553 11 0.13520673 -0.0032759218 0.990812 0.00040065142
-3.0927403 -2.7681441 -1.2951595 12 0.13544492 -0.004289662 0.99077559 0.00036555241
-3.0957148 -2.75334 -1.2927765 11 0.1353692 -0.0046882369 0.99078411 0.00035330531
-3.1014829 -2.7439606 -1.2921808 11 0.13538305 -0.0047836415 0.99078178 0.00035264264
-3.1096108 -2.7347462 -1.2921808 11 0.13533716 -0.0048359432 0.9907878 0.00035012016
-3.1157987 -2.7247951 -1.2915851 11 0.13527448 -0.0053374842 0.99079376 0.00032752048
-3.1229017 -2.7137411 -1.2909892 11 0.13506974 -0.0058721732 0.99081868 0.00031741176
-3.1290231 -2.7037611 -1.2903935 11 0.13482879 -0.0068843919 0.99084496 0.00027937643
-3.1355836 -2.6932213 -1.2897978 11 0.13467304 -0.0080422694 0.99085742 0.00022187148
-3.1401889 -2.6819746 -1.2886063 12 0.134509 -0.0089279003 0.99087214 0.00017161838
-3.1491213 -2.6744304 -1.289202 12 0.13445589 -0.0089643002 0.99087894 0.00017536069
-3.1531301 -2.6608307 -1.2874147 11 0.13455166 -0.0093245199 0.99086273 0.0001654667
-3.15716 -2.6501124 -1.2862233 12 0.13464966 -0.01015212 0.99084127 0.00013690752
-3.1654708 -2.6401799 -1.2862233 11 0.13475722 -0.01061713 0.99082178 0.00012238593
-3.1684227 -2.6276734 -1.284436 12 0.13484095 -0.011511403 0.99080032 0.00010883737
-3.1732583 -2.6158323 -1.2832445 11 0.13493119 -0.013763246 0.99075937 3.7773312e-05
-3.1786191 -2.6063063 -1.2826487 11 0.13494757 -0.013985997 0.99075401 3.6551857e-05
-3.1793911 -2.590277 -1.2796699 11 0.13502195 -0.014404057 0.99073792 2.6096503e-05
-3.1880953 -2.5825906 -1.2802658 11 0.13505052 -0.014635159 0.99073064 2.1189684e-05
-3.194257 -2.5719225 -1.2796699 12 0.13517302 -0.01507555 0.99070728 1.4425503e-05
-3.1994894 -2.5623572 -1.2790742 12 0.13520837 -0.015210306 0.99070042 1.2572667e-05
-3.2025959 -2.5492864 -1.277287 10 0.13521901 -0.015345771 0.99069691 1.1570503e-05
-3.210146 -2.5397727 -1.277287 11 0.13525707 -0.015484538 0.99068958 1.1560959e-05
-3.2146664 -2.5278766 -1.2760955 11 0.13524432 -0.015527933 0.99069059 1.358441e-05
-3.2172003 -2.5153623 -1.2743083 11 0.13524219 -0.015579017 0.99069005 1.1782929e-05
-3.2281029 -2.5075843 -1.2754997 10 0.13532507 -0.015588855 0.99067861 1.2595479e-05
-3.2290483 -2.4938924 -1.2731167 12 0.13529132 -0.015703108 0.99068141 1.4161275e-05
-3.2329712 -2.4825399 -1.2719252 11 0.13528593 -0.015763007 0.99068123 1.3332145e-05
-3.2403226 -2.4729369 -1.2719252 11 0.13531709 -0.015781913 0.99067664 1.2710242e-05
-3.247216 -2.4638784 -1.2719252 11 0.13534808 -0.015840521 0.99067146 1.3320559e-05
-3.2529879 -2.4530833 -1.2713295 11 0.13537644 -0.015886046 0.99066687 1.144067e-05
-3.2510855 -2.4365506 -1.2677549 11 0.13528904 -0.016016116 0.99067676 1.5304682e-05
-3.2609384 -2.4297442 -1.2689465 10 0.13538909 -0.016004574 0.99066323 1.4036566e-05
-3.2611532 -2.4166517 -1.2665635 10 0.13531728 -0.016055014 0.99067223 1.7744458e-05
-3.2702665 -2.4075263 -1.2671592 10 0.13539207 -0.016106959 0.99066114 1.7987484e-05
-3.2723548 -2.3950014 -1.2653719 10 0.13534343 -0.016122557 0.99066752 1.5994421e-05
-3.2748151 -2.3819127 -1.2635847 11 0.13513641 -0.016310817 0.99069273 1.9477167e-05
-3.2818675 -2.3721864 -1.2635847 11 0.13523042 -0.01630152 0.99068004 1.6850992e-05
-3.2900298 -2.3641262 -1.2641805 10 0.13537435 -0.016256573 0.99066114 1.4421564e-05
-3.2904038 -2.3504908 -1.2617974 11 0.13496076 -0.016496703 0.99071366 2.3219163e-05
-3.2989206 -2.3418226 -1.2623934 10 0.13525386 -0.016376244 0.99067563 1.9227216e-05
-3.3011744 -2.3287227 -1.2606061 11 0.1349081 -0.016570464 0.99071956 2.0010071e-05
-3.3065057 -2.3178213 -1.2600102 12 0.13488586 -0.016644252 0.99072134 2.1733638e-05
-3.3113985 -2.3074877 -1.2594144 11 0.1349089 -0.016643986 0.99071819 1.688926e-05
-3.3241074 -2.3025801 -1.2617974 12 0.1354114 -0.016401328 0.99065369 1.0681536e-05
-3.3203149 -2.2845502 -1.2576272 11 0.13482301 -0.016724855 0.9907285 1.2913802e-05
-3.3251054 -2.2741919 -1.2570316 10 0.13486603 -0.016732521 0.99072254 1.1774665e-05
-3.3282855 -2.2627506 -1.2558399 12 0.13481413 -0.016721806 0.99072981 1.0773184e-05
-3.3337955 -2.2512147 -1.2552443 12 0.13481213 -0.016724255 0.99072999 8.1381404e-06
-3.3365078 -2.24035 -1.2540528 12 0.13477792 -0.01671082 0.99073493 8.4462636e-06
-3.3447285 -2.2315011 -1.2546486 11 0.13496085 -0.01663905 0.99071121 5.9828171e-06
-3.3453567 -2.2167628 -1.2522655 11 0.13478714 -0.016673582 0.99073428 8.94606e-06
-3.3523574 -2.2096331 -1.2528613 11 0.13490042 -0.016660247 0.99071902 8.0030168e-06
-3.3544905 -2.1959534 -1.2510741 10 0.13481385 -0.0166336 0.99073136 9.5754194e-06
-3.3561893 -2.1828682 -1.2492868 11 0.13472728 -0.016658068 0.99074262 8.7031422e-06
-3.3618927 -2.1740742 -1.2492868 12 0.13484176 -0.01660244 0.99072808 5.5300879e-06
-3.3715413 -2.1661537 -1.2504783 11 0.13487124 -0.016546089 0.99072504 6.2159661e-06
-3.3718913 -2.1514435 -1.2480952 10 0.13481262 -0.016523015 0.99073333 6.6571611e-06
-3.375901 -2.1415849 -1.2474995 11 0.13474678 -0.016522117 0.99074227 5.0494345e-06
-3.377394 -2.1285057 -1.2457123 10 0.13466051 -0.016471196 0.9907549 4.4204489e-06
-3.3808274 -2.1158588 -1.2445207 11 0.1346224 -0.016448891 0.99076039 3.539684e-06
-3.3908496 -2.1106188 -1.246308 11 0.1347352 -0.016395316 0.99074602 0
-3.392592 -2.0969434 -1.2445207 10 0.13468698 -0.016348707 0.99075335 2.1935803e-06
-3.3922906 -2.0828731 -1.2421377 11 0.13453799 -0.01633627 0.99077374 5.8310088e-06
-3.400991 -2.0759749 -1.2433293 11 0.13464181 -0.016274666 0.99076068 5.0424069e-06
-3.4042311 -2.0632999 -1.2421377 10 0.1346014 -0.016210508 0.99076724 4.3351974e-06
-3.4103377 -2.0531907 -1.2421377 10 0.13460314 -0.016184347 0.99076736 3.9268539e-06
-3.4107866 -2.0413139 -1.2403505 11 0.13451257 -0.016103009 0.99078107 3.8947878e-06
-3.4164739 -2.031781 -1.2403505 10 0.13448885 -0.016075335 0.9907847 5.4486841e-06
-3.417908 -2.0181255 -1.2385632 11 0.13442819 -0.016031124 0.99079365 7.3558472e-06
-3.4235301 -2.0085735 -1.2385632 10 0.13441481 -0.015931319 0.9907971 6.1115934e-06
-3.4278252 -1.9974456 -1.2379675 9 0.13440983 -0.015884081 0.99079853 8.2222332e-06
-3.4320843 -1.9863096 -1.2373718 8 0.13441791 -0.015795004 0.99079877 6.786112e-06
-3.4306529 -1.9735104 -1.2349888 10 0.13431828 -0.015754983 0.99081296 1.041831e-05
-3.4364934 -1.9633225 -1.2349888 9 0.13432889 -0.015718354 0.99081212 1.2426144e-05
-3.4406428 -1.952175 -1.234393 10 0.13432002 -0.015613506 0.99081498 1.0074117e-05
-3.4410915 -1.9397466 -1.2326057 10 0.13427246 -0.015574484 0.99082208 7.1012182e-06
-3.4505002 -1.9307919 -1.2337973 9 0.13432987 -0.015529466 0.99081492 5.6254107e-06
-3.4492042 -1.9174379 -1.2314143 10 0.13427621 -0.015431499 0.99082381 5.3377962e-06
-3.4545453 -1.9077983 -1.2314143 9 0.13431232 -0.015352129 0.99082017 7.4680538e-06
-3.4571731 -1.8951012 -1.2302227 10 0.13431911 -0.015304673 0.99081993 1.0621038e-05
-3.465476 -1.8878703 -1.2314143 10 0.13433394 -0.015189237 0.99081969 1.307469e-05
-3.4677036 -1.8757628 -1.2302227 10 0.13429601 -0.015141034 0.99082559 1.6452135e-05
-3.473254 -1.8654654 -1.2302227 10 0.13436621 -0.015046102 0.99081755 1.8874618e-05
-3.4717119 -1.8521641 -1.2278398 10 0.13428468 -0.014957142 0.99082989 2.1345633e-05
-3.4768708 -1.8424618 -1.2278398 10 0.13428834 -0.014825417 0.99083138 2.3601686e-05
-3.4792619 -1.8297532 -1.2266482 10 0.13427074 -0.014694699 0.99083567 2.4537672e-05
-3.4857328 -1.8215222 -1.227244 10 0.13429268 -0.014626647 0.99083382 2.6060425e-05
-3.4877324 -1.8094132 -1.2260525 10 0.13427904 -0.014487554 0.99083769 2.6379568e-05
-3.4913881 -1.7981834 -1.2254568 10 0.13428862 -0.014383714 0.99083787 2.6473175e-05
-3.4912968 -1.7858181 -1.2236695 10 0.13424703 -0.01423728 0.99084562 2.734505e-05
-3.4965804 -1.7754512 -1.2236695 10 0.13422711 -0.014125739 0.99085003 2.9388622e-05
-3.5018327 -1.7650685 -1.2236695 9 0.13422184 -0.014020798 0.99085212 2.8381812e-05
-3.5033336 -1.7535733 -1.222478 10 0.134243 -0.013907664 0.99085081 2.7614809e-05
-3.5068111 -1.7423221 -1.2218823 10 0.134243 -0.013712029 0.99085355 2.7050417e-05
-3.5102532 -1.731065 -1.2212865 11 0.13423654 -0.013573946 0.99085629 2.7971275e-05
-3.5113437 -1.7201899 -1.220095 10 0.13419861 -0.013403984 0.9908638 2.9023824e-05
-3.5144167 -1.7095423 -1.2194993 8 0.13420568 -0.01323713 0.99086505 2.8412938e-05
-3.5197699 -1.6984937 -1.2194993 9 0.13419859 -0.013063234 0.99086827 2.717447e-05
-3.526221 -1.6894827 -1.220095 9 0.1342078 -0.012904305 0.99086916 2.7989461e-05
-3.5277698 -1.6773728 -1.2189034 10 0.13416265 -0.01271821 0.99087775 2.6692907e-05
-3.5292778 -1.6652696 -1.217712 10 0.13412316 -0.012549241 0.9908852 2.7016387e-05
-3.5321853 -1.6545974 -1.2171162 10 0.1341106 -0.012330748 0.99088967 2.7215126e-05
-3.5350609 -1.6439219 -1.2165205 11 0.13408947 -0.012113309 0.99089521 2.8169419e-05
-3.5364563 -1.631826 -1.2153291 11 0.1340578 -0.011892893 0.99090225 2.6145615e-05
-3.5430183 -1.6221205 -1.2159249 11 0.13405098 -0.011718228 0.99090511 2.6538726e-05
-3.5426006 -1.6092328 -1.2141376 10 0.13403933 -0.01151965 0.9909091 2.458302e-05
-3.5488212 -1.6001182 -1.2147332 11 0.13403241 -0.011321586 0.99091226 2.7702139e-05
-3.5515332 -1.5894217 -1.2141376 10 0.133983 -0.011113184 0.99092132 2.8867176e-05
-3.5489788 -1.5763974 -1.2117546 10 0.13393034 -0.010852443 0.99093133 2.8394963e-05
-3.5539134 -1.5652409 -1.2117546 8 0.13388215 -0.01058539 0.99094069 3.0039364e-05
-3.5565207 -1.5545454 -1.2111588 10 0.13385876 -0.010311914 0.99094677 2.9804305e-05
-3.5596352 -1.5426053 -1.2105631 10 0.13379765 -0.010025429 0.99095798 2.9795459e-05
-3.5636618 -1.5332806 -1.2105631 10 0.13378133 -0.0097242128 0.99096322 2.7271606e-05
-3.5717077 -1.5241989 -1.2117546 9 0.1338141 -0.0095211035 0.99096072 2.8021463e-05
-3.5712032 -1.5107397 -1.2099673 9 0.13372605 -0.009192979 0.99097574 3.0690459e-05
-3.5748837 -1.5020096 -1.2099673 10 0.13366099 -0.0088889785 0.99098724 3.2494532e-05
-3.5760601 -1.4893023 -1.2087758 10 0.13361333 -0.0085903499 0.9909963 3.2913362e-05
-3.5751688 -1.4764997 -1.2069885 9 0.13354664 -0.008244711 0.99100828 3.3117645e-05
-3.577256 -1.4664104 -1.2063928 9 0.13351411 -0.0080148457 0.99101454 3.5810554e-05
-3.5851281 -1.4572285 -1.2075844 11 0.13344607 -0.0076714703 0.99102634 3.8195994e-05
-3.5879178 -1.4452438 -1.2069885 10 0.13340132 -0.0073210262 0.9910351 4.1072733e-05
-3.5863705 -1.4337202 -1.2052013 10 0.1333234 -0.0070454585 0.9910475 4.334778e-05
-3.5941582 -1.4244807 -1.2063928 10 0.13335034 -0.0067411372 0.99104607 4.3870183e-05
-3.5983696 -1.4138092 -1.2063928 10 0.13326338 -0.00639262 0.99106008 4.3383261e-05
-3.6002796 -1.4036909 -1.2057971 9 0.13316575 -0.0060450579 0.99107534 4.9535403e-05
-3.6008666 -1.3916258 -1.2046056 10 0.13305663 -0.0057199062 0.99109191 5.4619795e-05
-3.6070039 -1.380989 -1.2052013 10 0.1330274 -0.0053598597 0.99109787 5.5185636e-05
-3.6052527 -1.3695068 -1.203414 10 0.13295017 -0.0049205548 0.9911105 5.9688369e-05
-3.6108501 -1.3601066 -1.2040098 10 0.13290815 -0.0046722749 0.9911173 5.9034097e-05
-3.6153405 -1.3481249 -1.2040098 10 0.13285264 -0.0041156504 0.99112725 6.52034e-05
-3.6188571 -1.3386559 -1.2040098 11 0.13275413 -0.0038142493 0.99114162 6.5937369e-05
-3.6154115 -1.3259153 -1.2016269 11 0.13270043 -0.0033882582 0.99115044 6.6261564e-05
-3.6177642 -1.3138994 -1.201031 10 0.13258041 -0.0029827077 0.99116778 7.1483177e-05
-3.6229882 -1.3050705 -1.2016269 10 0.13253276 -0.002574739 0.99117523 7.1755218e-05
-3.6234736 -1.2923992 -1.2004353 11 0.13241392 -0.0021048749 0.99119228 7.5811695e-05
-3.6254923 -1.2810072 -1.1998396 11 0.1323479 -0.0016709776 0.99120194 7.7365825e-05
-3.6270318 -1.2708786 -1.1992438 10 0.13225274 -0.0012467263 0.99121529 7.8817829e-05
-3.6289825 -1.2594861 -1.1986481 10 0.13214177 -0.00077238976 0.99123055 8.1992242e-05
-3.6327035 -1.2487129 -1.1986481 10 0.13204394 -0.00038525808 0.99124378 8.1795813e-05
-3.637984 -1.2391789 -1.1992438 10 0.13196291 3.2389114e-05 0.99125469 8.4012798e-05
-3.6382406 -1.2265247 -1.1980523 10 0.13183585 0.00058367086 0.99127138 8.781768e-05
-3.6398406 -1.2157549 -1.1974565 9 0.13172409 0.0010389689 0.99128586 9.0922607e-05
-3.6450343 -1.2061855 -1.1980523 7 0.13162293 0.0015280478 0.99129868 9.2937604e-05
-3.6483879 -1.1960025 -1.1980523 6 0.13152318 0.0019546784 0.99131113 9.7188211e-05
-3.6537364 -1.1857622 -1.1986481 8 0.13137785 0.0024144733 0.99132937 9.9054356e-05
-3.6497631 -1.1732172 -1.1962651 10 0.1312945 0.0029571615 0.99133897 0.00010129895
-3.6479728 -1.1600087 -1.1944778 9 0.13119914 0.0035733341 0.99134958 0.00010192043
-3.6491761 -1.149881 -1.1938821 9 0.13107108 0.0039356789 0.99136513 0.00010254671
-3.6525719 -1.1390486 -1.1938821 9 0.13098408 0.0045329756 0.99137414 0.00010200442
-3.6577597 -1.1287698 -1.1944778 9 0.13087095 0.0050285314 0.99138665 0.00010324564
-3.6592667 -1.1173542 -1.1938821 9 0.13072391 0.0055112033 0.99140352 0.00010657977
-3.6623728 -1.107131 -1.1938821 9 0.1307101 0.0059512253 0.9914028 0.00010484895
-3.6583245 -1.094072 -1.191499 9 0.13055041 0.0065095099 0.99142033 0.00010916297
-3.6703296 -1.087201 -1.1944778 10 0.13048172 0.0069866078 0.99142605 0.00010978082
-3.6682298 -1.0740561 -1.1926905 9 0.13040292 0.0074242959 0.99143326 0.0001105253
-3.6732345 -1.0636984 -1.1932863 10 0.13026783 0.0080407206 0.99144626 0.00011504757
-3.6763742 -1.0527958 -1.1932863 10 0.1301645 0.0085560167 0.9914555 0.00011537123
-3.6736076 -1.0416037 -1.191499 9 0.1300963 0.0090053389 0.99146044 0.00011760662
-3.6748435 -1.0301846 -1.1909033 9 0.13001361 0.0095311869 0.99146634 0.00011843537
-3.6832254 -1.0214491 -1.1926905 10 0.129832 0.010116803 0.9914844 0.00011959751
-3.6770334 -1.0079921 -1.1897118 9 0.12979601 0.010678348 0.99148321 0.00012196711
-3.6800077 -0.99707836 -1.1897118 9 0.12964168 0.011174458 0.99149799 0.00012357539
-3.6903272 -0.98813039 -1.1920948 10 0.12953456 0.011705977 0.99150586 0.00012197597
-3.6801529 -0.97440028 -1.1879245 9 0.1294695 0.012322251 0.99150681 0.00012311536
-3.684875 -0.96395969 -1.1885203 9 0.1293871 0.012850158 0.99151093 0.0001207008
-3.689234 -0.95478833 -1.189116 9 0.12930569 0.013343317 0.99151498 0.00012236783
-3.6885159 -0.94224834 -1.1879245 9 0.1292226 0.013844814 0.99151891 0.00012459043
-3.6892819 -0.93147677 -1.1873288 9 0.12908363 0.014492516 0.99152786 0.00012773457
-3.6918685 -0.92117137 -1.1873288 9 0.12901571 0.014936072 0.99153 0.00013111344
-3.6947441 -0.90956831 -1.1873288 9 0.12887011 0.015467374 0.99154085 0.00013440142
-3.6954145 -0.8987956 -1.186733 9 0.12882677 0.016029224 0.99153763 0.00013484419
-3.7017782 -0.88871837 -1.1879245 9 0.12868707 0.016509764 0.99154782 0.00013772539
-3.7005301 -0.87749624 -1.186733 9 0.12854069 0.017164038 0.99155569 0.00013891148
-3.7028146 -0.8678059 -1.186733 9 0.12850638 0.017634319 0.99155194 0.00013913383
-3.7036622 -0.85573977 -1.1861373 9 0.12839262 0.01826852 0.99155509 0.00013996787
-3.7061849 -0.84474593 -1.1861373 9 0.12832457 0.018771099 0.99155462 0.00014145359
-3.7065215 -0.83462149 -1.1855416 9 0.12820216 0.019336486 0.99155957 0.00014450173
-3.7091253 -0.82297283 -1.1855416 9 0.12813264 0.020004256 0.99155527 0.00014423241
-3.7094021 -0.81285059 -1.1849458 9 0.12809744 0.020472532 0.99155027 0.0001454837
-3.7155297 -0.80264705 -1.1861373 9 0.12792613 0.021110652 0.99155897 0.00014792687
-3.7197621 -0.79201758 -1.186733 9 0.1277833 0.021620754 0.99156642 0.00014906139
-3.7164903 -0.77980095 -1.1849458 9 0.12769914 0.022310611 0.99156201 0.00015188336
-3.7186534 -0.76941931 -1.1849458 9 0.12755251 0.022853883 0.99156851 0.00015241138
-3.726532 -0.75952697 -1.186733 9 0.12744151 0.023392659 0.99157017 0.00015353919
-3.724895 -0.74836522 -1.1855416 8 0.12734459 0.023956317 0.99156916 0.00015392431
-3.7232246 -0.73721856 -1.18435 9 0.12727217 0.024493348 0.99156535 0.00015207985
-3.7311442 -0.72661269 -1.1861373 9 0.12710518 0.025217731 0.99156857 0.00015032389
-3.7350338 -0.71654999 -1.186733 10 0.12703098 0.025686642 0.99156606 0.00014940677
-3.7332685 -0.70540786 -1.1855416 9 0.12694728 0.026304681 0.99156064 0.00015039076
-3.7333465 -0.69463217 -1.1849458 9 0.12688057 0.02676354 0.99155688 0.00014972939
-3.7372692 -0.68389553 -1.1855416 9 0.12677647 0.027437052 0.99155182 0.00015090649
-3.7374032 -0.67246461 -1.1849458 9 0.12669052 0.027955163 0.9915483 0.00014905505
-3.7412617 -0.66170573 -1.1855416 9 0.12656321 0.028540706 0.99154788 0.00015088172
-3.7449756 -0.65158343 -1.1861373 9 0.12641956 0.029196458 0.99154705 0.00014902966
-3.7468927 -0.64046794 -1.1861373 9 0.12630042 0.029692259 0.99154758 0.0001467453
-3.7485566 -0.63065696 -1.1861373 9 0.12626852 0.030130304 0.99153835 0.00014575051
-3.752403 -0.61918807 -1.186733 9 0.12610494 0.030789301 0.991539 0.00014226808
-3.7541173 -0.60870767 -1.186733 9 0.12606871 0.031239701 0.99152952 0.00013777991
-3.7578971 -0.59720939 -1.1873288 8 0.12594123 0.031924669 0.99152386 0.00013781975
-3.7576635 -0.58641922 -1.186733 9 0.12586303 0.032462124 0.99151635 0.00013566989
-3.761174 -0.57621247 -1.1873288 8 0.12580867 0.032872144 0.99150974 0.00013347449
-3.7646561 -0.56599063 -1.1879245 9 0.12572232 0.033434249 0.99150187 0.00013146903
-3.7644303 -0.55454063 -1.1873288 9 0.12563148 0.033972986 0.99149513 0.00012851229
-3.7679484 -0.54364133 -1.1879245 9 0.12554625 0.034618564 0.99148363 0.00012635432
-3.7734187 -0.53233445 -1.189116 8 0.12541418 0.035036445 0.99148566 0.00012664328
-3.7728174 -0.52285033 -1.1885203 9 0.1253984 0.035434403 0.9914735 0.00012424904
-3.7763329 -0.51125193 -1.189116 9 0.12523307 0.036113016 0.99146986 0.00012250863
-3.779551 -0.50161469 -1.1897118 9 0.12507345 0.036593754 0.99147242 0.00012204898
-3.7791293 -0.49015251 -1.189116 9 0.12502109 0.037075385 0.9914611 0.00011925253
-3.7824612 -0.47917718 -1.1897118 9 0.12492661 0.03761043 0.99145287 0.00011870843
-3.7820528 -0.46705863 -1.189116 9 0.1248643 0.038115978 0.99144143 0.00011535349
-3.7870541 -0.45761344 -1.1903076 9 0.12474629 0.038572378 0.99143863 0.00011572623
-3.7827065 -0.44570455 -1.1885203 9 0.12474164 0.039064854 0.99141997 0.00011640821
-3.7896268 -0.43579361 -1.1903076 9 0.12457509 0.039621834 0.99141878 0.00011472763
-3.7890797 -0.42367455 -1.1897118 9 0.12448394 0.04013462 0.9914096 0.00011272108
-3.7958694 -0.41437548 -1.191499 9 0.12438297 0.040589835 0.99140376 0.00011316697
-3.7933557 -0.40204489 -1.1903076 9 0.12433757 0.04108201 0.99138916 0.00010903132
-3.798193 -0.39250559 -1.191499 9 0.1242754 0.04155279 0.99137735 0.00010735548
-3.7993407 -0.3812342 -1.191499 9 0.1242022 0.042017817 0.99136692 0.00010548322
-3.8003907 -0.37062269 -1.191499 9 0.12414644 0.042428289 0.99135637 0.00010773836
-3.8053379 -0.35904011 -1.1926905 9 0.12406766 0.042979203 0.99134254 0.00010724746
-3.8025231 -0.34806481 -1.191499 9 0.12396269 0.043472379 0.99133414 0.00010324994
-3.8092444 -0.33728591 -1.1932863 9 0.12386138 0.043858591 0.99132979 0.00010256957
-3.8139191 -0.32763872 -1.1944778 9 0.12381788 0.044169866 0.99132144 9.846699e-05
-3.8130269 -0.31549865 -1.1938821 9 0.12376548 0.044737402 0.99130249 9.6442556e-05
-3.8158493 -0.30433443 -1.1944778 9 0.12365503 0.045170452 0.99129665 9.3181123e-05
-3.8109732 -0.29323861 -1.1926905 9 0.12364988 0.045540433 0.99128044 9.218348e-05
-3.8137305 -0.28207144 -1.1932863 9 0.12358658 0.045953769 0.99126917 9.0535294e-05
-3.8164082 -0.27155569 -1.1938821 9 0.12351671 0.046371516 0.99125844 8.6630869e-05
-3.8248162 -0.26075017 -1.1962651 9 0.12344568 0.04681325 0.99124652 8.4033032e-05
-3.8254857 -0.25073567 -1.1962651 10 0.12343908 0.04719663 0.99122918 7.977194e-05
-3.8224432 -0.23847926 -1.1950735 8 0.12337996 0.047640473 0.99121535 7.7448829e-05
-3.8269062 -0.22803095 -1.1962651 9 0.12335152 0.04795127 0.9912039 7.2198884e-05
-3.8275659 -0.21667507 -1.1962651 9 0.12330433 0.048383776 0.9911887 6.6975183e-05
-3.8338394 -0.20696223 -1.1980523 9 0.1232647 0.048783738 0.99117404 6.3771477e-05
-3.8363771 -0.19501358 -1.1986481 10 0.12319305 0.049248446 0.99115998 6.0294595e-05
-3.8388138 -0.1843919 -1.1992438 10 0.12319411 0.049551528 0.99114466 5.9462585e-05
-3.8374066 -0.17358465 -1.1986481 9 0.12314093 0.049940627 0.99113178 5.4873763e-05
-3.8379047 -0.16219787 -1.1986481 9 0.12309407 0.05027771 0.99112058 5.432565e-05
-3.8440924 -0.15103452 -1.2004353 9 0.12309425 0.050576836 0.99110532 5.0542509e-05
-3.8444746 -0.14097081 -1.2004353 9 0.12303608 0.050865129 0.99109781 4.7548252e-05
-3.8410821 -0.12876424 -1.1992438 9 0.12297435 0.051143199 0.99109113 4.4539978e-05
-3.8490601 -0.11827264 -1.2016269 9 0.12293055 0.051451601 0.99108058 4.6845875e-05
-3.851284 -0.10757662 -1.2022226 9 0.12293646 0.051786527 0.99106246 3.9578477e-05
-3.851603 -0.095476761 -1.2022226 9 0.12288169 0.052038945 0.99105603 3.8547918e-05
-3.8575952 -0.084173135 -1.2040098 10 0.12282258 0.052381415 0.9910453 3.5411358e-05
-3.8578024 -0.074074306 -1.2040098 10 0.12274133 0.052614011 0.99104303 3.4935958e-05
-3.8599141 -0.062658422 -1.2046056 10 0.12270494 0.052915771 0.99103147 3.0355723e-05
-3.8543561 -0.051129367 -1.2028183 9 0.12267857 0.053110611 0.99102437 3.1067171e-05
-3.8583157 -0.039058782 -1.2040098 9 0.1226204 0.05340733 0.99101555 2.7884244e-05
-3.8584051 -0.028958224 -1.2040098 9 0.12260055 0.053661171 0.99100429 2.7606246e-05
-3.8603828 -0.017518429 -1.2046056 9 0.12256103 0.053834323 0.99099982 3.0071076e-05
-3.8680522 -0.0074262726 -1.2069885 9 0.12259606 0.054020189 0.99098539 2.6392294e-05
-3.8737841 0.0047318521 -1.2087758 10 0.1225534 0.054281067 0.99097645 2.451498e-05
-3.8680255 0.016201802 -1.2069885 10 0.12253167 0.054424677 0.99097121 2.5249714e-05
-3.871779 0.027705934 -1.2081801 10 0.12246482 0.054641593 0.99096751 2.4525678e-05
-3.8793228 0.038594101 -1.2105631 10 0.122481 0.054862034 0.99095339 2.0942483e-05
-3.8734727 0.049354348 -1.2087758 10 0.12243707 0.05500925 0.99095058 1.9240351e-05
-3.880945 0.060966194 -1.2111588 10 0.12241474 0.055220179 0.9909417 1.6759574e-05
-3.8788633 0.071091592 -1.2105631 10 0.12238781 0.055354353 0.99093753 1.6071723e-05
-3.8824387 0.083359197 -1.2117546 10 0.12240192 0.05551273 0.99092692 1.5330799e-05
-3.8840992 0.094247244 -1.2123502 10 0.12241738 0.055670552 0.99091607 1.5426192e-05
-3.8799853 0.10566652 -1.2111588 9 0.12238552 0.055780135 0.99091393 1.4275721e-05
-3.8835123 0.11593818 -1.2123502 10 0.12236733 0.055948883 0.9909066 1.4118742e-05
-3.8869228 0.12894249 -1.2135419 10 0.12239073 0.056040723 0.99089855 1.270417e-05
-3.8846636 0.13904998 -1.2129459 9 0.12235492 0.056149174 0.99089688 1.4597954e-05
-3.8861682 0.14997043 -1.2135419 10 0.12235761 0.056251638 0.99089068 1.4989204e-05
-3.8914008 0.16241749 -1.2153291 10 0.12237864 0.056339055 0.99088311 1.2412333e-05
-3.8909321 0.17328395 -1.2153291 10 0.12238675 0.056399766 0.9908787 1.4719476e-05
-3.8961539 0.18441892 -1.2171162 10 0.12241783 0.056495074 0.99086946 1.4856645e-05
-3.8955896 0.19597845 -1.2171162 10 0.12238665 0.056570075 0.99086899 1.362603e-05
-3.8931203 0.20675522 -1.2165205 10 0.1223697 0.056604717 0.9908691 1.3113748e-05
-3.8963027 0.21851856 -1.217712 10 0.12241514 0.056642406 0.9908613 1.2139768e-05
-3.8937311 0.22996579 -1.2171162 10 0.12240301 0.056691919 0.99085999 9.8613245e-06
-3.8968427 0.24175529 -1.2183077 10 0.12238669 0.056748971 0.99085873 1.1914437e-05
-3.900007 0.25220218 -1.2194993 10 0.12240821 0.056793131 0.99085355 9.7713828e-06
-3.893481 0.26406485 -1.217712 9 0.12236193 0.056820415 0.99085772 9.8561268e-06
-3.8927286 0.27493674 -1.217712 9 0.12237022 0.056846898 0.99085516 7.7651521e-06
-3.8938494 0.28594628 -1.2183077 9 0.12235623 0.056879334 0.99085504 9.6824706e-06
-3.9044058 0.29837137 -1.2218823 10 0.12241555 0.056940585 0.99084419 1.247098e-05
-3.8978477 0.30882123 -1.220095 10 0.12236852 0.056938984 0.99085009 1.1277378e-05
-3.9026227 0.32085362 -1.2218823 10 0.12239555 0.056967169 0.99084514 1.0380163e-05
-3.9016533 0.33243173 -1.2218823 10 0.12240927 0.056984801 0.9908424 1.0290106e-05
-3.9026115 0.34349355 -1.222478 10 0.12240005 0.056993894 0.990843 1.1160695e-05
-3.9015753 0.35507059 -1.222478 9 0.12239216 0.057018142 0.99084264 1.125302e-05
-3.9062073 0.36718151 -1.2242652 10 0.12244294 0.056981765 0.99083847 8.6427599e-06
-3.9070005 0.37895435 -1.2248609 10 0.12245148 0.057003565 0.99083614 7.4139202e-06
-3.9040954 0.38899258 -1.2242652 10 0.12238865 0.056989238 0.99084473 9.6287158e-06
-3.899056 0.40086448 -1.2230738 9 0.12235776 0.056965183 0.99084991 1.1880995e-05
-3.909313 0.41295475 -1.2266482 10 0.12241317 0.056975428 0.99084246 1.0913328e-05
-3.9099686 0.42475852 -1.227244 10 0.12240775 0.056977406 0.99084306 1.1365458e-05
-3.9067936 0.43614522 -1.2266482 10 0.12241638 0.056945387 0.99084383 1.0045841e-05
-3.901767 0.44661936 -1.2254568 9 0.12237145 0.056924436 0.99085057 1.0520121e-05
-3.9080894 0.45840332 -1.2278398 10 0.12242255 0.056892712 0.9908461 9.3940998e-06
-3.9104209 0.47113562 -1.2290313 10 0.12248956 0.056843277 0.99084061 9.3760136e-06
-3.9054682 0.48022258 -1.2278398 10 0.12244716 0.05678568 0.9908492 9.7815528e-06
-3.9115169 0.4934465 -1.2302227 10 0.12251041 0.056756858 0.990843 1.0297511e-05
-3.9176097 0.50602758 -1.2326057 10 0.12258094 0.056707345 0.99083716 1.0760814e-05
-3.9087002 0.51528341 -1.2302227 9 0.12250149 0.056707978 0.99084693 9.4566994e-06
-3.9127381 0.528328 -1.23201 10 0.12259305 0.056607854 0.99084133 8.3777359e-06
-3.9169214 0.540034 -1.2337973 10 0.12261363 0.056586098 0.99083996 1.130796e-05
-3.9135079 0.55070418 -1.2332015 10 0.12258957 0.056553826 0.99084479 9.6185277e-06
-3.9137461 0.56258428 -1.2337973 10 0.12259937 0.056519825 0.99084556 1.0886626e-05
-3.9120595 0.57419431 -1.2337973 10 0.12265816 0.056448441 0.9908424 1.062757e-05
-3.916208 0.58528101 -1.2355845 10 0.12264395 0.056426633 0.99084538 1.1013923e-05
-3.91435 0.59758049 -1.2355845 10 0.1226581 0.056404635 0.99084485 1.1910206e-05
-3.9145522 0.60880274 -1.2361802 10 0.12266737 0.056375638 0.99084532 1.3130866e-05
-3.918494 0.62062806 -1.2379675 10 0.12271001 0.056332607 0.99084246 1.436129e-05
-3.9166353 0.63225198 -1.2379675 10 0.1227312 0.056301977 0.99084163 1.471661e-05
-3.916626 0.64418018 -1.2385632 10 0.12274449 0.056263711 0.99084216 1.6826301e-05
-3.9185777 0.65574545 -1.2397548 10 0.12282991 0.056180764 0.99083632 1.3246995e-05
-3.9203794 0.66800988 -1.2409463 10 0.12286772 0.056137443 0.99083406 1.1276094e-05
-3.91838 0.67963916 -1.2409463 10 0.1228867 0.05607266 0.99083537 1.3851331e-05
-3.9182265 0.69159341 -1.241542 10 0.12292705 0.056044374 0.99083197 1.3109288e-05
-3.9162798 0.70253271 -1.241542 10 0.12294425 0.055973973 0.99083382 1.6975591e-05
-3.9179347 0.71483505 -1.2427336 10 0.12303179 0.055885926 0.99082786 1.7235889e-05
-3.9195504 0.7271533 -1.243925 10 0.1230862 0.055796269 0.99082625 1.6470491e-05
-3.9232624 0.73847103 -1.2457123 10 0.12320047 0.055666629 0.99081933 1.4437438e-05
-3.9173033 0.74939203 -1.2445207 10 0.12327005 0.055388339 0.99082625 2.1457083e-05
-3.9188108 0.76173949 -1.2457123 10 0.12358921 0.054692704 0.99082512 2.6915619e-05
-3.9184062 0.77373356 -1.246308 10 0.12382924 0.053910337 0.99083799 4.4028362e-05
-3.9181027 0.78504819 -1.2469038 10 0.12396956 0.053515393 0.99084187 5.0112936e-05
-3.9177663 0.79636616 -1.2474995 10 0.1241049 0.053145364 0.99084491 5.819157e-05
-3.9173968 0.80768925 -1.2480952 10 0.12411892 0.053088162 0.99084616 6.235193e-05
-3.9167092 0.82038385 -1.2486911 10 0.12418856 0.052837137 0.99085087 6.5676853e-05
-3.9162703 0.83171403 -1.2492868 10 0.1242713 0.052607376 0.99085271 6.8687834e-05
-3.9192369 0.84522092 -1.2510741 10 0.12434051 0.052369822 0.99085665 6.8777437e-05
-3.9152946 0.85438818 -1.2504783 10 0.12432593 0.052261278 0.99086422 7.2961913e-05
-3.9163194 0.86750925 -1.2516698 10 0.12439721 0.052119125 0.99086273 7.5102296e-05
-3.915437 0.88022733 -1.2522655 10 0.12438034 0.051796671 0.99088174 8.5762615e-05
-3.9132745 0.88979226 -1.2522655 10 0.12439626 0.05159523 0.99089032 8.9803092e-05
-3.9123209 0.90251029 -1.2528613 10 0.12440147 0.051445123 0.99089742 9.4833362e-05
-3.9114845 0.91454917 -1.253457 10 0.1247464 0.050990306 0.99087757 0.00010462959
-3.910773 0.92590868 -1.2540528 10 0.12505464 0.050753854 0.99085087 0.0001111431
-3.9118853 0.93771636 -1.2552443 10 0.1252688 0.05039569 0.99084204 0.00011705104
-3.9126308 0.95090234 -1.2564359 10 0.12542582 0.050343238 0.99082488 0.00011729816
-3.9156897 0.96250969 -1.2582229 10 0.12564355 0.050195482 0.99080473 0.00012129598
-3.9091117 0.97320145 -1.2570316 10 0.12557708 0.05013093 0.99081653 0.00012077524
-3.9062068 0.98479593 -1.2570316 10 0.12568958 0.050164051 0.99080056 0.00012092177
-3.907315 0.99596232 -1.2582229 10 0.12583195 0.050128423 0.99078429 0.00012228364
-3.911562 1.0101415 -1.2606061 10 0.12595254 0.050144009 0.99076813 0.00012971515
-3.9066997 1.0212601 -1.2600102 10 0.12599301 0.050222035 0.99075907 0.00012618577
-3.9077046 1.0324601 -1.2612017 10 0.12609208 0.050355602 0.99073964 0.00013049337
-3.9083128 1.0450366 -1.2623934 10 0.12601484 0.050843578 0.99072462 0.00015004573
-3.9050105 1.0573089 -1.2623934 10 0.12575848 0.051633824 0.99071628 0.00017140029
-3.9077537 1.0690403 -1.2641805 10 0.12595184 0.051918097 0.99067688 0.00018513114
-3.8973927 1.0779122 -1.2617974 10 0.1258436 0.052285261 0.99067134 0.00019220063
-3.8995025 1.0916963 -1.2635847 10 0.12580518 0.053661536 0.99060261 0.00023555403
-3.9039798 1.1039786 -1.2659677 10 0.12588748 0.054402746 0.99055165 0.00025435357
-3.8986566 1.1157128 -1.2653719 10 0.12581249 0.054473374 0.99055737 0.0002739582
-3.9026649 1.1293987 -1.2677549 10 0.12574059 0.055468433 0.99051124 0.00029743632
-3.8996952 1.1396114 -1.2677549 10 0.12538709 0.055858638 0.99053413 0.00031261067
-3.8997574 1.1529397 -1.2689465 10 0.12542693 0.056116864 0.99051446 0.00031702532
-3.8946934 1.1632782 -1.2683508 10 0.12526728 0.056668323 0.99050325 0.00032817145
-3.9005685 1.1769074 -1.2713295 10 0.12501906 0.057467498 0.99048865 0.00036012373
-3.8986776 1.1897141 -1.2719252 10 0.12473448 0.058146145 0.99048489 0.00037904904
-3.8971655 1.2011576 -1.272521 10 0.12410524 0.059575606 0.99047899 0.00041532057
-3.8919728 1.2114683 -1.2719252 10 0.12396362 0.059883356 0.99047816 0.000426554
-3.8938248 1.2247295 -1.2737124 10 0.12346416 0.061385315 0.99044859 0.00046513168
-3.8956325 1.2380124 -1.2754997 10 0.12339279 0.062038593 0.99041682 0.00049355923
-3.8921602 1.2488865 -1.2754997 10 0.12301692 0.062973097 0.99040455 0.00051723607
-3.8902538 1.2610172 -1.2760955 10 0.12291902 0.06358128 0.9903779 0.0005303073
-3.8887534 1.2717923 -1.2766912 10 0.12282671 0.064004585 0.99036205 0.00054678367
-3.8847392 1.2840021 -1.2766912 10 0.12268618 0.064468279 0.99034935 0.00056170701
-3.8847604 1.296054 -1.2778828 10 0.12226765 0.065551452 0.99033004 0.00059928134
-3.8847444 1.308116 -1.2790742 10 0.12177546 0.066881984 0.99030179 0.00063314848
-3.8824234 1.3209281 -1.2796699 10 0.12160385 0.066881701 0.99032289 0.00064617826
-3.8805251 1.3323849 -1.2802658 10 0.12109452 0.068523556 0.990273 0.00066801469
-3.8822014 1.3450917 -1.282053 10 0.12073562 0.068978287 0.99028528 0.00069173478
-3.8779569 1.3572805 -1.282053 10 0.12040648 0.06912142 0.99031538 0.00070392527
-3.8743896 1.3674296 -1.282053 10 0.12025873 0.069368787 0.99031603 0.00071316492
-3.8757112 1.3808408 -1.2838403 10 0.11983651 0.070481032 0.99028862 0.00073241029
-3.8715973 1.3923343 -1.2838403 10 0.11960563 0.07132151 0.99025637 0.00073484646
-3.8730776 1.4050939 -1.2856274 12 0.11955293 0.072193094 0.99019963 0.00074925588
-3.8763111 1.418528 -1.2880105 17 0.11928638 0.072860979 0.99018282 0.0007604626
-3.8738763 1.4306837 -1.2886063 14 0.1190931 0.073562354 0.99015421 0.00076791772
-3.867825 1.4415058 -1.2880105 18 0.11899287 0.074605629 0.99008828 0.00078388402
-3.8602102 1.4509569 -1.286819 21 0.11889352 0.075043499 0.99006701 0.00078771508
-3.8630283 1.4651123 -1.289202 26 0.11863439 0.076050214 0.99002129 0.00079733762
-3.8589222 1.4758936 -1.289202 34 0.11843728 0.076851554 0.98998302 0.00080304121
-3.854526 1.487337 -1.289202 34 0.11819236 0.077224836 0.98998332 0.0008064289
-3.8554337 1.5008451 -1.2909892 30 0.11798465 0.077429995 0.98999202 0.00082358555
-3.8547816 1.5130011 -1.2921808 32 0.11788202 0.07814347 0.98994821 0.00083171646
-3.8469911 1.5223548 -1.2909892 30 0.11766751 0.078314863 0.98996013 0.00084147317
-3.845736 1.5358485 -1.2921808 30 0.11740348 0.07901787 0.98993564 0.00084969396
-3.8464744 1.5493935 -1.293968 26 0.1169219 0.078651868 0.99002182 0.00093689503
-3.8477128 1.5616117 -1.2957553 19 0.11687281 0.079475813 0.9899618 0.00095353834
-3.8463211 1.5751381 -1.2969466 16 0.11681674 0.08042334 0.98989189 0.00095162715
-3.8477559 1.5867157 -1.2987339 16 0.11651628 0.080318317 0.98993576 0.0010038868
-3.8498027 1.6017295 -1.3011169 19 0.11636448 0.080884561 0.98990756 0.0010082982
-3.8447521 1.6138154 -1.3011169 15 0.11619015 0.0814026 0.98988557 0.0010141537
-3.8402302 1.6245459 -1.3011169 15 0.11601575 0.081797078 0.98987353 0.0010243265
-3.8391912 1.6367613 -1.3023084 16 0.11591732 0.082417622 0.98983359 0.0010253737
-3.8395801 1.6504073 -1.3040957 16 0.1157431 0.083131187 0.98979431 0.0010381734
-3.8369987 1.6612116 -1.3046914 17 0.11570006 0.083723672 0.98974937 0.0010496187
-3.835552 1.6741176 -1.3058829 17 0.1154765 0.084555119 0.98970479 0.0010696839
-3.8302741 1.6861583 -1.3058829 16 0.11541537 0.085313126 0.98964685 0.001075475
-3.8293371 1.697727 -1.3070744 25 0.11526843 0.085987248 0.98960567 0.0010746961
-3.8277686 1.7106405 -1.3082659 18 0.11511362 0.086619586 0.98956847 0.0010973073
-3.8275981 1.72501 -1.3100532 19 0.11456698 0.087182477 0.98958254 0.001113754
-3.8216331 1.7335693 -1.3094575 28 0.1141929 0.087387159 0.98960775 0.0011302353
-3.8126953 1.7439784 -1.3082659 38 0.11402369 0.087896012 0.98958218 0.0011385148
-3.8144393 1.7584807 -1.3106489 54 0.11442383 0.087870441 0.98953825 0.0011474782
-3.8063595 1.7668527 -1.3094575 53 0.11447187 0.088438019 0.9894821 0.001147747
-3.8025188 1.7796113 -1.3100532 56 0.11460301 0.089033708 0.9894135 0.001152309
-3.7975347 1.7902223 -1.3100532 53 0.11437339 0.089085072 0.98943549 0.001159046
-3.7925208 1.8008204 -1.3100532 39 0.11409296 0.089133263 0.98946351 0.0011639593
-3.7785494 1.807945 -1.3070744 17 0.11362729 0.08910121 0.98951995 0.00117431
-3.7594101 1.8125153 -1.3023084 14 0.1136491 0.089242488 0.98950475 0.0011568987
-3.742312 1.8171691 -1.2981383 13 0.11375228 0.0893704 0.98948139 0.0011205362
-3.7248995 1.8223909 -1.293968 11 0.11361029 0.089406654 0.98949438 0.0011013083
-3.7143383 1.8309027 -1.2921808 10 0.11354057 0.089543447 0.98949003 0.0010916
-3.7044015 1.8380749 -1.2903935 12 0.11286301 0.089226305 0.98959619 0.0010994487
-3.6900716 1.8454331 -1.2874147 14 0.11251548 0.089399613 0.98962009 0.0010969844
-3.6712623 1.848861 -1.2826487 15 0.11223422 0.089201726 0.98966992 0.0010935806
-3.662679 1.857379 -1.2814572 17 0.11222145 0.089530125 0.98964167 0.0011013489
-3.6568255 1.8688766 -1.2814572 17 0.11181486 0.089866474 0.98965722 0.0010945207
-3.6515925 1.8790815 -1.2814572 15 0.11171046 0.090144388 0.98964375 0.0010920772
-3.6581969 1.8954197 -1.2856274 13 0.11181021 0.089767911 0.9896667 0.001115685
