# .PCD v0.7 - Point Cloud Data file format
VERSION 0.7
FIELDS x y z intensity normal_x normal_y normal_z curvature
SIZE 4 4 4 4 4 4 4 4
TYPE F F F F F F F F
COUNT 1 1 1 1 1 1 1 1
WIDTH 137
HEIGHT 1
VIEWPOINT 0 0 0 1 0 0 0
POINTS 137
DATA ascii
4.279213 -0.42184266 -2.2863266 1 0.14040977 -0.0027474649 0.99008965 7.0607515e-05
4.2674766 -0.432722 -2.2806931 1 0.14046504 -0.0029446098 0.99008125 6.7067573e-05
4.2731214 -0.44686112 -2.2844489 1 0.14045905 -0.0030808642 0.99008173 6.3840766e-05
4.2736125 -0.45898074 -2.2853878 1 0.14048916 -0.0031777024 0.99007714 6.3599851e-05
4.2565174 -0.46917191 -2.2769372 1 0.14041415 -0.0036500669 0.99008608 5.7097135e-05
4.2532673 -0.48234281 -2.2759981 1 0.14044994 -0.003768814 0.99008065 5.7150319e-05
4.2466416 -0.4936066 -2.2731814 1 0.140533 -0.003911539 0.99006826 5.8496811e-05
4.2434926 -0.50525475 -2.2722425 1 0.14050207 -0.0042762328 0.99007112 5.6354384e-05
4.2402225 -0.51762921 -2.2713037 1 0.14052244 -0.0044576959 0.99006748 6.0786177e-05
4.2335033 -0.52881145 -2.2684867 2 0.14046833 -0.0050062677 0.99007249 6.2555271e-05
4.2232518 -0.53951269 -2.263792 2 0.1404361 -0.0052348538 0.99007589 5.9339771e-05
4.2285399 -0.55369484 -2.2675478 2 0.14044423 -0.0054000099 0.99007392 5.7097102e-05
4.2148237 -0.56312627 -2.2609754 2 0.14038382 -0.0055875061 0.99008137 6.1421226e-05
4.2166333 -0.57610744 -2.2628531 2 0.14044535 -0.0058618351 0.99007106 5.6667748e-05
4.2078071 -0.58837336 -2.2590973 2 0.14045742 -0.0061324048 0.99006772 6.236937e-05
4.2096443 -0.60062033 -2.2609754 2 0.14045362 -0.0062577664 0.99006754 5.8670827e-05
4.2044554 -0.61186492 -2.2590973 3 0.14044422 -0.0065012053 0.99006724 5.5089884e-05
4.2078619 -0.62511563 -2.2619143 3 0.14049102 -0.0066615096 0.99005961 5.4287044e-05
4.1991158 -0.63580626 -2.2581584 3 0.14052097 -0.006937427 0.99005342 5.5578046e-05
4.2059369 -0.6496101 -2.2628531 3 0.14054631 -0.007206291 0.99004787 6.0772487e-05
4.1917801 -0.66016352 -2.2562804 3 0.14056121 -0.0072766286 0.99004531 5.8980186e-05
4.1932902 -0.67315763 -2.2581584 3 0.14056373 -0.0074515678 0.99004358 6.0167727e-05
4.1881471 -0.68283343 -2.2562804 3 0.14055811 -0.0077121542 0.99004233 6.1856488e-05
4.1964331 -0.69772524 -2.2619143 3 0.14056383 -0.0078161638 0.99004078 6.3771702e-05
4.1822805 -0.7073797 -2.2553415 3 0.14051041 -0.0079700267 0.99004716 5.7604357e-05
4.1837692 -0.7196548 -2.2572193 3 0.14051406 -0.0081533287 0.99004507 5.8813486e-05
4.1884451 -0.73401427 -2.2609754 3 0.14051679 -0.0084701013 0.99004203 5.9523816e-05
4.172471 -0.74323022 -2.2534637 3 0.14046614 -0.0085847182 0.99004823 5.7024605e-05
4.1721168 -0.75519359 -2.2544026 3 0.14047751 -0.0088313734 0.99004453 5.2035917e-05
4.1662502 -0.76765692 -2.2525249 3 0.14043087 -0.009030005 0.99004924 5.1930743e-05
4.167562 -0.77993792 -2.2544026 3 0.14039841 -0.0091322362 0.99005306 4.9856277e-05
4.1636329 -0.79124331 -2.2534637 3 0.14033346 -0.0092967777 0.99006063 4.7201451e-05
4.1577988 -0.8029238 -2.2515857 3 0.14029913 -0.0093998546 0.9900645 4.9821479e-05
4.1538072 -0.81419176 -2.2506468 3 0.14030291 -0.0095798317 0.9900623 5.2944946e-05
4.1515174 -0.8257882 -2.2506468 3 0.1403091 -0.0097642317 0.99005961 5.259064e-05
4.1523647 -0.83952636 -2.2525249 3 0.14031823 -0.010022281 0.99005568 5.0874824e-05
4.146544 -0.85040915 -2.2506468 3 0.1403155 -0.010293565 0.9900533 5.2937823e-05
4.1403947 -0.86271125 -2.248769 3 0.14028057 -0.010349493 0.99005771 5.061123e-05
4.1400023 -0.87318993 -2.2497079 3 0.14030001 -0.010600011 0.99005228 4.8770609e-05
4.1337848 -0.88545209 -2.2478299 3 0.14029261 -0.01096705 0.99004936 5.7777081e-05
4.1364732 -0.89811635 -2.2506468 4 0.1402441 -0.011064774 0.99005514 5.7470355e-05
4.1339493 -0.90966403 -2.2506468 4 0.14027993 -0.011419392 0.99004602 6.1295905e-05
4.1310711 -0.9226467 -2.2506468 4 0.14026043 -0.011516532 0.99004769 6.7335684e-05
4.1317596 -0.93567985 -2.2525249 4 0.14036562 -0.012111064 0.99002564 7.7787736e-05
4.1292963 -0.94649363 -2.2525249 4 0.14051886 -0.012787176 0.98999536 9.2082752e-05
4.1247497 -0.95834166 -2.2515857 4 0.1405327 -0.012948122 0.98999131 9.2639079e-05
4.1134624 -0.96783417 -2.246891 4 0.14069638 -0.013940628 0.98995459 0.00011541569
4.1104016 -0.98075217 -2.246891 4 0.14074187 -0.014372081 0.98994207 0.00012143861
4.1076469 -0.99222672 -2.246891 4 0.14089833 -0.015238696 0.98990673 0.00014226565
4.1096554 -1.0063864 -2.2497079 4 0.14094666 -0.015462539 0.98989642 0.00014490103
4.1037555 -1.0155767 -2.2478299 4 0.14098942 -0.0155952 0.98988825 0.00014387444
4.1022577 -1.0288937 -2.248769 4 0.14121352 -0.016413519 0.98984307 0.00015545599
4.0957637 -1.0401914 -2.246891 4 0.14122351 -0.01694083 0.98983276 0.00016471581
4.0928426 -1.0516249 -2.246891 4 0.14130464 -0.017487526 0.98981166 0.00017751424
4.0950174 -1.0643828 -2.2497079 5 0.14138803 -0.017854529 0.98979324 0.00018460726
4.0882378 -1.0763432 -2.2478299 5 0.1415417 -0.017992757 0.98976868 0.00018762138
4.0886292 -1.0886643 -2.2497079 5 0.14171717 -0.018965025 0.98972547 0.00021234574
4.0806494 -1.097988 -2.246891 5 0.14190842 -0.019819032 0.98968136 0.0002359669
4.0788832 -1.1112665 -2.2478299 5 0.14214803 -0.021115739 0.98962015 0.00026494008
4.0757642 -1.1226525 -2.2478299 5 0.14225823 -0.021531528 0.98959535 0.00027761291
4.0690136 -1.1337928 -2.2459521 5 0.14250311 -0.022327194 0.98954248 0.00029800672
4.0656314 -1.1458608 -2.2459521 5 0.14262028 -0.023414539 0.98950052 0.00032807319
4.0660143 -1.1574674 -2.2478299 5 0.14264002 -0.024121504 0.98948067 0.00034354185
4.0591688 -1.1685495 -2.2459521 5 0.14281632 -0.024884278 0.98943639 0.00035980847
4.0537815 -1.180802 -2.245013 5 0.14301789 -0.025743373 0.98938525 0.00037058923
4.0540648 -1.1924073 -2.246891 5 0.14307234 -0.025687462 0.98937881 0.00037003623
4.0452209 -1.2036269 -2.2440741 5 0.14328834 -0.026446668 0.98932755 0.00038331345
4.040153 -1.2144103 -2.2431355 5 0.14374374 -0.027459774 0.98923391 0.00039631725
4.0350561 -1.2251745 -2.2421963 5 0.14380348 -0.028230496 0.98920357 0.00041594644
4.0316191 -1.2364378 -2.2421963 6 0.14390239 -0.028611051 0.98917824 0.00042285275
4.0281506 -1.2476913 -2.2421963 6 0.14394423 -0.029227316 0.9891541 0.00043000013
4.0258965 -1.2608678 -2.2431355 7 0.14417212 -0.029971106 0.98909861 0.00044583008
4.0156255 -1.2699753 -2.2393796 9 0.14430302 -0.03045444 0.98906475 0.00044973721
4.012063 -1.2811842 -2.2393796 6 0.1445096 -0.031177394 0.98901212 0.00046332422
4.0032024 -1.2914561 -2.2365627 7 0.14458513 -0.031879686 0.98897868 0.00048609276
4.0027103 -1.3044223 -2.2384405 7 0.14465488 -0.03308722 0.98892885 0.000511761
4.00073 -1.3161469 -2.2393796 7 0.14475504 -0.033436775 0.98890245 0.00051801483
3.995131 -1.3274544 -2.2384405 7 0.1449253 -0.034714509 0.98883337 0.00054028229
3.9911749 -1.3393025 -2.2384405 9 0.14509179 -0.035441205 0.98878324 0.00054942199
3.9859824 -1.3491806 -2.2375016 9 0.14512496 -0.036250796 0.98874897 0.00056014728
3.9817245 -1.3616961 -2.2375016 7 0.14519913 -0.037034437 0.98870903 0.00056828459
3.9812448 -1.3739623 -2.2393796 7 0.14539239 -0.037788704 0.98865217 0.00057638512
3.9721479 -1.3840257 -2.2365627 9 0.14546452 -0.039047759 0.98859262 0.00057574868
3.9682677 -1.3951125 -2.2365627 9 0.14583445 -0.040265616 0.98848921 0.00058459328
3.958873 -1.4057996 -2.2337458 7 0.14553583 -0.041503172 0.98848212 0.00058347418
3.9535162 -1.4155636 -2.2328069 9 0.14574198 -0.042492658 0.98840964 0.00059539761
3.9492989 -1.4272877 -2.2328069 9 0.14588933 -0.043872811 0.98832762 0.00059398485
3.9450464 -1.4389993 -2.2328069 9 0.14595035 -0.04500524 0.98826766 0.00059408735
3.9476421 -1.4524494 -2.2365627 10 0.14612912 -0.046428431 0.98817539 0.00059516396
3.9416595 -1.4635412 -2.2356236 10 0.14633608 -0.047541354 0.98809189 0.00059862394
3.9339929 -1.4739907 -2.2337458 12 0.14614816 -0.048670232 0.98806471 0.00060951285
3.9229941 -1.4831583 -2.22999 14 0.14610419 -0.049836349 0.98801309 0.00062667561
3.9207482 -1.4940525 -2.2309291 18 0.14609441 -0.050550114 0.98797828 0.00063636195
3.9113531 -1.503778 -2.2281122 21 0.14619218 -0.051321838 0.9879241 0.00063716993
3.9085205 -1.5160151 -2.2290511 21 0.14597058 -0.052334387 0.98790359 0.00064556004
3.8990719 -1.5256748 -2.2262342 21 0.14600377 -0.053350981 0.98784441 0.00065241521
3.8964391 -1.5372053 -2.2271733 22 0.14605899 -0.054419942 0.98777789 0.00065800978
3.8869388 -1.5468007 -2.2243564 21 0.14593166 -0.055346306 0.98774529 0.00066788861
3.8845146 -1.5576286 -2.2252953 21 0.14613473 -0.056180745 0.98766816 0.00067404471
3.876328 -1.5684996 -2.2234175 20 0.14583983 -0.05718556 0.98765403 0.00068136101
3.8735683 -1.5799853 -2.2243564 20 0.14595756 -0.0581576 0.98757988 0.00068250432
3.8675075 -1.5901246 -2.2234175 18 0.14576659 -0.059227306 0.9875446 0.0006855742
3.8614209 -1.6002425 -2.2224786 12 0.14574838 -0.060066357 0.98749661 0.00068912725
3.8645208 -1.6157715 -2.2271733 9 0.14571294 -0.061070215 0.98744023 0.00068439206
3.8599935 -1.626557 -2.2271733 9 0.1456403 -0.062077042 0.98738813 0.0006883624
3.8521852 -1.6359493 -2.2252953 9 0.14551072 -0.063101709 0.98734224 0.00068592437
3.84865 -1.6487383 -2.2262342 9 0.1458274 -0.063608177 0.98726302 0.00068837457
3.8375459 -1.65668 -2.2224786 9 0.14592852 -0.0644098 0.98719615 0.00069345365
3.8329046 -1.6673899 -2.2224786 9 0.14593223 -0.065239921 0.98714107 0.00069488335
3.8295574 -1.679464 -2.2234175 9 0.14585385 -0.066118822 0.98709416 0.00069184421
3.8232377 -1.689438 -2.2224786 9 0.14575566 -0.066988379 0.98705012 0.00069348793
3.818208 -1.7007743 -2.2224786 9 0.14546911 -0.067888603 0.98703086 0.00069780782
3.8099229 -1.7106489 -2.2206006 9 0.14575259 -0.068399921 0.98695374 0.0007022536
3.805131 -1.7212816 -2.2206006 10 0.14555492 -0.069258004 0.98692304 0.00070292334
3.797096 -1.7304363 -2.2187228 9 0.14577429 -0.069961481 0.98684108 0.00070237642
3.7935495 -1.742432 -2.2196617 9 0.14560868 -0.070567012 0.98682237 0.00069065037
3.7867606 -1.7529382 -2.2187228 9 0.14548051 -0.071246915 0.98679245 0.00069063663
3.775449 -1.7605208 -2.214967 9 0.14570776 -0.071684979 0.98672718 0.00069587451
3.771807 -1.7724659 -2.2159059 9 0.14557935 -0.072305404 0.98670083 0.00069395133
3.7662199 -1.7843069 -2.2159059 9 0.14544179 -0.073225908 0.98665321 0.00068910036
3.758348 -1.7926401 -2.2140279 9 0.14535271 -0.073470987 0.9866482 0.00069286698
3.7530124 -1.8037834 -2.2140279 9 0.14522944 -0.07405483 0.98662269 0.0006933682
3.7447817 -1.8127178 -2.2121503 9 0.14526406 -0.07466913 0.98657125 0.00069744029
3.7412927 -1.8239421 -2.213089 9 0.14546825 -0.075275607 0.98649514 0.00069491041
3.732374 -1.8341287 -2.2112112 7 0.14546578 -0.075819299 0.98645383 0.00069504901
3.7269154 -1.8451948 -2.2112112 9 0.14543083 -0.076218277 0.98642814 0.00069302128
3.7331362 -1.8604594 -2.2177839 10 0.14514211 -0.076944388 0.98641443 0.00068579224
3.7209606 -1.8690077 -2.2140279 14 0.14500628 -0.077424258 0.98639679 0.00068988331
3.7220302 -1.8825796 -2.2177839 18 0.14502767 -0.078048028 0.98634446 0.00068437459
3.7148545 -1.892813 -2.2168448 21 0.1449057 -0.078497127 0.98632681 0.00067475619
3.7123642 -1.9054395 -2.2187228 23 0.14460213 -0.078826085 0.98634505 0.00067487202
3.711735 -1.9182311 -2.2215397 28 0.14436701 -0.079223827 0.98634768 0.00067173323
3.7251618 -1.9383703 -2.2328069 33 0.14404991 -0.079568505 0.98636633 0.0006690881
3.7259915 -1.9520434 -2.2365627 40 0.14394177 -0.07981997 0.98636174 0.00066236407
3.7267735 -1.9657362 -2.2403185 31 0.14373022 -0.080161236 0.9863649 0.00066381175
3.7084486 -1.970157 -2.2328069 36 0.14330557 -0.080731027 0.98638028 0.00066265929
3.7053549 -1.9834645 -2.2346847 27 0.14286771 -0.081035726 0.98641878 0.00066654891
