# .PCD v0.7 - Point Cloud Data file format
VERSION 0.7
FIELDS x y z intensity normal_x normal_y normal_z curvature
SIZE 4 4 4 4 4 4 4 4
TYPE F F F F F F F F
COUNT 1 1 1 1 1 1 1 1
WIDTH 126
HEIGHT 1
VIEWPOINT 0 0 0 1 0 0 0
POINTS 126
DATA ascii
11.722528 5.2658553 -3.3641922 16 -0.2413073 -0.1003115 -0.96525043 1.1717634e-05
11.740779 5.2297912 -3.3646986 22 -0.24192481 -0.10006073 -0.96512192 1.0862183e-05
11.773035 5.2048044 -3.3697639 16 -0.24199754 -0.099804014 -0.96513027 2.0486159e-05
11.785752 5.1711326 -3.3692572 5 -0.24238288 -0.099400923 -0.96507514 5.9819295e-06
11.798388 5.1325393 -3.3682442 6 -0.24204972 -0.098951444 -0.96520495 5.7529319e-06
11.810009 5.1008687 -3.3677375 5 -0.24105978 -0.098321766 -0.96551698 1.6386237e-05
11.819757 5.0635161 -3.3662183 5 0.21472473 0.090794601 0.97244525 0
11.831166 5.0269127 -3.3652053 5 0.20180979 0.087081388 0.97554582 0
11.841554 4.9874625 -3.3636856 5 0.20531355 0.087709762 0.97475815 0
11.858139 4.9579387 -3.3646986 5 0.19267055 0.084147461 0.97764891 0
11.867435 4.9205122 -3.3631792 5 0.18707785 0.082444243 0.97887933 0
11.882919 4.8880854 -3.3636856 5 0.19004826 0.082979463 0.97826171 0
11.883983 4.8497677 -3.3601401 5 0.17147619 0.078081712 0.98208922 0
11.903702 4.8166595 -3.3616595 5 0.19727676 0.084291473 0.97671735 0
11.908 4.7749214 -3.3586209 5 0.17934728 0.079645872 0.98055649 0
11.915895 4.7395 -3.3571012 5 0.16955946 0.077063136 0.98250234 0
11.916485 4.7012382 -3.3535557 5 0.17504029 0.078202672 0.98145056 0
11.934798 4.6651888 -3.3545685 5 0.17663622 0.078389369 0.98114967 0
11.939755 4.6311316 -3.3525426 5 0.17492679 0.077842698 0.98149943 0
11.955251 4.5963755 -3.3530493 5 0.14931734 0.071801439 0.98617893 0
11.963409 4.5588188 -3.3515296 5 0.12277777 0.06503199 0.99030125 0
11.972474 4.5240273 -3.3505166 5 0.14496401 0.069482639 0.98699427 0
11.974191 4.4864988 -3.3474774 5 0.14392354 0.068871222 0.98718935 0
11.997295 4.4522271 -3.3500102 5 0.13240144 0.066102214 0.98898959 0
11.998016 4.4167948 -3.346971 5 0.14007577 0.067454077 0.98784047 0
12.011069 4.3811731 -3.346971 5 0.13932995 0.06697987 0.9879781 0
12.019315 4.3414478 -3.3454516 5 0.14575922 0.068002388 0.98698014 0
12.021531 4.306706 -3.3429191 5 0.1447399 0.067714773 0.98714995 0
12.028042 4.2711725 -3.3413994 5 0.14092274 0.06691695 0.98775649 0
12.035926 4.2314358 -3.33988 5 0.14985368 0.068284467 0.98634738 0
12.042212 4.1959066 -3.3383605 5 0.14983314 0.067937277 0.9863745 0
12.051679 4.1567831 -3.3373475 5 0.15262458 0.067720622 0.98596132 0
12.057028 4.1233416 -3.3358281 5 0.13332532 0.064339951 0.9889816 0
12.0575 4.0859323 -3.3327892 5 0.14100777 0.065202229 0.98785907 0
12.064773 4.0461888 -3.3312695 5 0.1698662 0.068963036 0.98305112 0
12.066146 4.0115342 -3.328737 5 0.16837524 0.068038076 0.98337209 0
12.076156 3.975112 -3.3282304 5 0.1846392 0.069952406 0.98031372 0
12.072028 3.9317582 -3.3236721 5 0.21719678 0.074431568 0.97328591 0
12.082959 3.8980336 -3.3236721 5 0.23690718 0.076835588 0.96848917 0
12.084582 3.8613338 -3.3211393 5 -0.28388208 -0.083697677 -0.9551993 0
12.090451 3.8237135 -3.3196199 5 -0.33100504 -0.090794377 -0.93925077 0
12.097391 3.7887754 -3.3186071 5 -0.32931578 -0.090084918 -0.93991268 0
12.094447 3.7461743 -3.3145549 4 -0.33816341 -0.0911953 -0.93665838 0
12.101161 3.7112529 -3.3135419 5 -0.34076864 -0.091332294 -0.93570036 0
12.092966 3.6718209 -3.3084769 5 -0.32421273 -0.088145055 -0.94186872 0
12.106243 3.6412659 -3.30949 5 -0.3136709 -0.085947037 -0.94563401 0
12.123814 3.6027555 -3.3110094 5 -0.31060234 -0.085073739 -0.94672525 0
12.110933 3.5644383 -3.3049312 5 -0.31115556 -0.084945604 -0.94655502 0
12.130743 3.5312004 -3.3074639 5 -0.3064194 -0.08372613 -0.94820732 0
12.128153 3.4914422 -3.3039184 5 -0.30543652 -0.083240218 -0.94856715 0
12.128552 3.4549062 -3.3013856 5 -0.30318123 -0.082550265 -0.9493506 0
12.136289 3.4205062 -3.3008792 5 -0.30297419 -0.082330704 -0.94943577 0
12.13893 3.3824015 -3.2988534 5 -0.3007237 -0.081648931 -0.95020992 0
12.145183 3.3453383 -3.2978404 5 -0.2975443 -0.080684662 -0.95129251 0
12.14572 3.3067491 -3.2953079 5 -0.29867235 -0.080802828 -0.95092887 0
12.153037 3.2723179 -3.2948012 5 -0.29904997 -0.080734096 -0.95081609 0
12.166435 3.2372365 -3.2958143 5 -0.292566 -0.078719355 -0.95299971 0
12.177855 3.2016175 -3.2963209 5 -0.29542133 -0.079356708 -0.95206547 0
12.184877 3.1671138 -3.2958143 5 -0.29867935 -0.080212593 -0.95097661 0
12.195548 3.1335523 -3.2963209 5 -0.29941657 -0.080257982 -0.95074093 0
12.214708 3.0976038 -3.2988534 5 -0.29764336 -0.079530269 -0.95135874 0
12.221434 3.0630136 -3.2983468 5 -0.29208636 -0.077520587 -0.95324504 2.0940326e-05
12.246843 3.0330553 -3.3029053 5 -0.29532123 -0.078414716 -0.95217466 0
12.248793 2.9927311 -3.3008792 5 -0.29734191 -0.078900106 -0.95150542 0
12.265473 2.9650619 -3.303412 5 -0.29954004 -0.079498485 -0.95076591 0
12.291665 2.9305551 -3.3079703 5 -0.29536441 -0.077684022 -0.9522211 0
12.308345 2.8936989 -3.3099964 5 -0.30091316 -0.079567939 -0.95032632 0
12.319148 2.8644876 -3.3110094 5 -0.30259883 -0.080034576 -0.94975179 0
12.335135 2.8296561 -3.3130355 5 -0.30690965 -0.081805512 -0.94821644 0
12.3534 2.793026 -3.315568 5 -0.310022 -0.08275988 -0.94712043 0
12.372001 2.7632017 -3.3186071 5 -0.3176111 -0.086054221 -0.94430822 0
12.390067 2.7264016 -3.3211393 5 -0.32230207 -0.088050693 -0.94253296 0
12.413228 2.6929114 -3.3251915 5 -0.31904393 -0.086445712 -0.94378918 0
12.421665 2.6629736 -3.3256981 5 -0.33632654 -0.094188467 -0.93702352 0
12.443219 2.6267364 -3.3292437 5 -0.33742073 -0.094635569 -0.93658495 0
12.452854 2.5901954 -3.3297501 5 -0.33793396 -0.094711803 -0.93639219 0
12.469069 2.5595324 -3.3322825 5 -0.34547657 -0.098236009 -0.93327147 0
12.497909 2.5245633 -3.3378539 5 -0.39905035 -0.12469257 -0.90841103 0
12.50914 2.4882216 -3.3388672 5 -0.33345762 -0.091692269 -0.9382956 0
12.525105 2.4573286 -3.3413994 4 -0.33934835 -0.094127573 -0.93593943 0
12.545215 2.4249146 -3.344945 5 0.2194383 0.033801649 0.97504067 0
12.560792 2.3847401 -3.346971 5 -0.3527247 -0.099683449 -0.93040234 0
12.572697 2.3529179 -3.3484907 5 -0.25069556 -0.047656648 -0.96689224 0
12.596748 2.3187521 -3.3530493 5 0.19249827 0.018129921 0.98112977 0
12.599765 2.2806795 -3.3520362 5 -0.40885893 -0.1259487 -0.90386462 0
12.622835 2.2507443 -3.3565946 5 0.062495805 -0.045977622 0.99698561 0
12.640892 2.2152817 -3.3596337 5 0.10862216 -0.024416601 0.99378324 0
12.653128 2.1787591 -3.3611531 4 0.20983399 0.023755744 0.9774484 0
12.674425 2.1459966 -3.3652053 5 0.24384379 0.039587237 0.96900624 0
12.688739 2.1074326 -3.3672311 5 0.11547056 -0.02253218 0.99305528 0
12.700303 2.0729342 -3.3687508 4 0.073525093 -0.042175051 0.99640125 0
12.721326 2.0399067 -3.3728027 5 0.053454328 -0.051258951 0.99725384 0
12.733406 2.0008287 -3.3743222 4 0.14654066 -0.0086578587 0.98916674 0
12.755811 1.9701462 -3.378881 6 0.14518888 -0.0094805937 0.98935854 0
12.776903 1.9346099 -3.3829329 6 0.1434629 -0.010582988 0.98959911 0
12.792157 1.8981076 -3.3854654 6 0.14232907 -0.011042038 0.98975778 0
12.816552 1.8651662 -3.3905303 6 0.13927788 -0.012710608 0.99017173 0
12.833204 1.8310043 -3.3935695 6 0.13544238 -0.014499752 0.99067914 0
12.844642 1.7914829 -3.3950889 6 0.16147283 -0.0036470881 0.98687047 0
12.851204 1.7581136 -3.3955956 6 0.1473031 -0.0099477815 0.98904139 0
12.875542 1.7225375 -3.4006603 6 0.16058798 -0.0047475779 0.98701018 0
12.894318 1.6838354 -3.4042058 6 0.15838277 -0.0057940232 0.98736078 0
12.898971 1.6478174 -3.4042058 4 0.16789256 -0.0019559846 0.98580337 0
12.91888 1.6137109 -3.4082577 6 0.17168954 -0.00063203619 0.98515093 0
12.931294 1.5763116 -3.410284 6 0.17073053 -0.0013208864 0.98531687 0
12.945252 1.5413405 -3.4128165 6 0.16872181 -0.002347291 0.98566091 0
12.963222 1.5044818 -3.416362 4 0.17153116 -0.0013480408 0.98517776 0
12.977242 1.4671017 -3.4188945 6 0.17153828 -0.0013745088 0.98517656 0
12.979115 1.4329121 -3.4183881 4 0.18666449 0.0040714778 0.98241532 0
13.00038 1.3985206 -3.4229465 6 0.17748046 0.00088884949 0.98412395 0
13.008557 1.3580761 -3.4239595 6 0.20313691 0.009991169 0.97909939 1.3846126e-05
13.025772 1.3231149 -3.427505 6 0.21472764 0.013925514 0.97657466 1.7512366e-05
13.048896 1.2863551 -3.4325702 6 0.21794686 0.014691902 0.97585005 1.768947e-05
13.054581 1.2478192 -3.4330766 6 0.22459111 0.016720524 0.97430962 2.7891445e-05
13.061868 1.2117187 -3.4340897 6 0.23097484 0.018401803 0.97278565 2.1259337e-05
13.063273 1.1750611 -3.433583 6 0.23424679 0.019044988 0.97199059 1.5437367e-05
13.072486 1.1367954 -3.4351027 6 0.23502953 0.019031506 0.97180188 8.7874068e-06
13.081584 1.0984979 -3.4366221 6 0.23578024 0.018945796 0.97162169 1.1547664e-05
13.086714 1.0598315 -3.4371285 6 0.23730563 0.019019658 0.97124881 0
13.095411 1.0237308 -3.4386482 6 0.23803571 0.018938323 0.97107184 0
13.107864 0.98788673 -3.4411805 6 0.23832875 0.018676367 0.9710049 0
13.128271 0.94795901 -3.4457393 6 0.23827051 0.018004328 0.9710319 0
13.136658 0.91169208 -3.4472587 6 0.238821 0.017816937 0.97090024 0
13.156528 0.87616342 -3.4518173 6 0.076541305 0.022524282 0.99681199 0.0034472148
13.1708 0.8355642 -3.4548562 6 0.073934995 0.024367874 0.99696535 0.0035942178
13.190324 0.80213308 -3.4594147 7 0.070942335 0.02646549 0.99712932 0.0037359463
