# .PCD v0.7 - Point Cloud Data file format
VERSION 0.7
FIELDS x y z intensity normal_x normal_y normal_z curvature
SIZE 4 4 4 4 4 4 4 4
TYPE F F F F F F F F
COUNT 1 1 1 1 1 1 1 1
WIDTH 114
HEIGHT 1
VIEWPOINT 0 0 0 1 0 0 0
POINTS 114
DATA ascii
-0.77862513 3.5800948 -1.84029 37 0.12550674 0.061334606 0.99019498 0.0012856973
-0.77387255 3.6067195 -1.8528577 35 0.12602897 0.059749488 0.99022555 0.001253375
-0.75136393 3.605999 -1.8501647 37 0.12620406 0.060209692 0.99017543 0.0012454191
-0.76564854 3.6176085 -1.8573462 37 0.12569147 0.059705626 0.99027103 0.001218253
-0.74272877 3.6150861 -1.8537554 45 0.12692489 0.060053591 0.99009275 0.0012489678
-0.72979307 3.603133 -1.8465738 53 0.12691092 0.060852643 0.99004573 0.0012824
-0.7183277 3.5981464 -1.8429831 45 0.12685964 0.06200368 0.98998094 0.0012803269
-0.70529896 3.5916164 -1.8384944 33 0.12633294 0.062544547 0.9900142 0.0012780286
-0.69696462 3.6023455 -1.8429831 30 0.12654662 0.062141724 0.99001229 0.0012843987
-0.68589741 3.5990112 -1.84029 35 0.12683836 0.062633038 0.98994398 0.0012678022
-0.65861487 3.6277199 -1.8519601 21 0.12831058 0.061931066 0.98979843 0.0012796639
-0.64282268 3.6015077 -1.8375969 51 0.12860183 0.062552609 0.98972148 0.0012918435
-0.67393869 3.6576202 -1.8681186 33 0.12880179 0.0603492 0.98983234 0.0012361063
-0.61734307 3.6422215 -1.8555509 26 0.12976001 0.061910827 0.98961073 0.0012892688
-0.68544728 3.6591177 -1.8699142 40 0.12849216 0.060190316 0.98988223 0.0012281602
-0.60443258 3.6353276 -1.8510623 37 0.12942509 0.062020127 0.98964775 0.0013389317
-0.5903514 3.6774685 -1.8708118 35 0.12995565 0.060700696 0.98966002 0.0013247808
-0.56460977 3.6471508 -1.8537554 45 0.12973881 0.061848566 0.98961741 0.0013412781
-0.58230531 3.6932261 -1.8779933 40 0.13027133 0.060024604 0.98965973 0.0013311382
-0.5277434 3.6219668 -1.8384944 32 0.12993684 0.062393062 0.98955727 0.0013554214
-0.51825988 3.6233358 -1.8384944 40 0.1298171 0.062637866 0.9895575 0.0013508219
-0.53601682 3.6081045 -1.8322105 22 0.1294928 0.063057698 0.98957324 0.0013329131
-0.49674916 3.6263475 -1.8384944 42 0.1299475 0.0631207 0.98950964 0.0013691231
-0.5098415 3.6461866 -1.849267 37 0.13047376 0.062573098 0.98947519 0.0013421596
-0.48883393 3.6490624 -1.849267 35 0.12998989 0.063136697 0.98950309 0.0013531413
-0.47777164 3.6487246 -1.8483691 40 0.12972696 0.063241124 0.98953092 0.0013605009
-0.47121647 3.6784077 -1.8627324 35 0.1305925 0.062900789 0.98943877 0.001351653
-0.44721231 3.6633992 -1.8537554 33 0.13000838 0.063418798 0.98948258 0.0013371154
-0.46427354 3.7063098 -1.8761981 30 0.13117386 0.062209066 0.98940563 0.0013718442
-0.44101137 3.6929512 -1.8681186 42 0.13006565 0.063320629 0.98948145 0.0013813789
-0.43315277 3.7208717 -1.8815843 32 0.13084538 0.062560216 0.98942691 0.0013808283
-0.42210972 3.7221406 -1.8815843 33 0.13085677 0.062774129 0.98941195 0.0013713809
-0.41367885 3.7410688 -1.8905613 37 0.13077874 0.062008753 0.98947048 0.0014134173
-0.40342048 3.7439864 -1.8914589 29 0.13067833 0.061811432 0.98949611 0.0014161146
-0.37055737 3.7455857 -1.8905613 27 0.12878977 0.062849902 0.9896782 0.0014366478
-0.33898041 3.7611368 -1.8968452 27 0.1271611 0.063170791 0.9898684 0.0015223946
-0.31761393 3.7665882 -1.8986404 27 0.12622432 0.063904695 0.98994112 0.0015932535
-0.33045754 3.7923939 -1.912106 27 0.12722744 0.063756347 0.98982233 0.0015411443
-0.30802956 3.7871089 -1.9085153 26 0.12632108 0.063853398 0.98993218 0.0016977418
-0.36488631 3.796418 -1.9156969 35 0.12978037 0.061699577 0.98962122 0.0014409965
-0.30021778 3.8146274 -1.9219807 27 0.12628429 0.063780874 0.98994154 0.0016917384
-0.28769454 3.8084235 -1.9183899 33 0.1262033 0.063829221 0.98994875 0.0016977673
-0.27653855 3.8020821 -1.9147992 40 0.12579434 0.064457618 0.98996007 0.0017306063
-0.26719832 3.840373 -1.9336509 40 0.12687111 0.064223334 0.98983788 0.0017143957
-0.25726333 3.8428428 -1.9345487 40 0.12693836 0.064364597 0.98982012 0.0017154102
-0.24575721 3.8525498 -1.9390371 42 0.12701613 0.064435117 0.98980558 0.001711227
-0.23599836 3.8585317 -1.9417303 42 0.12704675 0.064379804 0.98980522 0.0017079302
-0.2249648 3.8663516 -1.945321 45 0.1273683 0.064254127 0.98977208 0.0017032594
-0.2131954 3.8616486 -1.9426279 33 0.12780014 0.064268373 0.98971546 0.0017059173
-0.20278564 3.8693681 -1.9462188 35 0.12834175 0.064508557 0.98962981 0.0016979969
-0.1919225 3.8824482 -1.9525027 40 0.12841225 0.06445995 0.98962379 0.0017399514
-0.18040106 3.8830006 -1.9525027 42 0.12894851 0.064556204 0.98954773 0.0017379689
-0.16849165 3.8745906 -1.9480141 35 0.12851456 0.06546054 0.98954481 0.0017968836
-0.15892996 3.8893046 -1.9551959 42 0.12929577 0.064978831 0.98947483 0.0017513384
-0.135473 3.8794625 -1.9498097 32 0.12897623 0.065575436 0.98947716 0.0018240114
-0.14590138 3.8504684 -1.9354464 40 0.12838127 0.065018721 0.98959118 0.0018121341
-0.12554753 3.8869488 -1.9534004 26 0.12862591 0.065739833 0.98951185 0.0018139075
-0.11344063 3.890897 -1.9551959 32 0.12906168 0.065545537 0.98946798 0.0018198981
-0.10276381 3.898345 -1.9587866 30 0.12891269 0.065459006 0.98949313 0.001832444
-0.091918088 3.9004035 -1.9596843 35 0.12926561 0.065243848 0.98946124 0.0018521413
-0.079555437 3.8953123 -1.9569912 40 0.12963779 0.065061525 0.98942465 0.0018401778
-0.068646528 3.8937325 -1.9560935 37 0.13004921 0.065091699 0.98936856 0.001850092
-0.057851266 3.8992701 -1.9587866 35 0.13055022 0.065086424 0.98930299 0.0018309442
-0.04694137 3.897629 -1.9578888 35 0.13069086 0.065135799 0.98928118 0.0018356744
-0.034919858 3.9227777 -1.9704568 40 0.13122408 0.065289855 0.98920047 0.0018440641
-0.023964064 3.9228599 -1.9704568 37 0.13113509 0.065148085 0.98922157 0.0018520147
-0.012323448 3.9229138 -1.9704568 32 0.13134821 0.065119855 0.98919517 0.0018666231
-0.00068459287 3.9229331 -1.9704568 35 0.13152492 0.064813659 0.98919177 0.0018640442
0.010954268 3.9229178 -1.9704568 40 0.1321574 0.064742856 0.98911214 0.0018599401
0.021215972 3.921088 -1.969559 35 0.13152333 0.066444181 0.98908383 0.0020596094
0.032937225 3.9317307 -1.9749452 32 0.13194464 0.065290071 0.98910457 0.001858886
0.04395768 3.9351978 -1.9767407 33 0.13205883 0.065099649 0.98910183 0.0018634585
0.055457756 3.9225409 -1.9704568 40 0.13163811 0.065889485 0.98910564 0.0020667105
0.067307301 3.9348679 -1.9767407 32 0.13147819 0.065831542 0.9891308 0.0020584345
0.07919836 3.9453719 -1.982127 37 0.13197801 0.064389043 0.98915923 0.0018596844
0.091028839 3.95048 -1.98482 45 0.13226007 0.064273171 0.98912907 0.0018677674
0.10137022 3.9502282 -1.98482 40 0.13161865 0.063990287 0.98923296 0.0019459402
0.11393334 3.9552493 -1.9875129 40 0.13189447 0.063806981 0.98920804 0.001926298
0.12428901 3.9549372 -1.9875129 40 0.13209556 0.063428022 0.98920554 0.0019257509
0.13596085 3.952765 -1.9866153 48 0.13216241 0.064486198 0.98912829 0.0021087513
0.14857851 3.9576764 -1.9893085 35 0.13185915 0.06416335 0.98918968 0.002252291
0.15786459 3.9304874 -1.9758431 33 0.13159746 0.065434165 0.98914135 0.0025745051
0.1696831 3.9496722 -1.9857177 30 0.13266677 0.064128615 0.98908395 0.0022231778
0.18283062 3.9651878 -1.9937971 30 0.13302003 0.064314462 0.98902446 0.0022389186
0.19347306 3.9700506 -1.9964902 32 0.13370286 0.063115567 0.98900962 0.0020525192
0.20442025 3.9533958 -1.9884108 30 0.13351047 0.064331673 0.98895723 0.0022371355
0.21654475 3.9473803 -1.9857177 30 0.13327415 0.065714255 0.98889822 0.0025263706
0.22698392 3.9485838 -1.9866153 27 0.13314921 0.065450735 0.98893249 0.0025474299
0.23977461 3.9657328 -1.9955924 32 0.13294302 0.06377127 0.98906994 0.0022559371
0.25210705 3.973922 -2.0000811 33 0.13300161 0.063376941 0.98908746 0.0022474197
0.26367709 3.9803357 -2.0036716 35 0.13282461 0.061947111 0.98920178 0.0019673463
0.27766448 4.0008831 -2.0144441 35 0.13259494 0.061501347 0.98926044 0.0019869767
0.28857782 3.9965267 -2.0126488 42 0.13277827 0.061424177 0.98924059 0.0019866216
0.30909002 3.971689 -2.0009787 42 0.13319959 0.062182244 0.98913664 0.0022116327
0.32245755 3.9903498 -2.0108533 42 0.13240947 0.060150925 0.98936826 0.0019465694
0.33032236 3.9502521 -1.9911039 50 0.13295148 0.062896468 0.98912483 0.0024953156
0.34396812 3.9634387 -1.9982854 35 0.13316916 0.060962535 0.98921663 0.0021809242
0.35599107 3.9731436 -2.0036716 35 0.13229401 0.060365096 0.98937064 0.0021811975
0.29479173 3.9297638 -1.9794338 45 0.13414976 0.064332083 0.98887068 0.0026366781
0.36889508 3.9917095 -2.0135465 35 0.13173923 0.058446217 0.98955983 0.00196059
0.38262317 4.0029845 -2.0198302 37 0.13104913 0.05748992 0.98970753 0.0019387929
0.39257693 3.9966335 -2.0171373 40 0.13132201 0.057063073 0.98969603 0.0019520579
0.41628498 3.9942338 -2.0171373 45 0.13074137 0.056035571 0.98983169 0.0018996208
0.42819944 4.0001636 -2.0207281 40 0.13025105 0.055590145 0.98992145 0.0018913074
0.43811253 3.981111 -2.0117512 35 0.13061042 0.056856003 0.98980218 0.0021431127
0.46144468 3.9820719 -2.0135465 33 0.13063709 0.056039669 0.98984516 0.0021628665
0.44791433 3.9620345 -2.002774 35 0.13099189 0.058218602 0.98967254 0.0025192422
0.50816935 3.988991 -2.0198302 35 0.12915109 0.052905764 0.99021262 0.0019002275
0.53112471 3.9805908 -2.0171373 37 0.12813812 0.052333046 0.99037457 0.0018853747
0.52417111 4.0139575 -2.0332959 45 0.12753613 0.051033374 0.99052012 0.0017987412
0.57642531 3.9706719 -2.0153418 63 0.1259988 0.051878311 0.99067295 0.0019506851
0.50255316 4.0347323 -2.0422728 40 0.12725596 0.051293824 0.99054271 0.0017812034
0.49085096 4.0325718 -2.0404775 42 0.12744023 0.051632702 0.9905014 0.0017930344
0.47874472 4.0268278 -2.0368867 35 0.12817584 0.052635297 0.9903537 0.001813808
