# .PCD v0.7 - Point Cloud Data file format
VERSION 0.7
FIELDS x y z
SIZE 4 4 4
TYPE F F F
COUNT 1 1 1
WIDTH 118
HEIGHT 1
VIEWPOINT 0 0 0 1 0 0 0
POINTS 118
DATA ascii
22.447868 -13.637789 4.3153243
22.462151 -13.743261 4.3263483
22.483238 -13.837189 4.3373728
22.503401 -13.947262 4.3496938
22.544859 -14.071182 4.36623
22.569786 -14.16898 4.3782268
22.603546 -14.278328 4.3924937
22.632696 -14.390865 4.406436
22.667227 -14.501872 4.4210267
22.692133 -14.612871 4.4343204
22.722284 -14.73348 4.4492359
22.748819 -14.841086 4.4625297
22.769981 -14.945705 4.4748507
22.817749 -15.074121 4.4930081
22.83638 -15.178202 4.5050054
22.874903 -15.301851 4.5215416
22.911839 -15.430966 4.5384021
22.935644 -15.540277 4.5516963
22.963911 -15.653172 4.5659628
22.992729 -15.77884 4.5815263
23.020708 -15.880922 4.59482
23.067961 -16.020712 4.6142745
23.08503 -16.134308 4.627244
23.112926 -16.256094 4.6424837
23.14155 -16.373007 4.6573982
23.163609 -16.491962 4.6716652
23.2054 -16.613434 4.6888499
23.231546 -16.742794 4.7047377
23.264843 -16.871899 4.7215981
23.308739 -17.009491 4.7407284
23.329365 -17.118324 4.7540226
23.346909 -17.244295 4.7686133
23.399916 -17.378311 4.7887163
23.447847 -17.522091 4.8091435
23.463657 -17.649052 4.8237343
23.500797 -17.773514 4.840919
23.46364 -17.848629 4.843513
23.366709 -17.89106 4.8350825
23.280691 -17.928547 4.8276253
23.200874 -17.976994 4.822113
23.11248 -18.122499 4.8253555
22.871178 -18.036655 4.7854738
22.871593 -18.153812 4.7974706
22.80076 -18.201607 4.7932558
22.691261 -18.224689 4.7815828
22.592686 -18.24954 4.7715316
22.494152 -18.273981 4.7614799
22.389265 -18.305836 4.7514281
22.292179 -18.33708 4.7423496
22.193745 -18.360262 4.7322979
22.09215 -18.386896 4.7222471
21.998341 -18.413048 4.7131677
21.895502 -18.431194 4.7021437
21.790812 -18.460346 4.6920924
21.692383 -18.487795 4.6826892
21.600447 -18.507282 4.6732864
21.499098 -18.531347 4.6632352
21.40078 -18.557562 4.653832
21.314663 -18.587418 4.6463742
21.207214 -18.611328 4.6356745
21.114021 -18.627617 4.6259475
21.017328 -18.653498 4.6168685
20.916254 -18.67503 4.6068172
20.822578 -18.702721 4.5983868
20.721939 -18.717138 4.587687
20.626524 -18.74896 4.5795808
20.534023 -18.756712 4.5692053
20.441578 -18.790411 4.5617471
20.301313 -18.779488 4.5435901
20.136839 -18.718855 4.5170021
20.036524 -18.736731 4.5069509
19.939157 -18.756886 4.4975476
19.902472 -18.827412 4.5011144
19.854218 -18.906914 4.5043564
19.772839 -18.934986 4.4978719
19.687653 -18.952471 4.4897661
19.598246 -18.985392 4.4829569
19.515957 -19.004965 4.4754992
19.424238 -19.028261 4.4673934
19.33255 -19.051178 4.4592872
19.2409 -19.073719 4.4511814
19.154015 -19.093937 4.4433994
19.056318 -19.11628 4.4346452
18.981192 -19.140877 4.4288087
18.889107 -19.168085 4.421351
18.806498 -19.191156 4.4145422
18.715822 -19.219038 4.4074087
18.637218 -19.232117 4.399951
18.543852 -19.256454 4.3921695
18.462706 -19.279655 4.3856845
18.373407 -19.293978 4.3772545
18.290998 -19.328669 4.3720665
18.199764 -19.346918 4.3639603
18.12005 -19.370283 4.3578
18.032932 -19.392166 4.3506665
17.950569 -19.412018 4.3438573
17.869576 -19.433014 4.3373728
17.777218 -19.448078 4.3289423
17.690819 -19.476072 4.322782
17.60726 -19.493179 4.3156486
17.535065 -19.51572 4.3104606
17.445282 -19.545786 4.3042998
17.366535 -19.560398 4.2974911
17.286221 -19.586685 4.2919788
17.200701 -19.606733 4.2851696
17.111319 -19.621986 4.2773881
16.96678 -19.559376 4.2540426
16.833094 -19.52887 4.2358851
16.742529 -19.533844 4.2268062
16.662741 -19.557896 4.2212944
16.603363 -19.605743 4.2209702
16.617193 -19.733549 4.2384791
16.543018 -19.757179 4.2336154
16.455624 -19.778713 4.2271309
16.288027 -19.681847 4.1973004
16.266224 -19.781698 4.2076759
16.215916 -19.833158 4.2089734
16.145531 -19.859987 4.2050824
