# .PCD v0.7 - Point Cloud Data file format
VERSION 0.7
FIELDS x y z
SIZE 4 4 4
TYPE F F F
COUNT 1 1 1
WIDTH 90
HEIGHT 1
VIEWPOINT 0 0 0 1 0 0 0
POINTS 90
DATA ascii
21.610806 -17.986282 -0.65278041
21.497633 -17.993944 -0.65087718
21.379992 -17.99725 -0.64883459
21.266901 -18.01651 -0.64711702
21.167698 -18.040621 -0.64572436
21.079401 -18.06085 -0.64447099
20.978771 -18.082846 -0.6430319
20.881218 -18.107025 -0.64168572
20.792898 -18.132412 -0.6405251
20.693752 -18.160717 -0.6392253
20.611652 -18.184406 -0.63815767
20.527699 -18.218937 -0.6372292
20.476536 -18.282429 -0.63732207
20.389475 -18.313709 -0.6363008
20.535597 -18.548826 -0.64247489
20.595589 -18.720842 -0.64618862
20.286098 -18.647491 -0.639736
20.246496 -18.728779 -0.64033943
20.177242 -18.756414 -0.6395967
20.052862 -18.75201 -0.63741493
19.972378 -18.788137 -0.63662571
19.898045 -18.823225 -0.63592941
19.739952 -18.7981 -0.63286555
19.56752 -18.738369 -0.62901258
19.485266 -18.757641 -0.62794489
19.391771 -18.785374 -0.62683076
19.371178 -18.863976 -0.62775922
19.246077 -18.965963 -0.62734145
19.16416 -18.997646 -0.62650579
19.078465 -19.018621 -0.62543809
18.986155 -19.045895 -0.62437046
18.903849 -19.062881 -0.62330276
18.804569 -19.082298 -0.6220029
18.720421 -19.103319 -0.62098163
18.632414 -19.133387 -0.62005323
18.667704 -19.263575 -0.62279207
18.659796 -19.376854 -0.62455612
18.645718 -19.470766 -0.62590235
18.545769 -19.474974 -0.62437046
18.457008 -19.504095 -0.62344199
18.359327 -19.516541 -0.62209576
18.188654 -19.443619 -0.61814994
18.194878 -19.566319 -0.62033176
18.11166 -19.586224 -0.61935693
18.044712 -19.623474 -0.6189391
17.939192 -19.625277 -0.61731434
17.818298 -19.616417 -0.61527181
17.691076 -19.585974 -0.61276501
17.603661 -19.592064 -0.61151165
17.509304 -19.617517 -0.61049038
17.447264 -19.651325 -0.61011899
17.106182 -19.498995 -0.60222733
17.019341 -19.516512 -0.60120606
16.936745 -19.524754 -0.60009193
16.855742 -19.555145 -0.59939563
16.775043 -19.571777 -0.59846717
16.68578 -19.584936 -0.5973531
16.60692 -19.609943 -0.59661031
16.522474 -19.621065 -0.59554261
16.354658 -19.532223 -0.59145749
16.268917 -19.554304 -0.59057552
16.195997 -19.570642 -0.58978635
16.112846 -19.595171 -0.58899719
16.115015 -19.709747 -0.59108615
15.987406 -19.78513 -0.59057552
15.827215 -19.706205 -0.58681536
15.745921 -19.717514 -0.58584052
15.746038 -19.845201 -0.58816159
15.669507 -19.86241 -0.58737242
15.586831 -19.871477 -0.58635116
15.508348 -19.899845 -0.58574766
15.434347 -19.919367 -0.58505136
15.362797 -19.941797 -0.58444786
15.374204 -20.086817 -0.58727962
15.316839 -20.12808 -0.58723313
15.240063 -20.143667 -0.58644396
15.1574 -20.158432 -0.58556199
15.079568 -20.179293 -0.58486569
15.005271 -20.197248 -0.58416933
14.945248 -20.234247 -0.58403003
14.917087 -20.314583 -0.58514416
14.837876 -20.340347 -0.58454072
14.748088 -20.351242 -0.58351946
14.677269 -20.358023 -0.58268386
14.569001 -20.342262 -0.58091986
14.485464 -20.345404 -0.5798521
14.397405 -20.341711 -0.57859874
14.319733 -20.359806 -0.57790238
14.241959 -20.385025 -0.57734537
14.177133 -20.405821 -0.57688117
