# .PCD v0.7 - Point Cloud Data file format
VERSION 0.7
FIELDS x y z
SIZE 4 4 4
TYPE F F F
COUNT 1 1 1
WIDTH 68
HEIGHT 1
VIEWPOINT 0 0 0 1 0 0 0
POINTS 68
DATA ascii
-1.4016427 10.326054 -0.97220707
-1.3075483 10.27817 -0.96663356
-1.2772149 10.298038 -0.96811986
-1.2630634 10.422154 -0.97945267
-1.2475864 10.572414 -0.99320066
-1.2373261 10.485467 -0.73830253
-1.2432153 10.535373 -0.49471605
-1.2034775 10.449247 -0.98131043
-1.1715798 10.444877 -1.2291068
-1.1711336 10.440899 -0.98019576
-1.176023 10.484488 -0.73774445
-1.1893051 10.894595 -1.2816069
-1.1356137 10.402757 -0.97629428
-1.174155 11.041528 -1.035931
-1.1080263 10.419665 -0.73272198
-1.089193 10.521946 -0.73969764
-1.0911902 10.836605 -0.76160115
-1.0797725 11.032217 -0.77513391
-0.97817159 10.328732 -0.96793401
-1.0652378 11.248083 -0.79006177
-1.0223864 11.147881 -0.78280711
-0.93436331 10.510729 -0.98446882
-0.98613036 11.09306 -0.77876127
-0.95103884 11.048064 -0.77541292
-0.91616291 11.049009 -0.77527344
-0.92763865 11.187408 -0.52350461
-0.8482613 10.565974 -0.98892766
-0.88196123 10.985743 -0.77066952
-0.89594513 11.159926 -0.52210706
-0.8006717 10.381953 -0.97146392
-0.84115642 10.9069 -0.7649495
-0.86303365 11.190573 -0.52341139
-0.76846141 10.316495 -0.96514726
-0.81141555 10.893148 -0.7638334
-0.83803946 11.250571 -0.52611327
-0.73301631 10.251197 -0.95883065
-0.77937275 10.899488 -0.76411241
-0.80080402 11.199204 -0.52359778
-0.72029853 10.511622 -0.73676789
-0.76293015 11.133764 -0.52043009
-0.67233419 10.28529 -0.96161735
-0.68024617 10.406326 -0.72923416
-0.72716886 11.124144 -0.51987112
-0.64727223 10.316827 -0.96440423
-0.65187258 10.390151 -0.72797859
-0.69628859 11.098095 -0.51856679
-0.61725461 10.32864 -0.96533304
-0.62175751 10.403989 -0.72881567
-0.661452 11.068204 -0.51707608
-0.58525532 10.338481 -0.9660762
-0.59425843 10.497519 -0.73523325
-0.56074238 10.353799 -0.96737671
-0.56709242 10.471048 -0.73328
-0.52922863 10.375398 -0.96923459
-0.53582203 10.50466 -0.73551226
-0.50120872 10.396726 -0.9710924
-0.50504118 10.476223 -0.7334196
-0.48101857 10.592825 -1.2400249
-0.47398213 10.43787 -0.97480804
-0.47822955 10.531405 -0.73718643
-0.44723666 10.582376 -1.2386311
-0.44673982 10.570621 -0.98706979
-0.44590199 10.550796 -0.738442
-0.41474566 10.555981 -0.98558354
-0.41020575 10.440432 -0.73062932
-0.38089588 10.487514 -0.97908109
-0.37915599 10.439609 -0.73048979
-0.35431811 10.460444 -0.73188496
