# .PCD v0.7 - Point Cloud Data file format
VERSION 0.7
FIELDS x y z
SIZE 4 4 4
TYPE F F F
COUNT 1 1 1
WIDTH 152
HEIGHT 1
VIEWPOINT 0 0 0 1 0 0 0
POINTS 152
DATA ascii
22.164181 -12.68841 0.59294301
22.054926 -12.718024 0.59108615
21.961021 -12.740602 0.58946139
21.952473 -12.82285 0.59025055
21.972397 -12.92724 0.59187531
22.000973 -13.016522 0.59350008
22.023525 -13.123446 0.59521765
22.0445 -13.224734 0.59684241
22.074242 -13.326545 0.5986529
22.100166 -13.426548 0.60037047
22.120983 -13.534521 0.60208803
22.124638 -13.61649 0.60315579
22.022266 -13.649063 0.60153097
22.023382 -13.745707 0.60273796
22.033043 -13.83202 0.60399133
22.056875 -13.933004 0.60570896
22.081244 -14.040228 0.60751939
22.121109 -14.152481 0.60970122
22.158031 -14.26893 0.61188304
22.168455 -14.37437 0.61341494
22.213634 -14.491938 0.61578244
22.249969 -14.604382 0.61791784
22.278275 -14.717727 0.619914
22.303698 -14.824154 0.62177086
22.337725 -14.942513 0.62395263
22.350374 -15.052825 0.62562382
22.367842 -15.155557 0.62729496
22.399778 -15.268637 0.62938398
22.42094 -15.386449 0.63133365
22.468861 -15.500229 0.63374758
22.502167 -15.627768 0.63606864
22.531088 -15.747153 0.6382041
22.55459 -15.863397 0.6402002
22.596712 -15.987526 0.64266056
22.632248 -16.113644 0.64502805
22.66477 -16.226379 0.64716345
22.681808 -16.346601 0.64911312
22.709282 -16.469002 0.65129495
22.742689 -16.596418 0.65366244
22.782988 -16.717409 0.65607637
22.822031 -16.856615 0.6587224
22.835609 -16.959219 0.6603936
22.866877 -17.087942 0.66276109
22.892973 -17.219791 0.66508216
22.937119 -17.347208 0.66768175
22.966566 -17.470509 0.66995645
22.990944 -17.60335 0.67227751
23.033575 -17.738241 0.67496997
23.048809 -17.859167 0.67696613
22.967361 -17.911814 0.67622334
22.871613 -17.933634 0.67478424
22.75696 -18.062824 0.6745522
22.717369 -18.135036 0.67487717
22.568365 -18.125984 0.67204541
22.421227 -18.111042 0.66916728
22.423328 -18.216446 0.67074561
22.314905 -18.245037 0.66921365
22.208174 -18.267979 0.66763538
22.117016 -18.296787 0.66642839
22.01038 -18.31884 0.66485006
21.911608 -18.34045 0.66341096
21.817476 -18.365513 0.66211116
21.7078 -18.390022 0.66053289
21.610531 -18.418034 0.65923303
21.518208 -18.436819 0.6578868
21.417974 -18.46142 0.65649414
21.317783 -18.485592 0.65510154
21.219364 -18.504311 0.65366244
21.119049 -18.533955 0.65236264
21.034472 -18.557432 0.65124851
20.931463 -18.57729 0.64976305
20.840456 -18.607355 0.64864892
20.744991 -18.633034 0.64739555
20.654301 -18.656046 0.64618862
20.552681 -18.681839 0.64484239
20.465635 -18.694244 0.64354259
20.36706 -18.721912 0.64228916
20.272915 -18.753218 0.64117503
20.184565 -18.76322 0.63982886
20.090834 -18.787518 0.63862187
19.99131 -18.805946 0.6372292
19.818159 -18.747654 0.63337624
19.679138 -18.740189 0.63091588
19.583406 -18.753582 0.62952322
19.498228 -18.770121 0.62836266
19.483683 -18.874411 0.62980175
19.349401 -18.95495 0.62887335
19.261744 -18.981401 0.62785202
19.169842 -19.003277 0.62669152
19.081295 -19.021444 0.62553096
18.994625 -19.054392 0.62464893
18.909479 -19.06856 0.62348843
18.8172 -19.095118 0.62242073
18.727419 -19.11046 0.62121379
18.640785 -19.141983 0.62033176
18.568911 -19.161627 0.61949617
18.465628 -19.175222 0.61805713
18.384348 -19.19783 0.61712867
18.301708 -19.218687 0.61615384
18.212381 -19.24559 0.61517894
18.12369 -19.266048 0.6141113
18.041134 -19.285921 0.61313641
17.9566 -19.31008 0.61220795
17.870026 -19.324915 0.61109388
17.784864 -19.340891 0.61002618
17.69907 -19.362585 0.60905129
17.611265 -19.388489 0.60812289
17.527569 -19.404951 0.60710162
17.456663 -19.428463 0.60640526
17.365509 -19.456409 0.6054768
17.286636 -19.470406 0.60450196
17.199684 -19.488632 0.60348076
17.11805 -19.512524 0.6026451
17.032484 -19.531582 0.60167027
16.957708 -19.54892 0.60083467
16.868797 -19.570292 0.59985983
16.793259 -19.593031 0.59911704
16.710415 -19.613853 0.59823507
16.561695 -19.55654 0.59498554
16.440048 -19.523182 0.59257162
16.363644 -19.542953 0.59178245
16.27659 -19.563524 0.59085405
16.208744 -19.586046 0.59025055
16.14539 -19.746899 0.59220028
16.06748 -19.763979 0.59136468
15.896924 -19.673155 0.58723313
15.86728 -19.75609 0.58830082
15.837003 -19.83157 0.58922929
15.747279 -19.846766 0.58820802
15.671984 -19.865547 0.58746529
15.596703 -19.884064 0.58672255
15.512034 -19.904575 0.5858869
15.439246 -19.925688 0.58523703
15.359137 -19.937048 0.58430862
15.279414 -19.962971 0.5836587
15.204233 -19.980103 0.5829159
15.129077 -19.996969 0.58217317
15.055262 -20.022594 0.5816161
14.750224 -20.087343 0.57859874
14.668192 -20.107737 0.577856
14.587349 -20.129435 0.57715964
14.525258 -20.147177 0.57664907
14.443264 -20.1667 0.57590628
14.368338 -20.180895 0.57516354
14.295753 -20.198092 0.57451361
14.21966 -20.217522 0.57386374
14.141187 -20.240786 0.57326025
14.075599 -20.259678 0.57274961
13.992575 -20.275822 0.57196045
13.929263 -20.297544 0.57154262
13.850955 -20.312353 0.57079989
13.772682 -20.326878 0.57005715
