# .PCD v0.7 - Point Cloud Data file format
VERSION 0.7
FIELDS x y z
SIZE 4 4 4
TYPE F F F
COUNT 1 1 1
WIDTH 137
HEIGHT 1
VIEWPOINT 0 0 0 1 0 0 0
POINTS 137
DATA ascii
13.108784 6.402081 1.7060215
13.128225 6.3210173 1.7039309
12.835372 6.1304126 1.3270543
13.153397 6.2823071 1.7046278
12.940797 6.1807652 2.0155051
12.526463 5.9828711 2.2807117
12.671769 6.0522723 2.6458237
12.970933 6.1479635 1.67861
12.641717 5.9919219 2.6358254
13.07505 6.1554465 1.6899928
13.165053 6.1978178 2.0450096
12.90378 6.0253615 0.99584347
12.879359 6.0139585 1.3261254
13.124924 6.1286235 1.6939418
13.317258 6.2184329 2.0656073
12.96981 6.0561943 2.3517203
13.117668 6.1252356 2.7276609
12.945899 6.0010471 0.9977966
12.928625 5.9930401 1.3294694
13.138384 6.0902734 1.6934773
13.013469 6.0323691 2.7024801
12.945665 5.9570866 0.66455925
13.024224 5.9932365 1.00254
12.869328 5.9219589 1.3216666
13.014187 5.9886174 2.3536658
13.00976 5.9371138 0.66688842
12.8869 5.8810453 0.99054193
12.944035 5.9071193 1.3274258
12.801656 5.8421435 1.9776499
12.682835 5.787919 2.2904387
13.067892 5.9196091 0.33307493
13.020827 5.8982892 0.66660887
13.095911 5.932301 1.0053303
13.121918 5.9440818 1.3439606
12.837763 5.8153634 1.9807117
12.643219 5.7272367 2.2803874
13.067405 5.9193883 2.7028503
13.091908 5.8864918 0.66940391
12.732924 5.7250824 1.9620625
12.743758 5.7299538 2.2956266
13.016756 5.8090534 0.33093953
13.073633 5.8344364 0.66763371
13.287658 5.9299502 1.3575228
12.589706 5.6184716 1.9375681
12.507401 5.5817409 2.2502329
12.710787 5.6725073 2.6224945
13.007332 5.7613473 0.33028963
12.996714 5.7566438 0.66288221
12.633988 5.5959816 1.6158886
12.489451 5.5319619 1.9197539
12.504892 5.5388012 2.2469904
13.177985 5.7874842 1.0064464
13.519525 5.9374809 1.3775876
12.586029 5.5275102 1.6075258
12.510395 5.4942932 1.9203105
12.466214 5.4748902 2.236939
13.307473 5.8443527 2.7383997
13.175269 5.7369723 0.33363199
13.223546 5.7579937 1.0085391
13.477864 5.8687329 1.3714566
12.565731 5.4715581 1.9261559
12.439931 5.4167805 2.2291572
12.635608 5.5019851 2.5965734
13.199117 5.7090406 1.0056093
13.490333 5.835001 1.3712709
12.525543 5.4176984 1.5959107
12.451315 5.3855925 2.2288332
13.129923 5.630208 0.33168229
13.266498 5.6887722 1.0093762
13.565334 5.8169155 1.3770301
12.557108 5.3845811 1.5977691
12.616115 5.409883 1.9292177
12.471801 5.3480005 2.2294815
12.297641 5.2733192 2.5210309
13.249606 5.6350503 0.33428189
13.294333 5.6540723 1.0102133
13.652167 5.8062592 1.3840899
12.521845 5.3255334 1.5912647
12.028845 5.1158609 1.8370851
13.201347 5.6145253 2.3569083
12.065449 5.1314287 2.4702995
13.413858 5.6634779 1.0181655
12.76084 5.3877664 1.6198378
12.005706 5.0689406 1.8315182
12.881466 5.4386959 2.2972479
12.064358 5.0937037 2.4673369
13.273496 5.5578723 0.33409622
13.502375 5.6537085 1.0236065
12.045672 5.0437584 1.5271494
11.985982 5.018765 1.8262296
12.171206 5.0963216 2.1678758
11.979707 5.0161376 2.4469702
13.562453 5.6288476 1.0268153
12.795575 5.3105688 1.2924985
12.040106 4.997025 1.8320749
12.008524 4.9839172 2.1361001
12.211427 5.0681286 2.4910364
13.508887 5.5652051 1.0216533
12.772608 5.2618828 1.2887828
12.162685 5.0106153 1.5382999
12.05985 4.9682503 2.142909
12.086541 4.9792466 2.4628935
12.154457 4.9626212 1.53528
11.817775 4.8251548 2.0971911
12.102124 4.9412537 2.4628935
12.878346 5.2136512 1.2962141
12.193067 4.9362235 1.5382999
12.307222 4.9824381 1.8660331
12.174123 4.9285545 2.1578243
12.021999 4.8669686 2.4436376
12.174612 4.8916969 1.5343509
12.224661 4.9118061 1.8515592
12.186983 4.8966675 2.1578243
12.056584 4.8442736 2.4480813
13.619255 5.4252653 0.68365842
12.1983 4.8592243 1.5355123
12.178464 4.8513227 1.8423737
12.120789 4.8283477 2.1435578
13.558183 5.3516479 0.67974544
12.16177 4.8004594 1.5290079
12.134693 4.789772 1.8334666
12.112034 4.780828 2.1393425
13.648414 5.3460107 0.68356526
12.130593 4.7514882 1.8309616
12.093267 4.7368679 2.1338303
13.558978 5.26191 0.67825472
12.179955 4.7267447 1.5278463
12.108531 4.6990266 1.8253945
11.892825 4.6153164 2.0958941
13.539104 5.208024 0.67648458
13.082609 5.0324259 1.3077328
12.171679 4.682023 1.5250589
11.965301 4.6026363 1.8017352
12.162671 4.6444688 1.5225035
11.895103 4.5422945 1.7894878
11.955625 4.5224233 1.7964466
13.562572 5.0843339 0.67545974
