# .PCD v0.7 - Point Cloud Data file format
VERSION 0.7
FIELDS x y z
SIZE 4 4 4
TYPE F F F
COUNT 1 1 1
WIDTH 116
HEIGHT 1
VIEWPOINT 0 0 0 1 0 0 0
POINTS 116
DATA ascii
10.085826 6.0649757 -2.2173817
10.073406 6.0168796 -2.2107162
10.278491 6.1004949 -1.3977575
10.068198 5.9756818 -2.2059021
10.144566 5.9803786 -1.9347465
10.327036 6.0879474 -1.1184191
10.079111 5.9417915 -2.2044208
10.152711 5.9470406 -1.9331253
10.178438 5.9621105 -1.6578301
10.090576 5.9106445 -2.20331
10.164521 5.9111438 -1.9318281
10.179998 5.9201446 -1.6550466
10.215616 5.9408574 -1.3819611
10.107398 5.8779235 -2.2029397
10.174835 5.8815517 -1.9308555
10.193748 5.8924837 -1.6547682
10.212215 5.9031591 -1.3794057
10.259764 5.930644 -1.1055999
10.131259 5.8563623 -2.2047913
10.203534 5.8554482 -1.932801
10.210493 5.8594418 -1.65449
10.227266 5.8690672 -1.3789412
10.26971 5.893424 -1.104671
10.304756 5.9135361 -0.83079964
10.16836 5.8352628 -2.2088647
10.217113 5.8277392 -1.9324768
10.232678 5.836617 -1.6556034
10.242595 5.8422737 -1.3789412
10.279913 5.8635592 -1.1041137
10.309803 5.8806086 -0.82996255
10.35326 5.9053955 -0.55583346
10.396455 5.9300337 -0.27787966
10.224574 5.8319945 -2.217752
10.264565 5.8121457 -1.9379888
10.261304 5.8102989 -1.6572734
10.272998 5.8169203 -1.3805673
10.301748 5.8331995 -1.1044852
10.329961 5.849175 -0.83010203
10.368283 5.8708739 -0.55564713
10.399373 5.8884783 -0.27746186
10.447425 5.9156871 0
10.297574 5.8308363 -2.2296016
10.325476 5.8086185 -1.946419
10.301654 5.7952175 -1.6611702
10.306513 5.7979512 -1.3828902
10.33188 5.8122215 -1.1059715
10.342776 5.8183513 -0.82982302
10.382895 5.8409195 -0.55555397
10.408804 5.855495 -0.27727616
10.444729 5.8757048 0
10.499422 5.9064727 0.27969009
10.634905 5.9826889 0.85326117
10.367751 5.7943411 -1.3889301
10.370671 5.7959733 -1.1083866
10.376402 5.7991762 -0.83121812
10.409632 5.8177471 -0.556113
10.425117 5.8264022 -0.27727616
10.45237 5.8416328 0
10.500169 5.8683472 0.27927232
10.559611 5.9015679 0.56412536
10.683564 5.9708433 1.1418278
10.433687 5.790628 -0.83442694
10.449557 5.7994356 -0.55732417
10.451102 5.800293 -0.27750829
10.469658 5.8105912 0
10.507047 5.8313417 0.27899379
10.557861 5.8595433 0.56310052
10.611623 5.8893814 0.84865725
10.506958 5.7905917 -0.55946702
10.498032 5.7856722 -0.27829745
10.50086 5.7872314 0
10.529552 5.8030438 0.27913305
10.573446 5.8272347 0.56300735
10.622058 5.8540254 0.84809923
10.662997 5.8765879 1.1358827
10.701187 5.897635 1.4288861
10.75772 5.9287915 1.7263032
10.565009 5.7841754 -0.27964368
10.546805 5.774209 0
10.561502 5.7822556 0.27955085
10.598442 5.8024793 0.56347317
10.638366 5.824337 0.84809923
10.667141 5.8400908 1.1345822
10.701935 5.8591399 1.4267952
10.614493 5.7728024 0.28052568
10.633909 5.7833619 0.56449807
10.656341 5.7955613 0.84823877
10.688655 5.8131356 1.1351395
10.706038 5.8225904 1.4251691
10.743689 5.8430667 1.7187879
10.783766 5.8648629 2.0167794
10.860247 5.9064579 2.3292136
10.687939 5.7717171 0.56645453
10.701579 5.7790828 0.8504709
10.719874 5.7889628 1.1366259
10.725016 5.7917395 1.4254014
10.747038 5.8036318 1.7165612
10.778547 5.8206472 2.0125642
10.850055 5.8592629 2.3232887
10.762635 5.7708769 0.85395873
10.756308 5.7674842 1.1386694
10.752657 5.7655263 1.4267952
10.772937 5.7764006 1.717953
10.800986 5.7914405 2.0135369
10.856997 5.8214736 2.3210669
10.8118 5.7559981 1.4323705
10.80926 5.7546463 1.7210146
10.825091 5.7630744 2.0148339
10.875959 5.7901554 2.3214371
10.857931 5.7368531 1.4360873
10.865811 5.7410169 1.7271384
10.857102 5.7364154 2.0174279
10.897572 5.7577977 2.3221776
10.909777 5.7253356 2.0242369
10.950152 5.7465243 2.3299541
10.989559 5.730556 2.3351383
