# .PCD v0.7 - Point Cloud Data file format
VERSION 0.7
FIELDS x y z
SIZE 4 4 4
TYPE F F F
COUNT 1 1 1
WIDTH 261
HEIGHT 1
VIEWPOINT 0 0 0 1 0 0 0
POINTS 261
DATA ascii
-13.541329 5.6062303 2.059762
-13.427896 5.6004972 2.0447314
-13.383485 5.6754394 2.0430613
-13.778171 5.8939452 1.7524818
-13.281828 5.681623 2.0302572
-13.292373 5.7273483 2.0341542
-13.856231 6.0191088 1.0563921
-13.273504 5.765974 2.0338757
-13.862069 6.0706005 1.0582057
-13.838258 6.060173 1.7666522
-13.294436 5.8220172 2.0397213
-13.806094 6.0460877 2.476229
-13.906367 6.13344 1.0628097
-13.646832 6.0189714 1.3915213
-13.75146 6.0651174 1.7575924
-13.482103 5.9463172 2.0708959
-13.79744 6.0853972 2.4775259
-14.043803 6.246829 1.0748078
-13.700637 6.0941849 1.3989526
-13.535741 6.0208378 2.0820298
-13.808909 6.1423459 2.4830379
-13.990617 6.2729621 1.072157
-13.275652 5.952394 2.0447314
-13.707787 6.1461496 2.468123
-13.763948 6.2175536 1.056113
-13.74879 6.2107058 1.4074987
-13.656062 6.168818 2.1059675
-13.943362 6.3484759 1.0713199
-13.766549 6.2679725 1.4112144
-13.128914 5.977654 1.6869729
-13.423203 6.1116452 2.0728443
-13.798635 6.3291631 1.061554
-13.398882 6.1458039 2.0717309
-13.944596 6.4462609 1.0742497
-13.662833 6.3160086 2.1154313
-13.992322 6.5187821 1.0794117
-13.891937 6.4720144 1.7922053
-13.798426 6.4284492 2.139369
-13.801351 6.4797153 1.0661579
-14.081669 6.6113243 1.4513437
-13.568789 6.3705277 1.7529465
-13.942435 6.5459542 2.1646986
-13.409071 6.2955403 2.4337535
-13.699104 6.4813871 1.0597403
-13.930587 6.5909071 1.4377815
-13.574966 6.4226542 1.7561986
-13.906838 6.5796714 2.1621935
-13.458122 6.367372 2.4460745
-14.28723 6.8054781 1.4764246
-13.651361 6.502593 1.7682784
-13.790074 6.6218958 1.4271917
-13.627285 6.5437255 1.7678137
-13.940128 6.6939507 2.1733274
-13.634715 6.5472932 2.4849834
-13.620837 6.584568 1.7692075
-14.083035 6.8080029 2.1983783
-13.624633 6.5864034 2.4862804
-13.507607 6.5793467 1.4017395
-13.670889 6.6588783 1.7782673
-13.553009 6.6542225 1.4086134
-13.685565 6.7193041 1.7829133
-13.530802 6.6873355 1.0554155
-13.7356 6.7885532 1.7917408
-14.133171 6.985045 2.215636
-13.524575 6.731318 1.0563921
-13.548898 6.7434235 1.4119575
-13.670351 6.8038716 1.7857009
-14.1668 7.0509601 2.2239864
-13.641563 6.843101 1.4238478
-13.830018 6.9376364 1.8093957
-14.114485 7.0803356 2.2192545
-14.156413 7.1509147 0
-15.025531 7.5899372 0.78502399
-13.643732 6.8919411 1.4260771
-14.069911 7.1072192 2.2153575
-14.010147 7.1292901 0.36496657
-13.545918 6.8930593 1.0628097
-14.149226 7.2000628 1.856553
-14.016986 7.1327701 2.2103474
-14.274899 7.3142681 0.37239403
-13.542597 6.9390459 1.0640652
-13.58077 6.9586053 1.4236619
-13.697697 7.018517 1.7998713
-13.975863 7.1610451 2.2070072
-14.089675 7.2722187 0.36812323
-13.965115 7.2079287 2.2086773
-13.974227 7.2652254 0
-13.975784 7.2660351 0.3657093
-13.564909 7.0524201 1.0690877
-13.625812 7.0840836 1.4327654
-13.666382 7.105176 1.8012651
-13.899734 7.2264962 2.2017186
-13.874651 7.2658324 0
-14.124207 7.3965187 0.3701658
-14.647165 7.6703796 0.7710489
-13.614621 7.1296606 1.0746683
-13.617081 7.130949 1.4340658
-13.71387 7.1816349 1.8103249
-13.778237 7.2644343 0
-14.685781 7.7429271 0.77421665
-13.589367 7.1648545 1.0742497
-13.623541 7.1828723 1.4368526
-13.981944 7.3718367 1.8484223
-13.754853 7.3043489 0
-13.624433 7.2350907 1.0787141
-13.609202 7.2270026 1.4375957
-13.708429 7.3319235 0
-14.406459 7.7052627 0.37931085
-14.116352 7.5500998 0.74654609
-13.506144 7.2237315 1.0710409
-13.587698 7.2673507 1.4375957
-13.843361 7.4040914 1.835878
-13.697994 7.3725243 0
-14.375672 7.7372637 0.37903228
-13.966357 7.5169621 0.73965174
-13.425698 7.2259688 1.0661579
-13.575642 7.3066711 1.4383389
-13.703237 7.3753452 1.8198493
-13.674765 7.4155221 0
-13.946185 7.5627069 0.73983806
-13.464315 7.3014002 1.0710409
-13.592881 7.3711185 1.4426119
-13.692222 7.4249883 1.8214754
-13.6685 7.4646912 0
-14.338671 7.8306875 0.37931085
-14.370798 7.8482327 0.76359558
-13.409323 7.3231487 1.0683901
-13.529006 7.3885102 1.438153
-13.721212 7.5432968 0
-14.247286 7.8325081 0.75819194
-13.399311 7.3663301 1.0692272
-13.553692 7.4512019 1.4429834
-13.692749 7.5276489 1.8272829
-13.544351 7.4953976 0
-13.387417 7.4085507 1.0699247
-13.534575 7.4899879 1.4431692
-13.729031 7.597599 1.8349488
-13.450424 7.4956322 0
-13.805792 7.6936712 0.73704302
-13.398489 7.4666901 1.0725756
-13.616661 7.5882726 1.4543163
-13.697753 7.6334634 1.8337873
-13.40502 7.5194659 0
-13.758118 7.7175341 0.73564553
-13.391507 7.5118861 1.0736917
-13.649257 7.6564693 1.4600755
-13.402224 7.5733533 0
-13.378261 7.5598121 1.0745287
-13.628601 7.7012753 1.4604472
-13.536339 7.6491394 1.8182231
-13.548839 7.7061963 0.72688788
-13.362302 7.6000996 1.0749472
-13.544729 7.7038589 1.453759
-13.430882 7.6888251 0
-14.371637 8.2273827 0.77226013
-13.398165 7.6700954 1.0795512
-13.517979 7.7386856 1.4532015
-13.618826 7.8533282 0.73313004
-13.51227 7.7918825 1.0907122
-13.541901 7.8089695 1.4584035
-13.423075 7.7904744 0
-13.693606 7.9474854 0.73834735
-13.504264 7.8375955 1.0918283
-13.5476 7.8627462 1.4613761
-13.511611 7.8923831 1.0942
-13.678919 8.0478544 0.74011755
-13.581326 7.9904366 1.1018733
-13.61398 8.0096483 1.4736377
-13.493978 7.989852 0
-13.37679 7.9204645 0.36092791
-13.66327 8.0900908 0.7404902
-13.837552 8.2488346 0.37401876
-13.716429 8.17663 0.74468273
-13.853836 8.2585411 1.1278228
-13.322376 7.9922361 0.36069578
-13.645572 8.1861248 0.74207401
-13.690429 8.2130346 1.1163827
-13.231855 7.9914126 0.35888535
-13.57163 8.1966209 0.73937219
-13.828243 8.3516026 1.1296363
-13.550394 8.235527 0.73946536
-13.337998 8.1064396 1.4561741
-13.507921 8.2614565 0
-13.19725 8.0714502 0.35916388
-13.52564 8.2722931 0.73937219
-13.621392 8.3308554 1.1165221
-13.350985 8.1654739 1.4600755
-13.535895 8.3305941 0
-13.358562 8.2214556 0.36417741
-13.516096 8.318409 0.74011755
-13.611668 8.3772278 1.1176382
-13.316257 8.1954193 1.458775
-13.327549 8.2023687 1.8300705
-13.400861 8.3056431 0
-13.806832 8.5572586 0.37712902
-13.511973 8.3745098 0.74132872
-13.583587 8.4188948 1.1174986
-13.244746 8.2088861 1.453759
-13.520612 8.438776 0
-13.181122 8.2268867 0.36074221
-13.573727 8.4719276 0.74617344
-13.656928 8.5238571 1.1257299
-13.258897 8.2754297 1.8277476
-13.262597 8.3228359 0.36352751
-13.552986 8.5050669 0.74617344
-13.176381 8.2687321 1.8191524
-13.123137 8.2928972 0.36041725
-13.355622 8.4398108 0.73676354
-13.541646 8.5573645 1.1201495
-13.133886 8.2996902 1.4494859
-13.187283 8.3334322 1.824263
-13.28311 8.4459877 0.73406172
-13.396476 8.5180712 1.1101046
-13.097214 8.3277874 1.4479996
-13.194132 8.3894119 1.8284444
-13.296824 8.4547091 2.2145226
-13.264522 8.4862795 0.7343412
-13.310454 8.515666 1.1049426
-13.045391 8.3460865 1.4448413
-13.249806 8.4768658 2.2106256
-13.234246 8.5223503 0.73406172
-13.330421 8.5842838 1.1087095
-13.606558 8.762105 1.5098658
-13.239584 8.5257883 2.2131307
-13.193996 8.555191 0.73331636
-13.248135 8.5902948 1.4730804
-13.128936 8.5130053 1.8298382
-13.162881 8.5350151 2.2047806
-13.153146 8.5777006 0.73229158
-13.279086 8.659831 1.1085699
-13.112175 8.5509815 1.4604472
-13.138218 8.5679655 1.8342519
-13.089064 8.5359097 2.1961517
-13.134319 8.6210709 0.73266423
-13.651105 8.9602776 1.523428
-13.061258 8.5731153 1.8270506
-13.063681 8.5747051 2.1961517
-13.165358 8.6974459 0.73583186
-13.517118 8.9298296 1.1328452
-13.272216 8.7680407 1.4840417
-13.126925 8.6720562 1.8398272
-13.049748 8.6210718 2.1981001
-13.169304 8.7529774 0.73741573
-13.372492 8.8880262 1.1228002
-13.252654 8.8083763 1.484599
-13.116704 8.7742405 0.73592502
-13.389177 8.9565067 1.1264275
-13.07582 8.8064747 0.73517972
-13.18722 8.8815012 1.1117786
-13.095727 8.8698063 0.73760206
-13.342327 9.036829 1.1268461
-13.238329 8.9663906 1.8697941
-13.115574 8.9401312 0.74021071
-13.409424 9.1404314 1.1347984
-13.067658 8.9677229 0.73909271
-13.150082 9.0242863 1.4879432
-13.09504 9.0336609 0.74188769
-13.060916 9.0101204 1.1095465
-13.12895 9.118062 0.74542809
-13.07679 9.0818367 1.1133133
-13.141508 9.2978191 1.501877
