# .PCD v0.7 - Point Cloud Data file format
VERSION 0.7
FIELDS x y z
SIZE 4 4 4
TYPE F F F
COUNT 1 1 1
WIDTH 380
HEIGHT 1
VIEWPOINT 0 0 0 1 0 0 0
POINTS 380
DATA ascii
2.8534513 13.412936 -0.63949734
2.9057035 13.450772 -0.64173335
2.9376965 13.417235 -0.64052218
2.9706967 13.388906 -0.95901203
2.9716885 13.393375 -0.63977683
2.9997103 13.321605 -0.63679552
3.2212601 14.132763 -1.6951034
3.0668285 13.455218 -0.96501106
3.0332417 13.307862 -0.63651597
3.2339189 14.188301 0.67862743
3.152719 13.645081 -1.6377249
3.0907013 13.376666 -0.6402427
3.1954596 13.645337 -1.6388865
3.0957611 13.219602 -0.63316202
3.2383094 13.635231 -1.6388865
3.1483529 13.25646 -0.63539797
3.1740551 13.200613 -0.94938558
3.3914604 13.93347 -1.6769838
3.1873174 13.094769 -0.94240993
3.2133663 13.201789 -0.63362783
3.4218538 13.878984 -1.671641
3.2377009 13.132063 -0.63073969
3.4653037 14.055217 0.33609232
3.4573166 14.022821 1.0099342
3.475085 14.09489 1.3543645
3.5076735 14.068507 -1.695568
3.3131497 13.288315 -0.63865888
3.4290297 13.57132 -0.97882283
3.3847308 13.395994 -0.64434201
3.3605573 13.300321 0.31849855
3.5227435 13.942217 0.67061508
3.5704091 13.956367 -1.6846498
3.4648354 13.543689 -0.97756726
3.4128935 13.340654 0.31970552
3.4763005 13.441855 -0.97087055
3.4617541 13.38561 0
3.4392946 13.298765 0.31891635
3.5501957 13.561477 -1.639351
3.4231961 13.076347 -0.9452002
3.5381277 13.515378 -0.6515159
3.4943614 13.348193 0
3.4964583 13.356203 0.32054108
3.5848255 13.529759 -1.6367958
3.6788232 13.884523 -1.3400592
3.4660714 13.08156 -0.94631636
3.5462487 13.384164 0
3.5365875 13.347701 0.32058752
3.6979516 13.956717 0.6733169
3.6067684 13.460645 -1.3001156
3.471087 12.954274 -0.93780601
3.6043139 13.451484 0
3.5805728 13.362881 0.32119098
3.6923251 13.779946 1.3309557
3.6522901 13.470545 -1.6321497
3.6472099 13.451808 -1.3003014
3.6300757 13.388613 0
3.7139769 13.538865 -1.3097764
3.5341761 12.883423 -0.93417865
3.5859983 13.072334 -0.63213718
3.6740212 13.393211 0
3.6984951 13.336348 -1.618444
3.7528322 13.532281 -1.310148
3.4842963 12.563972 -0.91171712
3.6673343 13.223986 -0.63996321
3.7028539 13.352065 0
3.7581537 13.551469 1.3120058
3.6724551 13.100265 -1.5910324
3.7992113 13.552425 -1.3131205
3.5392983 12.625272 -0.91687912
3.681603 13.132896 -0.63605016
3.6618505 13.062436 0
3.7590914 13.40931 0.32332638
3.6767497 13.115584 0.63521165
3.7787855 13.479563 1.3060607
3.7140086 13.098867 -1.5921938
3.9665072 13.9894 -1.356594
3.6115651 12.737561 -0.92580789
3.7044017 13.064985 0
3.7781262 13.325003 0.32156238
3.8236434 13.485537 1.3077328
3.6948214 12.885381 -1.5675699
3.648246 12.722954 -0.92552888
3.7236707 12.985991 -0.62999427
3.965317 13.828712 0
3.8493717 13.424362 1.3029025
3.7612481 12.971663 -1.5794172
3.6754208 12.675666 -0.92287815
3.693749 12.738875 -0.6185348
4.002429 13.803441 0
3.9478321 13.615149 2.3290236
3.726512 12.710731 -1.5489858
3.9261658 13.391728 -1.3019735
3.7422059 12.76426 -0.93013281
3.68151 12.557234 -0.61024296
3.8909636 13.271657 -0.32109815
4.0962839 13.971984 0.33804205
4.0226822 13.720935 0.66679525
3.9854395 13.593905 2.3274024
3.93626 13.297121 -1.6216961
3.7886331 12.798421 -0.93334162
3.8510363 13.009226 -0.63269615
3.929666 13.274846 -0.32142311
4.0857062 13.801967 0
4.0846729 13.798476 0.67108095
4.109303 13.881679 1.3506489
4.0030866 13.522869 2.3170266
4.0408626 13.503134 -1.3149784
3.8546209 12.880779 -0.94017774
3.717221 12.421638 -0.60465294
3.982224 13.307184 -0.32249081
4.0756121 13.619253 0
4.2774372 14.293681 0.34639794
4.1333489 13.81219 1.3450754
4.0669594 13.59034 2.3306446
3.8608847 12.755679 -1.5585101
4.021534 13.286436 -1.2950995
3.9193408 12.948809 -0.94603729
3.9402733 13.017965 -0.63427997
4.1398563 13.677352 -0.33177513
4.0129247 13.257992 0
4.3124709 14.247641 0.34560874
3.991205 13.186234 0.6424787
4.0933156 13.52359 0.98803067
4.1305671 13.646662 1.3302126
4.1462231 13.698387 2.3513961
3.9343152 12.876613 -1.5745389
3.8815186 12.703815 -0.61946648
4.082098 13.360291 0
4.0128679 13.133707 0.64042902
4.1677642 13.640667 0.99737805
4.1662779 13.635801 1.3302126
3.973093 12.866779 -1.5747713
4.0528202 13.124973 -0.96054661
3.8956203 12.615885 -0.61573976
4.0268164 13.040761 -0.31687379
4.1181846 13.336655 0
4.324728 14.005541 0.34031671
4.092494 13.253456 0.6468575
4.2152863 13.651116 0.99905223
4.1791077 13.533953 1.3214808
4.3833551 14.195404 1.7373823
4.2569146 13.785929 2.0277522
4.0165749 12.872002 -1.576862
4.1789069 13.392229 -1.3088475
3.9544566 12.672929 -0.61909384
4.1523724 13.307194 0
4.1008515 13.142084 0.64201283
4.2837005 13.728064 1.0056093
4.1984816 13.45496 1.3149784
4.4047413 14.115966 1.7292516
4.287322 13.739669 2.3646901
4.0465326 12.84179 -1.5745389
4.0635843 12.895903 -0.94547927
4.0570765 12.87525 -0.62952852
4.0549827 12.868606 -0.3132529
4.1859083 13.284102 0
4.134531 13.121055 0.64154702
4.1954989 13.314539 0.97617209
4.234839 13.439384 1.3146068
4.3096571 13.676823 2.3559356
4.113987 12.914187 -1.5849925
4.1095257 12.900182 -0.94673485
4.0641499 12.757744 -0.62440431
4.1912789 13.156814 -0.32058752
4.2312608 13.28232 0
4.3182349 13.555341 0.66344124
4.2270098 13.268976 0.97380042
4.2885208 13.462066 1.3181367
4.4667177 14.021442 1.7208889
4.432272 13.913314 2.3990595
4.18045 12.9972 -1.5966076
4.1724472 12.972319 -1.2713192
4.0245228 12.512414 -0.61294478
4.290998 13.340899 0
4.41786 13.735317 0.67285109
4.2646623 13.259019 0.9739399
4.3200045 13.431081 1.3162788
4.457809 13.85952 1.7025371
4.4172187 13.733323 2.0274739
4.4215612 13.746824 2.3724718
4.2047687 12.940942 -1.2694613
4.3489943 13.384822 -0.98412436
4.0702767 12.527018 -0.61424911
4.2163296 12.976522 -0.31678095
4.3812447 13.484079 0
4.3732681 13.45953 0.32857203
4.337595 13.349738 0.65459037
4.3409791 13.360154 0.98231065
4.3850698 13.495852 1.3238959
4.5185585 13.906687 1.7099707
4.411437 13.577002 2.0063195
4.370398 13.323985 -1.6398157
4.2999191 13.109117 -0.96473205
4.1276565 12.583942 -0.61760312
4.3422856 13.238279 -0.32346568
4.3971248 13.405467 0.32755077
4.3287778 13.197099 0.64769602
4.3764029 13.342293 0.98189211
4.4047389 13.42868 1.3185081
4.4919243 13.694481 2.0255256
4.5486426 13.867398 2.3977625
4.2961373 12.967549 -1.2744775
4.4140868 13.323569 -0.98147357
4.2102108 12.708185 -0.62431115
4.4154987 13.327831 -0.32597244
4.3387833 13.096272 0.32030898
4.5174475 13.635555 0.66986978
4.5891438 13.851965 1.0203977
4.4940357 13.564888 1.3331851
4.5393853 13.701774 2.0285873
4.5605946 13.765792 2.3825233
4.3598723 13.030281 -1.2819088
4.4010582 13.153373 -0.96989399
4.428381 13.235031 -0.32402274
4.3356519 12.957894 0
4.6625137 13.93478 1.0275128
4.5987177 13.744115 1.3521352
4.6227241 13.815862 1.7036985
4.3946357 13.134177 1.9464751
4.3552299 12.904045 -1.5926585
4.3895111 13.005616 -1.2806083
4.4437709 13.166382 -0.97170764
4.2709007 12.654187 -0.6228205
4.4348793 13.140038 -0.32198018
4.3779726 12.971429 0.31784865
4.6849408 13.880939 1.0244436
4.5639963 13.522595 1.3315132
4.6601472 13.807479 1.7041632
4.6834788 13.876609 2.406193
4.3829193 12.867388 -1.5896386
4.3679433 12.823421 -0.94729292
4.4363399 13.02422 -0.64164019
4.429553 13.004296 0
4.4141765 12.959153 0.31784865
4.5503559 13.358949 0.65813071
4.7925148 14.06988 1.0393715
4.5400996 13.328838 1.3136778
4.515439 13.25644 1.9681861
4.7101188 13.827981 2.4000323
4.3974695 12.77842 -1.5803465
4.5715866 13.284381 -1.3107053
4.3621163 12.67569 -0.93738753
4.4934902 13.057444 -0.64396936
4.5140781 13.11727 -0.32207301
4.5484858 13.217253 0
4.4926076 13.054878 0.32054108
4.6547151 13.52594 0.66707474
4.9470644 14.375466 1.0630887
4.539187 13.190231 1.301416
4.555778 13.238442 1.9676294
4.7708807 13.8635 2.4087868
4.4421558 12.777678 -1.5819726
4.5400581 13.05929 -1.2898976
4.5191851 12.999249 -0.96236032
4.5506663 13.089804 -0.32174805
4.5991783 13.229346 0
4.5040503 12.955714 0.31845212
4.8709974 14.011223 1.0372788
4.557714 13.110076 1.2949136
4.7180781 13.571357 1.6802361
4.5732799 13.15485 1.9573307
4.8144078 13.848445 2.4087868
4.4773097 12.778031 -1.5833664
4.6055427 13.144002 -1.2993726
4.5568771 13.005113 -0.96361595
4.6018162 13.133367 -0.32309431
4.6248808 13.199193 0
4.5773525 13.063548 0.32137668
4.9006324 13.986175 0.69111174
4.8062615 13.716845 1.0163518
4.5811782 13.074467 1.2924985
4.6960511 13.402309 1.6607227
4.8893509 13.953977 2.429214
4.5731006 12.921205 -1.6028796
4.5730791 12.921144 -0.95845395
4.5746036 12.925451 -0.63940418
4.6317096 13.086802 -0.32230511
4.6923461 13.25813 0
4.6116962 13.030255 0.32091245
5.0231981 14.192946 0.70210546
5.0476937 14.262157 1.0579267
4.8261981 13.636326 1.3495342
4.6988831 13.2766 1.97932
4.878509 13.78413 2.402302
4.6374869 12.980533 -1.6119394
4.5638709 12.774479 -0.63260299
4.6301603 12.960027 -0.31951982
4.7370501 13.259214 0
4.794971 13.421338 0.3308931
5.0498323 14.134707 0.69996268
5.2000751 14.555243 1.0808067
4.7306371 13.241264 1.31182
4.6628833 13.051619 1.6207669
4.6768379 12.983301 -1.6137979
4.7625852 13.221342 -1.3110769
4.4348907 12.311635 -0.91506547
4.5377145 12.597083 -0.62440431
4.7081175 13.070135 -0.32253724
4.782589 13.276875 0
4.8280563 13.403096 0.33075386
4.9210448 13.661241 1.0153753
4.7504373 13.187619 1.3077328
4.6835699 13.00199 1.6161209
4.7414145 13.162571 1.9662377
4.8945556 13.587704 2.3727961
4.7372942 13.022682 -1.6205347
4.7836723 13.150175 -1.3055034
4.4926419 12.350141 -0.91897178
4.6366835 12.746106 -0.63250983
4.827692 13.271183 0
5.0819798 13.970213 0.69325465
4.7537193 13.067834 1.2973288
4.8152394 13.236951 1.9795984
4.757431 12.958218 -1.6142625
4.8315945 13.160223 -1.3079185
4.8147459 13.114332 -0.32434767
5.1076117 13.912035 0
5.0786715 13.833208 0.34212714
5.1206574 13.947569 0.69288194
4.9851527 13.578484 1.0114689
4.7911024 13.049932 1.2969574
4.8797517 13.291393 1.9898971
5.0098171 13.645664 2.73877
4.8770881 13.177411 -1.310891
4.610024 12.45583 -0.61937332
4.849061 13.101684 -0.32434767
5.0315533 13.59476 0
5.1572018 13.93425 0.34495884
5.2112412 14.080259 0.70014894
5.0213747 13.567258 1.0116084
4.9928985 13.490318 2.0216286
4.814014 12.889402 -0.64164019
4.9627585 13.287662 -0.3293148
5.2062092 13.939494 0.3454695
5.1182089 13.703876 1.3647684
5.0862508 13.618309 2.0430613
4.8756847 12.944115 -1.2904549
4.7788663 12.687078 -0.63223034
5.2479386 13.932385 0.3456552
5.0544181 13.418621 1.0026796
4.9717026 13.088117 -1.6372603
4.9292045 12.976238 -0.64732337
5.3677649 14.13076 0.35094726
5.1173739 13.471599 1.007702
5.2263541 13.758492 1.7211212
5.2269359 13.760024 2.0686691
4.6517787 12.130958 -0.9085083
5.367034 13.996209 0.34802267
5.1653891 13.470357 1.0088181
5.2439513 13.675232 1.7127583
4.7057462 12.163623 -0.91199613
4.8916044 12.644038 -0.63223034
5.3926644 13.939199 0.3470014
5.1830153 13.397289 1.0044932
5.302537 13.706234 1.371085
5.3587728 13.851595 2.0873184
5.2007866 13.325583 -1.6728024
4.7650313 12.20908 -0.91646057
5.0213509 12.865828 -0.64406252
5.2478623 13.446201 0
5.4710784 14.01813 0.34936893
5.4295669 13.91177 0.69642228
5.2350788 13.413447 1.0068649
4.8116364 12.240108 -0.91966939
4.9599457 12.617386 -0.63223034
5.2982607 13.47801 0
5.4621534 13.894931 0.34663004
5.4957018 13.980272 0.70052165
5.2481365 13.221555 -1.6635103
5.0789137 12.795233 -0.96263933
5.013556 12.630578 -0.63372099
5.5089426 13.878599 0.34667647
5.253222 13.133994 -1.6542183
5.0094028 12.524403 -0.94324702
5.5348597 13.838139 0.34602657
5.3063517 13.1469 -1.6579353
5.269475 13.055535 -1.3134921
5.0524564 12.517856 -0.94394457
5.1808639 12.733435 -0.64108121
5.5248966 13.578993 2.0603187
