# .PCD v0.7 - Point Cloud Data file format
VERSION 0.7
FIELDS x y z
SIZE 4 4 4
TYPE F F F
COUNT 1 1 1
WIDTH 77
HEIGHT 1
VIEWPOINT 0 0 0 1 0 0 0
POINTS 77
DATA ascii
9.5220098 13.251288 -2.2932944
9.5392389 13.19248 -2.2880058
9.4879417 13.121537 -1.132287
9.5789127 13.160084 -1.9034777
9.667696 13.209244 -2.3005316
9.556284 13.057018 -1.1314501
9.604599 13.03689 -2.2757587
9.5096273 12.907979 -1.8749046
9.6114607 13.046204 -1.1331242
9.6078539 12.960608 -2.2674084
9.5798225 12.922794 -1.8811768
9.6631947 13.035259 -1.1346588
9.6204424 12.906827 -2.262398
9.6076832 12.889708 -1.8800154
9.6503811 12.867133 -2.2604496
10.02014 13.360142 -1.952958
9.8787222 13.171586 -1.5360612
9.7022772 12.936327 -0.75409263
10.132726 13.427077 -1.9671284
9.729784 12.893131 -0.75325406
9.8249102 12.943855 -2.2838306
10.122139 13.33544 -1.9578363
9.5978527 12.644718 -0.74030393
9.8538113 12.90692 -2.2821608
10.164165 13.313435 -1.9587654
9.8858595 12.864908 -2.2802122
10.175677 13.242061 -1.952958
9.8318615 12.794638 -1.5054069
9.9156952 12.829412 -2.2788205
10.130017 13.106712 -1.9371616
9.9637585 12.8916 -1.5200837
9.9415569 12.784303 -2.276037
10.14081 13.040532 -1.9318185
10.064308 12.942154 -1.5295588
9.9706879 12.738969 -2.2735319
10.070316 12.866258 -1.9106791
10.354077 13.228803 -1.5672729
9.8609247 12.598731 -1.1187543
9.8422585 12.574882 -0.74468273
10.007676 12.717492 -2.2743671
10.000774 12.70872 -1.8911659
10.349264 13.151573 -1.5613278
10.442916 13.270583 -1.1808376
10.050525 12.698815 -2.276037
10.011566 12.649592 -1.8865197
10.408193 13.150729 -1.5646718
9.968565 12.595261 -1.1232188
9.9857779 12.617009 -0.75036597
10.121218 12.70591 -2.2829957
10.041352 12.605649 -1.8846612
10.028845 12.589948 -1.5016911
9.9857063 12.535792 -1.1207075
10.085112 12.660583 -0.75483793
10.068115 12.571563 -1.8834999
10.033144 12.527896 -1.4974182
10.060898 12.562551 -1.125451
10.113796 12.547601 -1.8846612
10.071205 12.494761 -1.4972323
10.181702 12.631846 -1.1345192
10.187258 12.562287 -1.8913981
10.096938 12.450911 -1.4955603
10.485957 12.85706 -1.9401814
10.151809 12.447353 -1.4985328
10.157187 12.453949 -1.1237768
10.210522 12.448212 -1.5020627
10.232413 12.474901 -1.1282413
10.308348 12.567476 -0.75800562
10.548457 12.782662 -1.9380907
10.277834 12.45472 -1.5065215
10.280814 12.458332 -1.1294968
10.421887 12.629285 -0.76359558
10.610444 12.78035 -1.9425044
10.37071 12.491589 -1.5146961
10.350866 12.467686 -1.1331242
10.659781 12.762528 -1.9445951
10.092373 12.083194 -1.1008967
10.345814 12.169195 -1.4901725
