# .PCD v0.7 - Point Cloud Data file format
VERSION 0.7
FIELDS x y z
SIZE 4 4 4
TYPE F F F
COUNT 1 1 1
WIDTH 62
HEIGHT 1
VIEWPOINT 0 0 0 1 0 0 0
POINTS 62
DATA ascii
17.57531 -18.900051 -1.8047395
17.503498 -18.928549 -1.8027864
17.424915 -18.94945 -1.8001356
17.348421 -18.978979 -1.7980429
17.257858 -18.99942 -1.7948341
17.179323 -19.019407 -1.7921833
17.105473 -19.037603 -1.7896721
17.010363 -19.0585 -1.7863238
16.98955 -19.13579 -1.7893931
17.112244 -19.389555 -1.8083669
17.091478 -19.482235 -1.8122733
16.918344 -19.50354 -1.8054371
16.838753 -19.535437 -1.803484
16.759464 -19.553602 -1.8008332
16.67679 -19.574387 -1.7981824
16.59543 -19.596376 -1.7956711
16.517509 -19.615171 -1.79316
16.440897 -19.635218 -1.7907882
16.278322 -19.565607 -1.7797667
16.176163 -19.546677 -1.7741863
16.0944 -19.572739 -1.7719539
16.019472 -19.592896 -1.7697217
15.950854 -19.620523 -1.7681872
15.961537 -19.753115 -1.7758604
15.886616 -19.780165 -1.7740467
15.807663 -19.794828 -1.7713959
15.638749 -19.709982 -1.7593979
15.614541 -19.792736 -1.7628856
15.572754 -19.853531 -1.7644203
15.48823 -19.874029 -1.761909
15.413119 -19.89197 -1.7596768
15.333158 -19.903324 -1.7568865
15.052282 -19.666218 -1.7317743
14.981598 -19.687534 -1.7299606
14.903691 -19.699064 -1.7273098
14.823597 -19.714495 -1.7247986
14.750704 -19.73921 -1.7231245
14.670538 -19.746695 -1.7201947
14.605856 -19.774746 -1.7190785
14.531682 -19.789726 -1.7168463
14.461209 -19.823997 -1.7158698
14.499541 -20.008268 -1.7278678
14.555619 -20.189289 -1.740424
14.551369 -20.317642 -1.7475393
14.491102 -20.353323 -1.7471206
14.424988 -20.380682 -1.7460045
14.308214 -20.343428 -1.7391684
14.260228 -20.411175 -1.7411215
14.114102 -20.45192 -1.7376338
14.028902 -20.442736 -1.7337275
13.947953 -20.454599 -1.7312162
13.675704 -20.320934 -1.7128004
13.606924 -20.333454 -1.7108473
13.533277 -20.353802 -1.7091731
13.448378 -20.364582 -1.7065223
13.378861 -20.367367 -1.7040112
13.276655 -20.350817 -1.6991283
13.184745 -20.341566 -1.6950823
13.096554 -20.329664 -1.6910363
13.012518 -20.331465 -1.6879672
12.936076 -20.344728 -1.6858745
12.867491 -20.362223 -1.6843399
