# .PCD v0.7 - Point Cloud Data file format
VERSION 0.7
FIELDS x y z
SIZE 4 4 4
TYPE F F F
COUNT 1 1 1
WIDTH 504
HEIGHT 1
VIEWPOINT 0 0 0 1 0 0 0
POINTS 504
DATA ascii
-0.18129627 11.168411 1.3062308
-0.14675699 11.210638 1.3111091
-0.11705528 11.177216 1.30716
-0.050870586 11.20972 1.5754397
-0.021536646 11.215755 1.5762746
0.048879158 12.177022 1.1360685
0.044148359 10.998462 1.8069955
0.083315261 12.24056 1.1420135
0.074940391 11.010136 1.8089409
0.11763847 11.824066 1.1031847
0.11227066 11.284537 1.5860168
0.18410227 11.590539 0
0.18257883 11.494629 1.0725304
0.17436373 10.977429 1.803753
0.21150255 11.539942 1.0768034
0.20468578 11.168007 1.3062308
0.20382452 11.121016 1.8274226
0.24937735 11.614873 1.0838631
0.23740342 11.057181 1.8170469
0.23575135 10.980235 2.0692599
0.27745387 11.434635 0
0.27148554 11.188664 1.8387711
0.32248044 11.765582 0
0.31704867 11.567406 1.0795902
0.3090862 11.276898 1.5854601
0.30448002 11.108844 1.8258014
0.3529121 11.684672 0
0.34994334 11.586379 1.081448
0.35370186 11.71082 1.3701137
0.33918732 11.230254 1.8459044
0.37373698 11.325836 0
0.39819443 12.067002 1.1264077
0.39164799 11.868617 1.3886977
0.37434554 11.344278 1.5952022
0.38181052 11.570499 1.901998
0.43008137 11.899022 -0.27644059
0.40845263 11.300622 0
0.36391765 10.068477 0.4698405
0.43121436 11.930368 1.1137744
0.42075604 11.641019 1.3622155
0.40998605 11.343046 1.5952022
0.4259319 11.784219 1.9373404
0.38482502 9.9718885 0.23169017
0.38337556 9.934329 0.69519305
0.42204273 10.936303 1.5381413
0.45906654 11.895693 2.2429326
0.49877891 11.95039 0.83638012
0.47494742 11.379405 1.8711952
0.53434992 11.904804 -0.27667272
0.46251714 10.304438 0.72128195
0.49261478 10.974984 1.5439866
0.50538814 11.259562 1.8517407
0.46625227 9.8503141 0.22895129
0.48107955 10.163564 0.47449884
0.48891902 10.329185 0.7230956
0.52962387 11.189139 1.3099477
0.53216386 11.2428 1.5818416
0.53215075 11.242522 1.8491467
0.55282062 11.679207 2.2029397
0.50304073 9.9646225 0.23164375
0.53617233 10.620919 0.49592721
0.57206649 11.331938 2.1377661
0.63309997 11.88194 -0.27625489
0.56388855 10.582989 0
0.53288484 10.001115 0.23252577
0.5321309 9.9869642 0.46639329
0.53013772 9.9495573 0.69672769
0.59199148 11.11042 1.3011202
0.59770703 11.21769 1.5787798
0.59622633 11.189899 1.8410407
0.59324962 11.134033 2.1007359
0.56182182 10.017554 0.23294355
0.56304127 10.039298 0.46890885
0.61712337 11.003608 1.2888082
0.61262035 10.923317 1.5375845
0.6274755 11.18819 1.8410407
0.62929523 11.220638 2.1173995
0.61311781 10.381107 -0.2414387
0.62931973 10.655433 0
0.58659387 9.9320126 0.23099385
0.61815333 10.466367 0.48893967
0.60520202 10.247079 0.71779412
0.648601 10.981896 1.2864852
0.62926722 10.654544 1.5000079
0.66907722 11.328593 2.1381364
0.64510518 10.369152 -0.24120659
0.65434474 10.517665 0
0.61443919 9.8762388 0.22974047
0.62535042 10.051622 0.46965417
0.69247067 11.130486 1.3041401
0.68376368 10.990532 1.547605
0.69225544 11.127026 1.8316377
0.68611133 11.028268 2.0818503
0.767102 11.830274 -0.55285215
0.64818347 9.9963083 0.23257218
0.65192032 10.053938 0.4698405
0.71864969 11.083041 1.2987971
0.69446313 10.710034 1.5083581
0.72146517 11.126461 2.1007359
0.70576215 10.379229 -0.24153154
0.74027991 10.886861 0
0.68677187 10.09995 0.23503253
0.68905741 10.133562 0.47366032
0.74888051 11.013345 1.2908989
0.7465117 10.978508 1.5464916
0.80385673 11.821848 1.9467432
0.70391703 9.9664803 0.2319687
0.71009839 10.054001 0.47002679
0.76100612 10.774783 0.75532305
0.77015674 10.904344 1.2783546
0.75362629 10.670295 1.5033479
0.82132012 11.628744 1.9152919
0.77182961 10.928028 2.0640757
0.76269335 10.361167 -0.24120659
0.73685938 10.010213 0.23303641
0.73816442 10.027942 0.46890885
0.77158791 10.481998 0.9805674
0.80389112 10.920837 1.5389763
0.79876548 10.851206 2.0500042
0.79251903 10.346896 -0.24092805
0.79710013 10.406706 0.24232072
0.7746309 10.113355 0.47300816
0.77876431 10.167318 0.71305066
0.80420899 10.499517 0.98242515
0.85002267 11.097648 1.3015847
0.83493227 10.900631 1.5364712
0.89272457 11.65515 1.9204798
0.83111131 10.850746 2.0503745
0.82390612 10.330404 -0.2406031
0.83503354 10.469924 0.24385263
0.8157683 10.22837 0.47850499
0.80990702 10.15488 0.71235311
0.81074905 10.165438 0.95139927
0.88377506 11.081061 1.2999587
0.86743927 10.876238 1.5334094
0.92933363 11.652289 1.9204798
0.86706883 10.871593 2.0548182
0.87058818 10.544122 0
0.85883665 10.401793 0.24232072
0.84777862 10.267863 0.48046148
0.86321402 10.454809 0.73355907
0.89657003 10.858801 1.2741733
0.89014661 10.781003 1.5203271
0.9691751 11.738156 1.9350706
1.0137618 11.873702 -0.83331078
0.98267287 11.509573 -0.53869081
0.92776519 10.866467 0
0.89689863 10.504941 0.24478106
0.88765681 10.396696 0.7296527
0.94797844 11.103213 1.0396466
0.92368257 10.818648 1.2697594
0.9987641 11.698042 1.92891
0.97408843 11.409028 2.1573923
1.0507048 11.866485 -0.83303177
1.0252998 11.579564 -0.26989514
0.93888831 10.603646 0.24714857
0.9419983 10.63877 0.49807003
0.91855299 10.373983 0.7282576
0.9763549 11.026788 1.0327727
0.9587149 10.827565 1.2711533
0.95987207 10.840633 1.5295125
1.0113107 11.421574 2.1603546
1.0838543 11.909582 -0.83624065
1.0903913 11.981412 -0.56105083
1.053408 11.575034 -0.2698487
0.98390502 10.811322 0
0.96769291 10.633181 0.24789131
0.96943784 10.652354 0.49881536
0.92997366 10.218715 0.71751505
0.99896228 10.976774 1.0283139
0.98894793 10.866735 1.2760316
1.0231539 11.242596 1.5865735
0.95264447 10.467825 1.7269078
1.0474082 11.509106 2.1773887
1.0845209 11.515928 -0.26854891
1.0180556 10.810168 0
0.98497373 10.458891 0.24389905
1.0190108 10.820312 0.50682771
0.95477945 10.138275 0.71207404
1.0224291 10.856609 1.0173526
1.0286726 10.922905 1.2830007
1.0265318 10.900174 1.538698
0.98293787 10.437273 1.7223685
1.0763763 11.429444 2.1629469
1.0965152 11.284531 -0.52872193
0.98389918 10.125568 -0.23619308
1.0334886 10.635907 0
1.0276023 10.575329 0.24668434
1.0737549 11.050298 1.2983326
1.0603992 10.91285 1.5409247
1.0106548 10.400917 1.7168564
1.1329014 11.65899 2.2070131
1.1631706 11.653497 -0.818941
1.0550846 10.570613 0.24663793
1.1060117 11.080838 0.51931208
1.025849 10.277709 0.72225851
1.1042573 11.063262 1.3001909
1.1887132 11.54234 -0.54111314
1.1240302 10.914272 0
1.1001713 10.682604 0.24933039
1.1578083 11.242255 0.52704489
1.0401487 10.099788 0.70998138
1.0424644 10.122272 0.94935566
1.1371797 11.041954 1.2981002
1.1250621 10.924293 1.5434297
1.0707463 10.396889 1.7171807
1.1813092 11.470449 2.1725748
1.1692679 11.050588 -1.2994941
1.228531 11.610676 -0.81642979
1.2077007 11.413812 -0.53524363
1.0734071 10.144621 -0.23684298
1.1210467 10.594856 0
1.084137 10.246028 0.23921047
1.1349654 10.7264 0.50300789
1.0721306 10.132557 0.71249264
1.1581897 10.945889 1.2871821
1.2174758 11.506195 2.1799808
1.2035459 11.042911 -1.2990296
1.2452818 11.42585 -0.53598899
1.1122023 10.204804 -0.23832846
1.1515068 10.565435 0
1.1137187 10.218719 0.23865341
1.172552 10.758532 0.50468493
1.1071981 10.158889 0.7145853
1.0999246 10.092153 0.94712621
1.1337075 10.402122 1.719126
1.2913945 11.567717 -0.81391853
1.2658788 11.33916 -0.53207594
1.2882094 11.539187 -0.2695702
1.2115583 10.852582 0
1.1568818 10.362815 0.2420886
1.1854177 10.618425 0.49825636
1.1272242 10.097155 0.94786936
1.1839633 10.605398 1.2479231
1.2197636 10.926082 1.5450999
1.2859029 11.518526 2.1836839
1.2717649 11.093248 -1.3057662
1.2889016 11.242727 -0.79131746
1.3140835 11.462381 -0.53803861
1.1665342 10.175351 0
1.1794285 10.287825 0.24041744
1.2212443 10.652572 0.50002652
1.2518548 10.919579 1.2853237
1.2600751 10.991282 1.5548421
1.3482825 11.760691 2.2303421
1.3332603 11.349539 -0.53291446
1.3094223 11.146616 1.047078
1.2529022 10.665482 1.2558213
1.3712096 11.397783 -0.8027575
1.3601798 11.306101 -0.5310511
1.3137654 10.920295 -0.25536519
1.3473791 11.199698 0.7888062
1.3386449 11.127098 1.0455917
1.2784134 10.626442 1.2516401
1.241339 10.318272 1.7074534
1.3409319 11.146109 2.1151776
1.4082556 11.403479 -1.0719731
1.3950313 11.296394 -0.79592139
1.3557833 10.97858 -0.51586491
1.2723459 10.302938 -0.24102092
1.3469616 10.907145 0
1.3019979 10.543047 0.24663793
1.3036284 10.556251 0.49602038
1.3869621 11.231051 0.79131746
1.3356537 10.815578 1.2744055
1.4195399 11.494855 1.6277686
1.3361572 10.819654 1.7911075
1.4450787 11.439015 -1.0756887
1.3886877 10.992633 0
1.3093752 10.364807 0.24255283
1.3032984 10.316704 0.48493353
1.313289 10.395789 0.73272198
1.3486652 10.675821 1.2583767
1.3433555 10.63379 1.7609532
1.4011341 11.091157 2.1062903
1.4381452 11.118691 -1.0459633
1.4697919 11.363361 -0.80122292
1.5102224 11.675941 -0.54903233
1.4531131 11.234414 0
1.3352524 10.3232 0.24167082
1.3305745 10.287034 0.48372236
1.4390805 11.125923 0.78448129
1.3349462 10.320833 0.97090662
1.4025073 10.843166 1.278587
1.3756635 10.63563 1.7619259
1.4292493 11.049915 2.0992546
1.5221721 11.484618 -1.3547819
1.4492563 10.934477 -1.0290569
1.5018113 11.330997 -0.79926968
1.3919567 10.502157 0
1.3516496 10.198045 0.2388391
1.3710208 10.344198 0.4866105
1.4107237 10.643752 1.2555891
1.4233291 10.738859 1.7797592
1.5267063 11.518827 2.1892385
1.523182 11.265737 -0.79494482
1.5335419 11.34236 -0.53375292
1.4596405 10.795772 0
1.396291 10.327227 0.24194935
1.4173098 10.482685 0.986884
1.4521565 10.740418 1.2674365
1.4543456 10.75661 1.7833259
1.5846599 11.464132 -1.353388
1.5138494 10.951857 -1.0314721
1.5484091 11.201877 -0.79075938
1.5403835 11.143816 -0.52462256
1.3902431 10.057633 -0.23572885
1.4220012 10.287387 0.24111375
1.4336852 10.371913 0.9768517
1.5166605 10.972193 1.2953126
1.4755251 10.674602 1.5144819
1.4876088 10.762021 1.7849469
1.6288013 11.531096 -0.81433707
1.6231823 11.491315 -0.5412063
1.5471815 10.953268 0
1.5523578 10.989914 0.25768626
1.6164761 11.443839 0.53897029
1.4599775 10.335907 0.72993177
1.4508085 10.270996 0.96774822
1.5758845 11.15647 1.3176136
1.4487454 10.25639 1.4557507
1.4966267 10.595366 1.7580351
1.6452686 11.431507 -1.3506004
1.5937166 11.073318 -1.0437338
1.63255 11.343138 -0.8013624
1.6231456 11.277795 0
1.4987196 10.413269 0.49061671
1.4839039 10.310328 0.72839707
1.4830812 10.304612 0.97127813
1.6506453 11.468865 1.3550141
1.4806685 10.287848 1.460761
1.4585711 10.134313 1.6821626
1.6665175 11.340428 -1.0693721
1.6551737 11.263235 -0.79606086
1.6521857 11.242902 -0.52993309
1.6522365 11.243248 0
1.5084733 10.264958 0.24088164
1.56185 10.62818 0.5009582
1.6464713 11.204016 0.79187548
1.5162531 10.3179 0.97295028
1.6710902 11.371546 1.3440959
1.567048 10.663551 1.5147601
1.5247859 10.375964 1.723017
1.53337 10.434378 1.9870524
1.6820308 11.201225 -1.0567387
1.648778 10.979784 -0.77638954
1.6699973 11.12109 -0.52443624
1.6862078 11.229041 -0.26362824
1.7032942 11.342826 0
1.5303248 10.190964 0.23925689
1.6987751 11.312731 0.53347343
1.5595989 10.38591 0.73439616
1.5557603 10.360346 0.97740901
1.6761311 11.161938 1.3199366
1.5220164 10.135634 1.4404417
1.5248475 10.154488 1.6870261
1.7278961 11.305053 -1.0669569
1.6702812 10.928098 -0.77304125
1.6725421 10.94289 -0.51623762
1.7077433 11.1732 -0.26242128
1.7293558 11.314603 0
1.5618314 10.218546 0.23999964
1.6064373 10.510387 0.49583402
1.5876906 10.387734 0.98038161
1.5921961 10.417212 1.2323591
1.6486316 10.786451 1.7927288
1.6124482 10.549715 2.010752
1.7345381 11.114619 -1.0494932
1.7281651 11.073784 -0.5226661
1.7563996 11.254704 -0.26446384
1.7726005 11.358518 0
1.6480721 10.56056 0.49844274
1.5944692 10.217083 0.7230956
1.6123314 10.33154 0.97555125
1.6613623 10.645721 1.2600029
1.5977714 10.238242 1.4563075
1.6453824 10.543325 1.7531713
1.8046409 11.355566 -1.0727161
1.8187093 11.44409 -0.81029117
1.7681791 11.126133 -0.52536798
1.7661717 11.113502 -0.26126072
1.7920738 11.276489 0
1.6949347 10.665249 0.250723
1.7688062 11.130079 0.5255543
1.6248764 10.224412 0.72393268
1.6293025 10.252262 0.96849144
1.7852446 11.233517 1.3301579
1.681946 10.583518 1.7606289
1.6469526 10.363325 1.9770542
1.8284659 11.276829 -0.79885113
1.7877734 11.025863 -0.5208959
1.8199562 11.224346 -0.26399961
1.8201265 11.225397 0
1.7530719 10.811846 0.25429749
1.6908233 10.427936 0.98558354
1.691759 10.433706 1.2360758
1.6718127 10.31069 1.4679979
1.7382435 10.720393 1.7842985
1.8282924 11.275759 2.1522081
1.8479291 11.198845 -0.79368913
1.8097725 10.967607 -0.5183804
1.830132 11.09099 -0.26098219
1.8843521 11.419576 0
1.6965921 10.281711 0.97220707
1.7105932 10.366559 1.4766268
1.7508211 10.61035 1.7667896
1.8286593 10.892597 -0.7723437
1.8288194 10.893551 -0.51511961
1.8915558 11.267247 -0.26525298
1.9304764 11.499082 0
1.8644106 11.105554 0.26144642
1.7470698 10.406602 0.73788393
1.7266196 10.284787 0.97295028
1.7905765 10.665753 1.776841
1.8928577 11.085335 -0.52443624
1.9327703 11.319078 -0.26659921
1.9548357 11.448302 0
1.8647884 10.92095 0.25722206
1.73616 10.16765 0.72128195
1.938261 11.351234 1.3466513
1.8439367 10.798834 1.799862
1.9481723 11.220318 -0.79633987
1.8930507 10.90285 -0.51605123
1.9953548 11.492061 0
1.942484 11.187556 0.26362824
1.7543107 10.10379 0.71709657
1.7864194 10.288717 0.97425073
1.8241714 10.506146 1.2469939
1.9806794 11.407539 1.627212
1.8565331 10.69253 1.7830015
1.753405 10.098574 1.9311365
1.9453213 10.99879 -1.0420618
1.98619 11.22986 -0.79745597
1.8961323 10.720676 -0.25276557
1.7877796 10.108053 0.71779412
1.8045117 10.202657 0.96663356
1.8526686 10.474935 1.243974
1.9000813 10.743004 1.7924047
2.0180361 11.226999 0.26483521
1.8135319 10.089275 0.7168175
1.8263053 10.160337 0.96310365
1.9154131 10.656075 1.7787864
2.0365674 11.129195 0
1.8581462 10.15418 0.72184002
1.8843812 10.297545 0.97666591
1.9198025 10.491112 1.2472264
1.9339584 10.568469 1.7651683
2.0533051 11.046368 -1.5790582
2.0910282 11.24931 0
1.8715439 10.068528 0.71612
1.8825588 10.127787 0.96106005
1.9710356 10.603774 1.7719773
1.9108425 10.279947 1.9700184
2.1220744 11.241503 -1.3378239
2.105372 11.153023 0
2.0966451 11.106793 0.26242128
1.8978059 10.05346 0.71542239
1.9126837 10.132275 0.96198899
1.8897194 10.010623 1.6737323
2.1113505 10.995089 -1.5734912
2.1430376 11.160103 0
2.0583758 10.719216 0.25341547
1.9252397 10.025896 0.71388775
1.9486344 10.147727 0.96403259
2.0243914 10.542239 1.2553568
2.1495562 11.04822 -1.5818416
2.1760957 11.184628 -1.3324808
2.2099738 11.358753 -0.80917507
1.9146336 9.8407726 0.23275788
1.9687762 10.119053 0.48074102
1.9630666 10.089706 0.71877074
1.9992839 10.275855 0.97666591
2.0478671 10.525561 1.253963
1.9553958 10.050281 1.6821626
2.1308975 10.952319 2.102217
2.1784923 11.012268 -1.5776664
2.2353926 11.136461 -1.3282995
2.2632327 11.275157 -1.072902
2.0629711 10.277477 0.97796643
2.0465686 10.195762 1.2160978
2.151329 10.717666 1.7959712
2.2680662 11.13796 -1.3292286
2.2067034 10.836622 0.25675783
2.0617883 10.124977 0.72253758
2.080138 10.215088 0.97257864
2.1698279 10.655536 1.7865682
2.3293407 11.267786 -1.0734593
2.1442995 10.372682 0.98818451
2.1762614 10.527292 1.7661409
2.2194285 10.736105 2.0655568
2.2905302 10.907083 0.25875396
2.1605079 10.28794 0.98075312
2.2060812 10.504951 1.7635471
2.3319163 11.104155 2.1377661
2.2745578 10.691789 0.25378686
2.1973774 10.328995 0.98521197
2.4026105 11.121909 -1.3306224
2.1721187 10.05494 0.71932876
2.2130189 10.244271 1.2256222
2.401644 11.117435 2.1429505
2.4356213 11.124125 2.1455426
2.2910089 10.051435 0.23934974
2.3838372 10.317333 0.24584877
2.7804697 11.004466 2.1385069
