# .PCD v0.7 - Point Cloud Data file format
VERSION 0.7
FIELDS x y z
SIZE 4 4 4
TYPE F F F
COUNT 1 1 1
WIDTH 86
HEIGHT 1
VIEWPOINT 0 0 0 1 0 0 0
POINTS 86
DATA ascii
-7.942368 0.28429389 1.3057188
-8.0263958 0.30834237 1.3196611
-7.9346828 0.32978502 1.304746
-8.1239281 0.33765051 1.5319484
-7.9376121 0.35350418 1.3053944
-8.1111097 0.36123094 1.5297266
-8.033123 0.38164353 1.3212824
-8.1590815 0.38762766 1.5389843
-7.8841972 0.39663643 1.2969642
-8.1717091 0.41110048 1.5415764
-7.8810148 0.41992301 1.2966399
-8.0703583 0.43001175 1.5226909
-7.9310436 0.44480121 1.3050703
-8.0593147 0.4519951 1.5208395
-8.0281944 0.47414935 1.3212824
-8.0559759 0.47579014 1.5204692
-7.9956794 0.49604204 1.50936
-8.0136051 0.51821667 1.3193369
-7.9806242 0.5160839 1.5067679
-8.0238457 0.54278886 1.3212824
-7.9633703 0.5386979 1.5038055
-7.9577169 0.56343752 1.5030648
-7.9797368 0.58599496 1.5075084
-8.0034389 0.61161602 1.5123224
-7.9603343 0.63348264 1.504546
-7.9723606 0.65544659 1.5071381
-7.9703808 0.67909867 1.5071381
-7.9761624 0.70343351 1.5086194
-8.0270147 0.73051441 1.5186176
-7.9623246 0.74705267 1.5067679
-7.9540691 0.77149445 1.5056568
-8.0496693 0.80346423 1.5241722
-7.9592705 0.81829774 1.5075084
-7.7769165 0.91220134 1.475292
-7.7993798 0.9396854 1.480106
-7.7839165 0.98471677 1.4782544
-7.7480006 1.0021642 1.4719592
-7.7609739 1.1169912 1.1019727
-7.7437105 1.1393478 1.1000242
-7.7307053 1.1594996 1.0986326
-7.7613683 1.2334452 1.1044778
-7.7520285 1.2541658 1.1036428
-7.7404566 1.2758731 1.1025294
-7.7210102 1.2962109 1.1003026
-7.7444625 1.3237844 1.1041995
-7.7725325 1.3285825 1.4856604
-7.7292628 1.3420206 1.1025294
-7.7148075 1.3395108 1.475292
-7.7232962 1.3646038 1.1022511
-7.7166057 1.3634217 1.4764029
-7.6997199 1.3840117 1.0994676
-7.7221975 1.388052 1.4782544
-7.6855931 1.4064102 1.0980759
-7.7409992 1.4165491 1.4826981
-7.6782389 1.4244636 1.0975192
-7.7800279 1.4433475 1.4908447
-7.7262726 1.4584981 1.1050346
-7.689291 1.4515171 1.2856158
-7.7020655 1.4539285 1.4767731
-7.6921849 1.4743198 1.4756622
-7.6686974 1.4934195 0.91364145
-7.6691442 1.4935066 1.0980759
-7.6954937 1.4986379 1.4771435
-7.5826488 1.4986526 0.90388483
-7.6882591 1.5195256 1.101416
-7.6611085 1.5141596 1.2830219
-7.697063 1.5212656 1.4782544
-7.5623221 1.5193386 0.90202636
-7.7455821 1.5561572 1.1103231
-7.7046852 1.5479406 1.2911279
-7.7057338 1.5481513 1.4808465
-7.6283937 1.5533999 0.91038924
-7.7278972 1.5736622 1.1083746
-7.6754665 1.5629855 1.2869127
-7.7401724 1.5761619 1.4882526
-7.5164862 1.555221 0.89761263
-7.6492157 1.5826838 1.0977975
-7.6859789 1.5902904 1.2895067
-7.6543469 1.5837455 1.4726999
-7.5668263 1.5863067 0.90411711
-7.7599831 1.6522652 0.92781186
-7.8213582 1.688179 0.93571013
-7.6624527 1.6538805 1.2878854
-7.7189946 1.6914822 0.92409497
-7.7979307 1.7301859 0.934084
-7.8121419 1.7576758 0.93640697
