# .PCD v0.7 - Point Cloud Data file format
VERSION 0.7
FIELDS x y z
SIZE 4 4 4
TYPE F F F
COUNT 1 1 1
WIDTH 497
HEIGHT 1
VIEWPOINT 0 0 0 1 0 0 0
POINTS 497
DATA ascii
4.3587089 8.7767181 -0.91424245
4.4972911 9.055768 -0.4715175
4.3420534 8.7431812 0
4.4102526 8.8805065 0.23020467
4.4102068 8.880414 0.46238714
4.4122314 8.8844919 0.69365835
4.2311368 8.5198383 1.7922723
4.5279264 9.053894 -0.47207651
4.5423584 9.0827513 -0.23577528
4.3736119 8.7453318 0
4.3500752 8.6982679 0.22579463
4.4037151 8.8055248 0.45912632
4.422749 8.8435841 0.69142616
4.6745415 9.3470602 1.2221377
4.3875575 8.7085361 0.22639811
4.3857737 8.7049942 0.45456111
4.5387363 9.0085993 0.70537746
4.4521956 8.8368311 0.92316014
4.5893946 9.0501089 -0.23558959
4.598772 9.0686016 0
4.4772596 8.8289833 0.2298333
4.4004149 8.6774483 0.45372263
4.6552467 9.1799669 0.7197473
4.6320262 9.1341772 0.95548654
4.3735838 8.6245384 1.1308432
4.3426189 8.5634766 1.3494225
4.6192927 9.0424471 0
4.4943423 8.7978525 0.2293691
4.4315972 8.6750269 0.45428163
4.4183455 8.649085 0.67914903
4.4127021 8.6380377 0.9049533
4.4750662 8.7601185 1.1503565
4.928082 9.6469145 1.7797592
4.611321 8.9611273 0
4.5231652 8.7898159 0.22950836
4.44946 8.6465845 0.67998606
4.4419508 8.6319923 0.90569639
4.7455354 9.2219448 1.2128457
4.5986276 8.8678579 0.23192228
4.8119102 9.2791462 0.97517961
4.8814845 9.413311 1.2400249
4.7675385 9.1935816 1.4554724
4.8985367 9.4461946 2.004827
4.8206916 9.2329025 1.4638228
4.7697773 9.0735531 0.47803915
4.5208149 8.5999517 0.9064396
4.4829102 8.5278454 1.1266619
4.9339972 9.3859491 1.4902656
4.8486195 9.2235346 1.7119927
4.482976 8.5279703 1.8152313
4.8054161 9.079689 0.71835214
4.4358234 8.3813543 1.3327217
4.9149804 9.2867069 1.7262595
4.6244559 8.7377701 1.8626302
4.5472393 8.5341482 0.9021666
4.7621307 8.9374504 1.1842725
4.9483171 9.2868805 1.7288533
4.9510574 9.2920237 1.9837197
4.5097828 8.4001474 1.5664086
4.5005188 8.3828926 1.7926426
4.5346851 8.3867311 1.5664086
4.5951037 8.4385271 1.123642
4.4595075 8.1895151 1.532039
4.5648904 8.3275919 1.560248
4.3694367 7.9710317 1.7126569
4.903265 8.8859224 0.47328767
5.0187044 9.0951271 1.459926
4.6132469 8.3054171 1.3352269
4.6189966 8.3157682 1.5628419
4.6369081 8.2899694 1.5605721
5.1061835 9.1289501 1.9707589
4.6619515 8.2736301 1.3346701
5.1290474 9.1025925 1.9685373
4.8775187 8.5999613 1.3895043
4.714879 8.1434116 1.5459813
4.6974449 8.1133003 1.7663512
4.7782516 8.1475992 1.5518177
4.8110828 7.9409127 1.7493172
4.8636665 7.8718739 1.7433922
4.8831797 7.8482118 1.7415407
3.169297 9.6622019 1.1891509
3.2010729 9.6621838 1.1903124
3.3744791 9.9981928 1.4830287
3.3589368 9.7605925 1.9448378
3.4426458 9.8251495 1.9615015
3.4400501 9.7197933 1.9426159
3.6161618 10.121799 1.510585
3.6222892 9.9575663 1.7408503
3.6341364 9.8986053 1.73242
3.5571318 9.6110191 1.1984431
3.6572969 9.8816547 1.731123
3.5085955 9.3941765 0
3.6907203 9.8818121 0.49192104
3.575896 9.5743723 1.1951908
3.7155945 9.9484119 1.7447411
3.51601 9.4140291 1.8933655
3.72875 9.8991976 -0.73969764
3.5256534 9.3600101 0
3.6795723 9.7686386 0.48679686
3.6124246 9.590373 1.1984431
3.7510164 9.9583111 1.7483077
3.7556691 9.8868818 -0.7395581
3.5624292 9.3781729 0
3.6961937 9.7303114 0.48539934
3.7931116 9.9854498 0.99654478
3.7774076 9.944109 1.7476593
3.5643463 9.3832207 1.8911437
3.6104949 9.4154873 0
3.7131562 9.6832085 0.4836292
3.8594022 10.06459 1.0056481
3.8079257 9.9303493 1.7473351
3.5853651 9.3499537 1.8867
3.8633795 9.9862356 -0.99895996
3.6081052 9.3263912 0
3.7361016 9.6572418 0.48288384
3.6603751 9.4615011 1.1863633
3.838083 9.9208479 1.7476593
3.6435826 9.4180946 1.9026229
3.8937192 9.9765825 -0.99914575
3.8256629 9.802207 0.98168206
3.8631995 9.8983841 1.7457138
3.6736572 9.412735 1.903734
3.9129841 9.9540663 -0.99784529
3.8094554 9.6907043 0.72811806
3.6831713 9.3694563 1.1773036
3.8888168 9.8925886 1.7463623
3.7124639 9.4439726 1.9118806
3.7863328 9.5388527 0.47859815
3.8614466 9.7280865 0.73188496
3.7123456 9.352458 0.938766
3.7105596 9.3479586 1.176142
3.9157786 9.8649635 1.7437685
3.7481141 9.4425688 1.9141024
3.8513551 9.629077 -0.4836292
3.8213749 9.5541201 0
3.722765 9.3075781 0.9352361
3.7298539 9.3253021 1.174516
3.9305961 9.8271933 1.7389048
3.6939917 9.2356396 1.8741096
3.6851883 9.1303415 -1.6176387
3.890558 9.6391611 -0.48474717
3.7795072 9.3640242 0
3.9027174 9.6692867 0.2420886
3.6991334 9.1648912 0.46089646
3.6956263 9.1562023 0.6904496
3.7393148 9.2644444 0.93207777
3.753926 9.3006449 1.1728898
3.9511068 9.789175 1.7343655
3.7281358 9.2367468 1.8767018
3.69505 9.0816278 -1.6108296
3.7118764 9.1229839 -1.3842157
3.7207391 9.1447659 -1.154538
3.7738121 9.2752075 -0.70021546
3.7920723 9.3200874 0
3.7480993 9.2120113 0.23090102
3.7141693 9.1286182 0.4595921
3.7076447 9.1125832 0.68793833
3.7494094 9.2152319 0.92817628
3.7738926 9.2754059 1.1710315
3.706919 9.0384054 -1.6049932
3.7193048 9.0686045 -1.3775355
3.775887 9.2065668 -0.92836207
3.7777472 9.2111015 -0.69616961
3.8200068 9.3141413 -0.46946779
3.7578795 9.1626596 -0.22992614
3.7634454 9.1762304 0
3.7434635 9.1275101 0.22904412
3.7358594 9.1089687 0.45912632
3.7277811 9.0892715 0.68696177
3.7600188 9.1678753 0.92446065
3.7854609 9.2299099 1.1666178
3.7224085 9.0000105 -1.6001297
3.7295446 9.0172634 -1.3714118
3.7399468 9.0424147 -1.1443167
3.7742682 9.1253958 -0.92130226
3.7928624 9.1703529 -0.69393742
3.8041053 9.1975355 -0.46415731
3.7690034 9.1126661 -0.22895129
3.7761343 9.1299076 0
3.7674754 9.1089725 0.22885846
3.7605817 9.0923052 0.45884681
3.7509227 9.0689507 0.68626416
3.7795956 9.1382761 0.92260277
3.8029625 9.1947727 1.1635978
3.839304 9.2826395 1.411772
3.7699285 9.1149035 1.6205568
4.0180788 9.714879 1.9807574
3.7368937 8.964077 -1.5955901
3.7448027 8.9830494 -1.3677933
3.7552454 9.0080996 -1.1412967
3.7798126 9.0670309 -0.9164719
3.8069394 9.132103 -0.6918447
3.8128612 9.1463079 -0.46210763
3.7936654 9.1002617 -0.22890487
3.7900705 9.0916376 0
3.7852025 9.0799599 0.22839423
3.7859561 9.081768 0.45884681
3.7839088 9.0768576 0.68765932
3.7959039 9.1056309 0.92037344
3.8186865 9.1602821 1.1605779
3.8522546 9.2408056 1.4070402
3.8780589 9.3027048 1.8989201
3.7520285 8.9213676 -1.5900781
3.7645578 8.9511595 -1.3647316
3.7750537 8.9761162 -1.1387416
3.7936091 9.020236 -0.91294199
3.8108568 9.0612469 -0.68738025
3.8315058 9.1103449 -0.46089646
3.8144827 9.0698681 -0.22844066
3.8147352 9.0704679 0
3.8144667 9.0698299 0.45884681
3.8147244 9.0704432 0.68807787
3.8167694 9.075305 0.91851556
3.8328116 9.1134501 1.1561642
3.8712831 9.2049246 1.4034216
3.6456802 8.668499 1.5450087
3.8684037 9.1980782 1.8800344
3.764607 8.8817816 -1.5848902
3.7794945 8.9169054 -1.3611131
3.7931309 8.9490776 -1.1366508
3.8063526 8.9802713 -0.90996951
3.7964406 8.9568863 -0.68026513
3.8382232 9.0554628 -0.45866048
3.8319955 9.0407705 -0.22797644
3.8345892 9.0468893 0
3.7578685 8.8658829 0.2235664
3.8421216 9.0646601 0.45912632
3.8190198 9.0101566 0.68431103
3.8358834 9.049942 0.91702926
3.8326669 9.0423546 1.1484982
3.8969758 9.1940775 1.4034216
3.6744971 8.6691866 1.5469542
3.4898665 8.2335901 1.6848842
3.7785287 8.8415394 -1.5797024
3.7965894 8.8838005 -1.3577729
3.8095124 8.9140387 -1.1336309
3.8228018 8.9451361 -0.90755427
3.8065283 8.9070568 -0.67733532
3.8501513 9.0091314 -0.45689029
3.8485827 9.0054617 -0.22737296
3.8582654 9.0281191 0
3.8603687 9.03304 0.22806928
3.870564 9.0568962 0.45931265
3.87082 9.0574951 0.68877542
3.8619297 9.0366926 0.91684353
3.8469832 9.0017185 1.1447814
3.9164486 9.1642637 1.4006381
3.9452741 9.2317133 1.6494143
3.95298 9.2497454 1.8952169
3.7930589 8.8073883 -1.5754873
3.8151183 8.8586102 -1.3555461
3.8233926 8.8778229 -1.1303786
3.8398919 8.9161339 -0.90569639
3.8242869 8.8799 -0.67607975
3.8658147 8.976326 -0.45577228
3.868973 8.9836597 -0.22709443
3.8375812 8.9107685 0
3.887954 9.0277328 0.22820856
3.8966336 9.0478868 0.45940581
3.9024141 9.0613089 0.68989152
3.884002 9.0185566 0.91610032
3.8603222 8.9635725 1.1412967
3.9428115 9.1551104 1.4009166
3.5471616 8.2364216 1.4733514
3.9679141 9.213398 1.8900326
3.8144944 8.7895203 -1.5741903
3.8335323 8.8333883 -1.3533194
3.8481679 8.8671122 -1.1303786
3.8568466 8.8871098 -0.90383863
3.8427138 8.8545446 -0.67496365
3.8852973 8.9526672 -0.45512012
3.8980236 8.9819918 -0.22732654
3.8807609 8.942215 0
3.9115558 9.0131731 0.22811571
3.8272364 8.818881 0.44831896
3.9157875 9.0229244 0.68779886
3.9107549 9.0113277 0.9164719
3.8758466 8.930891 1.1385092
3.9920592 9.1986732 1.6474688
3.981889 9.1752386 1.8844781
3.8405082 8.7738762 -1.5735419
3.8596778 8.8176708 -1.3527626
3.8712287 8.844059 -1.1289848
3.887145 8.8804207 -0.90439594
3.8681142 8.8369436 -0.67454505
3.9174116 8.9495668 -0.45558596
3.9262245 8.9697008 -0.22732654
3.9345005 8.9886074 0
3.8741102 8.8506422 0.22430915
3.9558647 9.0374146 0.46005797
3.9401169 9.0014381 0.68710124
3.6849601 8.4185171 1.2915266
4.023314 9.1915073 1.6484416
4.0240946 9.1932907 1.8907734
3.8682446 8.7746267 -1.5754873
3.8827519 8.8075342 -1.3527626
3.8927696 8.8302584 -1.1285203
3.9095802 8.868391 -0.90421015
3.8920441 8.8286123 -0.67468464
3.9408307 8.9392786 -0.45558596
3.9521158 8.9648781 -0.22746581
3.9209104 8.8940916 0
3.9747 9.0161076 0.22876562
3.9811251 9.0306816 0.4602443
3.995059 9.0622892 0.69254225
3.9762526 9.0196295 0.91963023
3.902385 8.8520699 1.1313078
3.8571868 8.7495432 1.3438555
4.0505509 9.1881657 1.6497386
4.0505304 9.1881189 1.8918842
3.8997991 8.7714481 -1.5771085
3.9095967 8.7934847 -1.3524843
3.9204898 8.8179855 -1.1285203
3.9349933 8.8506069 -0.90365285
3.9221907 8.8218117 -0.67510313
3.9729517 8.9359837 -0.45605183
3.9851327 8.9633808 -0.22774433
3.9910817 8.9767618 0
4.0070648 9.0127106 0.22899771
4.0200262 9.0418634 0.46145546
4.0308022 9.0661011 0.69379789
4.023984 9.050765 0.92408907
3.9495423 8.8833303 1.136883
3.8991365 8.7699575 1.3488657
4.0850072 9.1880198 1.6520082
4.0817695 9.1807365 1.8929952
3.9250834 8.7623253 -1.5774328
3.9349451 8.7843399 -1.3527626
3.9483459 8.8142557 -1.1294495
3.9564352 8.8323145 -0.9029097
3.9541495 8.8272114 -0.67635876
4.0019722 8.9339705 -0.45651761
4.0166855 8.9668159 -0.22811571
4.0292144 8.9947863 0
4.0428419 9.0252085 0.22960119
4.047709 9.0360727 0.46173498
4.0756779 9.0985107 0.69714618
4.1176233 9.1921501 0.93969488
3.9775805 8.8795195 1.1378123
3.9179425 8.7463837 1.3469174
4.1114068 9.1782713 1.8948466
3.9511635 8.7549267 -1.5780811
3.9733131 8.8040056 -1.3574946
4.0105357 8.8864822 -1.1401354
3.9950128 8.852087 -0.90606803
3.9845319 8.8288631 -0.67733532
4.0334821 8.9373264 -0.45726299
4.0482926 8.9701433 -0.22848709
4.0658379 9.0090199 0
4.0820146 9.0448637 0.23039037
4.0860786 9.0538683 0.46322563
4.1265144 9.143466 0.70147109
4.2391205 9.3929768 0.96143162
4.0097179 8.8846712 1.1399029
3.9407253 8.7317972 1.3463607
4.1459174 9.1864586 1.8989201
3.9770117 8.7388783 -1.5774328
4.0304837 8.8563757 -1.367515
4.0425458 8.8828793 -1.1412967
4.0425973 8.8829937 -0.91052681
4.0122471 8.8163033 -0.67733532
4.0714679 8.9464321 -0.45838094
4.097156 9.0028782 -0.22964761
4.1181431 9.0489931 0
4.1286283 9.0720329 0.23141164
4.1227756 9.0591726 0.46415731
4.3205724 9.4938011 0.97313601
4.0491281 8.8973436 1.1431552
3.9640338 8.7103615 1.3449689
3.962297 8.7065449 1.5715964
4.2227874 9.2789335 1.920768
4.0104499 8.7474709 -1.5809995
4.0428219 8.818079 -1.3633398
4.0822406 8.9040585 -1.1454782
4.0673904 8.8716679 -0.91052681
4.0468321 8.8268261 -0.6790095
4.112258 8.9695311 -0.46015114
4.1506162 9.0531969 -0.23122597
4.0914526 8.9241514 0.22793002
4.1597166 9.0730467 0.46546164
4.3628387 9.5160904 0.97666591
4.3272905 9.4385538 1.2142395
3.9875195 8.6974554 1.3446907
3.9767277 8.6739168 1.5677054
4.330596 9.4457626 1.9577984
4.0414801 8.7505722 -1.5835934
4.0674291 8.806756 -1.3633398
4.0929279 8.8619661 -1.1415291
4.1105165 8.9000492 -0.91461408
4.0890312 8.853529 -0.68193924
4.1448269 8.9743376 -0.46098965
4.1381531 8.9598875 -0.22913699
4.0735993 8.820116 0.22556253
4.3901873 9.5055895 0.73216391
4.0126209 8.6880856 1.3449689
4.0001054 8.6609879 1.5673813
3.9984763 8.6574602 1.7967161
4.0972753 8.7986612 -1.5946175
4.0992546 8.8029127 -1.3647316
4.1199079 8.8472633 -1.1412967
4.1577892 8.9286118 -0.91888708
4.1176658 8.8424492 -0.68207884
4.1814318 8.9793825 -0.4619213
4.1637468 8.9414053 -0.22899771
4.1766887 8.9691973 0
4.4292908 9.5116453 0.73369861
4.0424018 8.6808233 1.345804
4.0281262 8.6501675 1.5677054
4.0181861 8.6288223 1.7933834
4.1414866 8.8290834 -1.3705769
4.1446009 8.8357229 -1.1412967
4.1750984 8.9007397 -0.91721505
4.1440396 8.8345261 -0.68235785
4.2141294 8.9839487 -0.46275979
4.1946464 8.9424133 -0.22932266
4.5066752 9.6076155 0.74206936
4.0742002 8.6856384 1.3483092
4.0572977 8.6496048 1.5696509
4.0372615 8.6068897 1.7911615
4.1768947 8.8402805 -1.1433876
4.188026 8.8638401 -0.91461408
4.1703973 8.8265285 -0.68263686
4.2494411 8.9938231 -0.4638778
4.2737103 9.045188 0
4.1035142 8.6849728 1.3499793
4.0646372 8.6026907 1.7926426
4.1982088 8.8215446 -0.91145575
4.2078838 8.8418741 -0.68472958
4.2719588 8.9765129 -0.46359831
4.1998382 8.8249674 -0.22690874
4.2774611 8.9880733 0
4.30724 9.0506468 0.23271143
4.1311498 8.6806345 1.3510926
4.6584811 9.7886972 1.781056
4.0979295 8.6108313 1.7967161
4.223506 8.8072519 -0.91126996
4.2297888 8.8203545 -0.68403202
4.2942572 8.9547892 -0.46313247
4.2337875 8.8286924 -0.22732654
4.2963295 8.9591112 0
4.2813387 8.9278507 0.22987972
4.3694129 9.1115112 0.47123799
4.5309048 9.4482698 0.97759479
4.1628847 8.6808386 1.3530409
4.2496219 8.7946806 -0.91126996
4.2437916 8.7826147 -0.68207884
4.3234181 8.947403 -0.46341199
4.2843242 8.866498 -0.22862634
4.277648 8.8526812 0
4.3043327 8.9079056 0.22969405
4.3034258 8.9060297 0.46126914
4.2837205 8.8652487 0.68849641
4.2824607 8.7920294 -0.91238469
4.2757282 8.7782068 -0.68277633
4.3620024 8.9553308 -0.46452996
4.3690686 8.9698381 -0.23164375
4.2712803 8.7690763 0
4.3585615 8.948267 0.23108669
4.3278832 8.8852835 0.46089646
4.6980424 9.6452322 1.5078015
4.3081355 8.7823534 -0.68403202
4.4336281 9.0381765 -0.46946779
4.3019199 8.7696819 0
4.2901936 8.7457781 0.226166
4.3447623 8.8570185 0.46005797
4.3538265 8.8754959 0.69128668
4.5025721 9.1787214 0.95381451
4.337944 8.7810211 -0.68486911
4.3075142 8.7194233 0.22579463
4.3447013 8.7946997 0.45744932
4.3352933 8.7756548 0.68445051
4.3747168 8.8554573 0.92148805
4.303267 8.7108269 1.1361862
4.2237039 8.5497713 1.5667328
4.5035272 9.0484962 -0.23466116
4.4171095 8.8748655 0.23015825
4.3209248 8.6816111 0.45223194
4.3968692 8.834199 0.69003099
4.3999014 8.840291 1.1547703
4.2481718 8.5354357 1.5664086
4.3516908 8.6863461 0.45307046
4.3484888 8.6799545 0.67887002
4.6131983 9.2083368 0.96087432
4.3714223 8.7257318 1.1412967
4.5642328 9.0434885 0
4.5738134 9.0624714 0.23568243
4.3724284 8.6634512 0.67859101
4.3722286 8.6630554 0.90532488
4.3444886 8.6080914 1.127591
4.6070242 9.0613394 0.23600738
4.3979115 8.6500454 0.90532488
4.6280456 9.102685 1.4351531
4.6359534 9.0555582 0.23619308
4.6567497 9.09618 0.47654849
4.4202337 8.6341867 0.9049533
4.7256479 9.2307615 1.4574208
4.4958153 8.7818213 1.620881
