# .PCD v0.7 - Point Cloud Data file format
VERSION 0.7
FIELDS x y z
SIZE 4 4 4
TYPE F F F
COUNT 1 1 1
WIDTH 63
HEIGHT 1
VIEWPOINT 0 0 0 1 0 0 0
POINTS 63
DATA ascii
-7.9083476 -12.154554 2.7321045
-7.9465661 -12.139001 2.7335858
-7.985744 -12.115616 2.7339561
-7.9497776 -11.983522 2.0210719
-8.016222 -12.083681 2.7321045
-8.0292873 -12.034859 2.7258093
-8.0727787 -12.013562 2.3779838
-8.2149477 -12.225132 2.7750597
-8.0120478 -11.856022 2.0110514
-8.0423203 -11.900818 2.3598263
-8.2953434 -12.275236 2.7913532
-8.0742664 -11.872008 2.3588538
-8.2632008 -12.149808 2.7683942
-8.1128006 -11.852884 2.3598263
-8.1782122 -11.948452 2.7280312
-8.1053915 -11.766999 2.3475053
-8.2058229 -11.912802 2.7254388
-8.1210184 -11.723871 2.0043712
-8.1327963 -11.740873 2.3465326
-8.2369814 -11.891279 2.7254388
-8.0977688 -11.6122 1.9896188
-8.1775436 -11.726597 2.3488023
-8.1153793 -11.568462 1.9860003
-8.3292656 -11.873358 2.3828475
-8.1599455 -11.558897 1.9885055
-8.3746986 -11.863104 2.3857658
-8.1962795 -11.610365 2.6776698
-8.2650156 -11.638612 1.669318
-8.2174206 -11.571589 1.994629
-8.0661354 -11.358553 2.2888176
-8.2138758 -11.566598 2.6728559
-8.2876768 -11.593197 1.6665303
-8.2641001 -11.560217 1.9971341
-8.0684958 -11.286597 2.2794147
-8.3110437 -11.561782 1.6651365
-8.2954931 -11.540149 1.9974124
-8.054244 -11.204539 2.2670934
-8.4998779 -11.746435 1.695568
-8.0651093 -11.145605 2.2602844
-8.4420958 -11.666584 2.7132189
-8.5154057 -11.703262 1.692548
-8.0884542 -11.116476 2.2586632
-8.5087013 -11.617157 1.6839529
-8.578105 -11.711916 2.0402777
-8.1221704 -11.089417 2.2583389
-8.4290171 -11.508362 2.6876681
-8.1144791 -11.014257 2.2476389
-8.4622889 -11.486361 2.6880383
-8.4011841 -11.328716 1.64934
-8.0867357 -10.904695 2.2304542
-8.4924784 -11.451825 2.6861868
-8.4272499 -11.301907 1.648643
-8.3346233 -11.177684 1.9595574
-8.128232 -10.900891 2.2340209
-8.5095062 -11.412222 2.6821134
-8.4702835 -11.289564 1.6505016
-8.1854134 -10.909876 2.2408299
-8.6365128 -11.511121 2.7113676
-8.7063951 -11.537008 1.6902251
-8.201582 -10.868072 2.236939
-8.7005901 -11.529316 2.7213657
-8.2309074 -10.835967 2.2356422
-8.2623348 -10.814508 2.2359664
