# .PCD v0.7 - Point Cloud Data file format
VERSION 0.7
FIELDS x y z
SIZE 4 4 4
TYPE F F F
COUNT 1 1 1
WIDTH 204
HEIGHT 1
VIEWPOINT 0 0 0 1 0 0 0
POINTS 204
DATA ascii
-6.3606906 6.6793818 -0.64496833
-6.3665462 6.6855307 -0.43052408
-6.386107 6.7460394 -0.64957225
-6.3298731 6.686636 -0.21377143
-6.3617735 6.7580361 -0.64901423
-6.3471055 6.7424545 -0.43182841
-6.3152876 6.7086544 -0.2139107
-6.2421799 6.670536 -0.63882977
-6.2885251 6.7200618 -0.2136786
-6.1693754 6.5927358 1.7011776
-6.2454076 6.7138042 -0.21288943
-6.1497869 6.6110125 1.7011776
-6.173851 6.6741586 -0.63576049
-6.1699982 6.6699934 -0.42372289
-6.1446466 6.6425877 1.7048806
-6.0768471 6.6062074 -0.62766874
-6.1337647 6.6680832 -0.42251173
-6.1988139 6.7387991 0.85423428
-6.0116429 6.5766683 -0.62306482
-6.0993075 6.6725721 -0.42158005
-6.124527 6.7001619 -0.21075405
-6.1329236 6.7093482 0
-6.1528559 6.7311535 0.2117289
-6.1505284 6.7286077 0.42512038
-6.1597137 6.738656 0.63841122
-6.1422515 6.7195525 1.7152492
-5.9800277 6.5811872 -0.62180924
-6.0862007 6.6980333 -0.42204589
-6.079072 6.6901884 -0.20987204
-6.1129894 6.7275152 0
-6.1247888 6.7405009 0.21145037
-6.1197891 6.7349982 0.42437506
-6.1316419 6.7480426 0.63757414
-6.1334295 6.7500105 0.85089022
-6.1288948 6.7450194 1.7171006
-5.9520745 6.58498 -0.62069315
-6.0137177 6.6531782 -0.41822606
-6.0561724 6.7001472 -0.20968634
-6.0980382 6.7464643 0
-6.1044397 6.7535472 0.21135752
-6.1088338 6.7584081 0.4248409
-6.1112781 6.7611122 0.63729519
-6.1117301 6.7616124 0.85033286
-6.1087136 6.758275 1.0653343
-6.1157193 6.766026 1.2817843
-6.1098971 6.7595849 1.7167304
-5.9258428 6.5951915 -0.61999553
-5.9285231 6.5981746 -0.41366085
-6.0362659 6.7180872 -0.20968634
-6.0846767 6.7719665 0
-6.0923915 6.7805529 0.21163604
-6.1114531 6.8017669 0.42642471
-6.1098585 6.799993 0.63924831
-6.0982957 6.7871237 0.85126179
-6.0886345 6.776371 1.0653343
-6.0810566 6.7679372 1.2787226
-6.0780478 6.7645888 1.4941028
-6.0661688 6.751368 1.7100648
-5.9062495 6.6127439 -0.61999553
-5.8876276 6.5918946 -0.4121702
-5.9670258 6.6807899 -0.20796873
-6.0965333 6.825789 0
-6.1095419 6.840354 0.21293585
-6.1191931 6.8511596 0.4283812
-6.1175671 6.8493385 0.64217812
-6.1166015 6.8482575 0.85664946
-6.1055536 6.8358884 1.0718387
-6.0701852 6.796289 1.280671
-6.0579515 6.7825918 1.4941028
-5.9924326 6.7092361 1.6948824
-5.8904095 6.632195 -0.62027454
-5.8612361 6.5993481 -0.4116112
-5.8354864 6.5703554 -0.2040229
-6.0735407 6.838388 1.2854028
-6.0507812 6.8127623 1.497021
-6.0102177 6.7670903 1.7052509
-5.889349 6.6731052 -0.62236726
-5.8365107 6.613235 -0.41133171
-5.7949715 6.5661678 -0.20332657
-6.0606918 6.8672504 1.5048028
-6.0487537 6.8537235 1.7222848
-6.0325589 6.873971 -0.63952732
-5.8167014 6.6280055 -0.41123852
-5.7660623 6.5703034 -0.2029552
-5.7425508 6.5435128 0
-5.8662958 6.6845174 0.20648326
-5.8048892 6.6542678 -0.41179752
-5.7399697 6.5798488 -0.2027231
-5.7033887 6.5379157 0
-5.8031626 6.6875486 -0.41291553
-5.7253466 6.5978737 -0.20281595
-5.6783895 6.5437603 0
-5.9073968 6.8076677 1.6982152
-5.7199588 6.6289754 -0.20328015
-5.6522517 6.5505085 0
-5.7160258 6.6666446 -0.20388363
-5.6277413 6.5636773 0
-5.591085 6.520925 0.19942716
-5.8067665 6.7724757 1.6808108
-5.6135788 6.5889354 0
-5.5563092 6.5217152 0.19891654
-5.6748576 6.660861 0.40807086
-5.6633048 6.6473017 0.61064821
-5.7701678 6.7727313 1.6763673
-5.6053591 6.6142912 0
-5.5327511 6.528614 0.19868442
-5.6083155 6.6177797 0.4045305
-5.719377 6.7488317 1.6667393
-5.5056281 6.5358248 0.19840589
-5.4779654 6.502986 0.39651814
-5.5978117 6.6452579 0.60757887
-5.7183223 6.7883182 1.6722939
-5.4874935 6.5536661 0.19845231
-5.4496665 6.5084901 0.39586598
-5.5716648 6.6541915 0.60688132
-5.7322216 6.845943 1.6822921
-5.4843936 6.584909 0.19896296
-5.4223809 6.5104532 0.39512065
-5.5580564 6.6733537 0.60729986
-5.515677 6.6224704 0.80407262
-5.7595611 6.9152927 1.6956229
-5.3979449 6.5203562 0.39474797
-5.5051537 6.649857 0.6036725
-5.4985452 6.6418738 0.80444425
-5.7716064 6.9717135 1.7052509
-5.3773069 6.5347996 0.39465481
-5.3408809 6.4905329 0.58776808
-5.4800806 6.6596961 0.80463004
-5.3138037 6.4576273 1.5756444
-5.3729515 6.5668011 0.39567965
-5.3189421 6.5007906 0.58734947
-5.4652424 6.6795983 0.80518734
-5.4153442 6.6186132 1.0000576
-5.2920136 6.4678788 1.5745336
-5.292079 6.5072556 0.58651239
-5.4466572 6.6973286 0.80537313
-5.4019508 6.6423564 1.0012192
-5.372087 6.6056352 1.1966105
-5.3232307 6.5455608 1.3861305
-5.2666011 6.4759274 1.572682
-5.2728624 6.525403 0.58665198
-5.3798056 6.6577501 1.0009867
-5.3413482 6.610157 1.1943837
-5.2865143 6.5422974 1.3819153
-5.2524047 6.5000854 1.5745336
-5.2595105 6.5438485 0.58707047
-5.2358346 6.5143905 0.77973497
-5.3660922 6.6764565 1.0016837
-5.3252664 6.6256609 1.194662
-5.2780237 6.5668821 1.3841851
-5.2427583 6.523005 1.5767554
-5.2488852 6.5728135 0.58818656
-5.1880035 6.4965758 0.7756477
-5.362443 6.715014 1.0049359
-5.3019514 6.6392651 1.1941054
-5.256134 6.5818911 1.3838608
-5.2379546 6.5968194 0.58902365
-5.1686049 6.5094781 0.77546197
-5.2895494 6.661799 1.195497
-5.2463255 6.6073618 1.3861305
-5.170959 6.5124431 1.5667572
-5.1442375 6.5160699 0.77453303
-5.2942433 6.7060781 1.2007856
-5.2535348 6.6545138 1.3929396
-5.1273413 6.5344367 0.77490455
-5.260572 6.7042294 1.4000729
-5.2777462 6.7261171 1.6108234
-5.1053967 6.5440211 0.77434725
-5.1050806 6.5436158 0.97055525
-5.2576084 6.7391238 1.4042881
-5.2033291 6.669549 1.5937895
-5.092061 6.567008 0.77527618
-5.0661688 6.5336161 0.96683848
-5.2424283 6.7609305 1.4055849
-5.1774964 6.6771908 1.5919379
-5.0883541 6.6025944 0.77769136
-5.0370584 6.5360336 0.96498007
-5.1636591 6.7003088 1.5937895
-5.0164371 6.5493722 0.96474779
-5.1939521 6.7811327 1.6093421
-5.0017929 6.5705504 0.9656769
-4.9881725 6.5883732 0.96637392
-4.9710336 6.6087728 0.96707076
-4.9478679 6.5779748 1.1568069
-4.947763 6.6138124 0.96590924
-4.9340448 6.6364341 0.96707076
-4.8756013 6.5578256 1.1484566
-4.8385029 6.5508056 1.1445596
-4.7955389 6.5283365 1.1384361
-4.7539611 6.5121417 1.1331475
-4.7299681 6.5198054 1.1320342
-4.7047901 6.5233526 1.1303641
-4.6877222 6.5405016 1.1309208
-4.6751909 6.5640593 1.1325908
-4.5232649 6.4287944 1.2914522
-4.4917188 6.4219947 1.2875613
-4.465888 6.4255695 1.2856158
-4.4546552 6.4501586 1.2878854
-4.3438754 6.3654947 1.4519628
-4.2851591 6.3601904 1.4449271
-4.2619143 6.363966 1.4430755
-4.2342787 6.3658695 1.4404833
-4.2143188 6.3743896 1.4397428
-4.1997046 6.393436 1.441224
