# .PCD v0.7 - Point Cloud Data file format
VERSION 0.7
FIELDS x y z
SIZE 4 4 4
TYPE F F F
COUNT 1 1 1
WIDTH 66
HEIGHT 1
VIEWPOINT 0 0 0 1 0 0 0
POINTS 66
DATA ascii
10.483401 -20.907515 -1.0907044
10.432988 -20.952805 -1.091543
10.307589 -21.012552 -1.0914497
10.301167 -21.158003 -1.0974125
10.244874 -21.183098 -1.0973194
10.114324 -21.081886 -1.0904249
10.056272 -21.111853 -1.0905181
10.040839 -21.23196 -1.0952697
9.9248781 -21.158495 -1.089866
9.8834629 -21.224161 -1.0918225
9.7906256 -21.17914 -1.0880958
9.709054 -21.177103 -1.0864187
9.6047344 -21.095173 -1.0809219
9.5256538 -21.087166 -1.0790586
9.5132637 -21.237324 -1.0852076
9.487195 -21.338652 -1.0890274
9.4420891 -21.397963 -1.0907044
9.3713474 -21.409414 -1.089866
9.3067493 -21.424503 -1.089307
9.2445097 -21.444904 -1.0890274
9.1715984 -21.460981 -1.0883752
9.1114807 -21.475727 -1.0879095
9.037776 -21.48951 -1.0871642
8.9663744 -21.508577 -1.0866983
8.9062138 -21.522747 -1.0862324
8.8400412 -21.543531 -1.0859529
8.7753248 -21.557034 -1.0853939
8.7128458 -21.575897 -1.0851145
8.6443377 -21.590525 -1.0845555
8.5676241 -21.595293 -1.0834374
8.5065575 -21.617271 -1.0833442
8.4416533 -21.640556 -1.0832511
8.37848 -21.645813 -1.0824126
8.3113518 -21.663118 -1.08204
8.2427797 -21.676477 -1.081481
8.1739388 -21.700397 -1.0813878
8.1129007 -21.710493 -1.0808288
8.0456753 -21.726973 -1.080456
7.9770446 -21.739498 -1.079897
7.923521 -21.769693 -1.0803629
7.8510246 -21.783201 -1.0798039
7.7823286 -21.795113 -1.079245
7.7154346 -21.799809 -1.0784065
7.6482358 -21.827711 -1.0785928
7.5884399 -21.840111 -1.0782201
7.5158901 -21.852507 -1.077661
7.4541917 -21.871519 -1.0775679
7.3854327 -21.882181 -1.077009
7.3274875 -21.899548 -1.0769159
7.2567668 -21.916771 -1.0766363
7.1905551 -21.921762 -1.0758909
7.1241188 -21.951845 -1.0762637
7.0641761 -21.962814 -1.0758909
6.9921122 -21.975378 -1.075425
6.9015169 -21.888813 -1.0703009
6.8243895 -21.883688 -1.0689967
6.8003879 -22.022919 -1.0748661
6.7338457 -22.039179 -1.0746797
6.6722765 -22.057898 -1.0746797
6.602375 -22.076836 -1.0745866
6.5133452 -21.988688 -1.0694624
6.4406767 -21.968449 -1.0675991
6.3677382 -21.975142 -1.0669469
6.2986684 -21.995037 -1.0669469
6.2394276 -22.005686 -1.0666674
6.1962199 -22.102974 -1.0704873
