# .PCD v0.7 - Point Cloud Data file format
VERSION 0.7
FIELDS x y z
SIZE 4 4 4
TYPE F F F
COUNT 1 1 1
WIDTH 140
HEIGHT 1
VIEWPOINT 0 0 0 1 0 0 0
POINTS 140
DATA ascii
-6.5082517 7.9091864 1.682811
-6.4598923 7.8952556 1.676002
-6.6811895 8.2153368 0.24584877
-6.5662475 8.222455 0.49070987
-6.5941968 8.3049068 0.49452969
-5.7673602 7.263567 1.0846152
-5.7507486 7.2843213 1.0853122
-6.4598169 8.232583 0.73174542
-5.7340164 7.3076015 1.0862414
-5.7181296 7.2873554 1.3018253
-6.516788 8.3531208 0.49406388
-6.4110279 8.2175589 0.72881567
-6.3653569 8.1590185 1.4543591
-6.5739994 8.478199 0.50030607
-6.3666077 8.2107353 1.4602042
-5.6969919 7.3923564 1.5333359
-6.2527075 8.1634254 0.71904975
-6.0665073 7.9203258 0.93077725
-6.3575139 8.3002586 1.4693897
-6.0224724 7.911355 0.92761892
-5.659863 7.4350166 1.3132375
-5.6542192 7.4276032 1.5336602
-6.0311866 7.9659848 0.69868088
-6.030591 7.965198 0.93207777
-5.6284246 7.4340172 1.310454
-6.1910839 8.1771765 1.6850806
-5.980947 7.9514089 0.69575113
-5.9708257 7.9379525 0.92669004
-5.7536583 7.6492381 1.8033816
-5.9397902 7.9398828 0.69337934
-5.5659175 7.4401169 0.86686766
-6.4518499 8.7351017 0.75936896
-6.1028152 8.2625465 1.2012306
-5.5272746 7.4833279 1.5284723
-6.1135912 8.3226471 0.72211897
-6.1209908 8.3847466 1.2140071
-5.7747192 7.9598947 0.68765932
-6.1007528 8.4092999 1.2149364
-5.5456185 7.6441011 1.7793118
-6.0598135 8.4021387 1.2114519
-5.3793874 7.4587045 1.7326535
-5.3503647 7.4650474 1.7304317
-6.0858369 8.5446339 0.73355907
-5.3281937 7.4808884 1.7304317
-6.2648597 8.848177 0.75811338
-5.8863955 8.313653 1.1912416
-5.9809904 8.4472542 1.4546374
-6.2466173 8.8781481 0.75909001
-6.0216594 8.5584221 0.97629428
-5.9513426 8.4584827 1.453524
-5.2963271 7.5275264 1.7341346
-5.6084294 8.0186014 1.1443167
-5.8811555 8.4085293 1.4421117
-5.2707772 7.5358467 1.7326535
-6.1190882 8.8042126 0.74974257
-5.6537709 8.1347084 1.1584872
-6.0759339 8.7977037 0.74764991
-5.5901003 8.0942364 1.1503565
-5.5413299 8.0747566 1.1452459
-6.240068 9.0929489 1.811859
-5.4977784 8.0564184 1.1406
-6.091651 8.9266768 1.775544
-5.9368343 8.7554979 0.49331853
-5.2921295 7.8047028 1.1027348
-6.1005783 8.9969835 1.7859198
-6.108417 9.0663376 0.50980908
-5.4520926 8.0921965 1.1410645
-5.2060065 7.7269464 1.530742
-6.0808539 9.080039 0.50962275
-5.2388959 7.8228121 0.65836161
-5.1635447 7.7102966 1.5245814
-5.2708569 7.9242754 1.112956
-6.0786486 9.1942921 0.51400155
-6.1364503 9.2817202 0.77806371
-6.0762777 9.1907053 1.54844
-6.0825973 9.2598648 0.77471542
-5.3178034 8.0955782 0.90365285
-5.4345298 8.2732773 1.157558
-6.0359354 9.1888285 1.5450999
-5.1109638 7.780695 1.5294451
-6.0904274 9.324892 1.0390893
-6.0963349 9.3339367 1.5668108
-5.3716536 8.2811089 1.1543057
-5.9872212 9.2300873 1.5462133
-4.9189267 7.5831709 1.4850241
-5.2667046 8.1691895 1.1366508
-5.9657173 9.2534285 1.5473267
-4.8945246 7.5919003 1.4840513
-5.8317914 9.0456963 2.027786
-5.3609776 8.373065 1.1626686
-5.0598454 7.90274 1.3188045
-5.8571987 9.2045889 0.50878423
-5.7046824 8.9649096 0.74304593
-5.2074585 8.1835213 0.9049533
-5.3205132 8.3611879 1.1589518
-5.1291995 8.0605373 1.3427422
-5.8838825 9.3037806 1.0270133
-5.7961302 9.2219362 0.50794572
-5.7868781 9.2072153 1.0145658
-5.7427368 9.2010126 1.2683656
-5.6094527 9.0435886 0.74416202
-5.7625828 9.2904663 1.0199535
-4.8039737 7.7449913 1.0657989
-5.1404071 8.2873907 1.3705769
-5.7485695 9.3295641 1.0223687
-5.0887804 8.2587681 1.3633398
-5.7189255 9.3360901 1.0214398
-5.065074 8.2686834 1.3627832
-5.6767049 9.3292036 1.0188389
-4.6668 7.6695065 1.2617434
-4.6186423 7.6897464 1.6900684
-4.6723514 7.887938 1.2884647
-4.5565567 7.692452 1.6845139
-4.6323061 7.8672295 0.63841122
-4.792274 8.1389093 0.88117296
-4.868196 8.2678509 1.1220158
-4.6086068 7.8835263 1.0678896
-4.4754744 7.6557884 1.6708126
-4.687933 8.0741081 1.0918167
-4.5844445 7.8958683 1.2831761
-4.8220677 8.4163961 1.1343278
-4.6847939 8.2333441 0.66240746
-4.6105938 8.1525183 1.3162992
-4.589891 8.1724014 0.65543187
-4.2725329 7.6073384 1.4334697
-4.5398331 8.1364012 0.65152544
-4.267621 7.6485372 1.4389818
-4.5239134 8.1680784 0.6529206
-4.2144675 7.609364 1.2224966
-4.0916104 7.5389457 1.2055175
-4.0758023 7.5632563 1.2074659
-4.0714879 7.60604 1.2124763
-4.1171789 7.7432857 1.232517
-4.0486612 7.727942 1.2261151
-4.0416932 7.7673273 1.2305686
-3.9631343 7.6685805 1.6263762
-3.9729352 7.7471175 1.22361
-3.9019504 7.6580052 1.6193403
-3.8827577 7.6765656 1.6208216
-3.853792 7.6757565 1.6182295
