# .PCD v0.7 - Point Cloud Data file format
VERSION 0.7
FIELDS x y z
SIZE 4 4 4
TYPE F F F
COUNT 1 1 1
WIDTH 73
HEIGHT 1
VIEWPOINT 0 0 0 1 0 0 0
POINTS 73
DATA ascii
-1.3665054 -14.296306 2.3595023
-1.4387956 -14.189306 1.3305842
-1.4422531 -14.223404 2.3488023
-1.4759264 -14.137441 1.3261254
-1.513146 -14.135509 1.3263112
-1.560743 -14.182421 1.3311416
-1.5929687 -14.068618 1.3209234
-1.6111397 -14.229098 2.3526931
-1.6309404 -14.074291 1.3218523
-1.6440688 -14.187584 2.3465326
-1.6830425 -14.135396 0.99542487
-1.6819764 -14.126442 1.3272401
-1.6722101 -14.044417 1.6539861
-1.671833 -14.04125 2.3231871
-1.7216586 -14.123667 1.3274258
-1.7066149 -14.000256 1.64934
-1.7096034 -14.024773 2.3212419
-1.758134 -14.095092 1.3251965
-1.7458292 -13.996444 2.3173509
-1.7959105 -14.058208 1.3222239
-1.7956033 -14.055802 2.3280509
-1.7874664 -13.992107 2.6576734
-1.8156712 -13.866197 1.9654027
-1.8584628 -14.192994 2.6969256
-1.8818957 -14.085397 0.66269588
-1.8971765 -14.19977 2.6991475
-1.9353079 -14.164867 2.6935928
-1.947258 -13.96154 0.65738535
-1.9324181 -13.855141 1.3051318
-1.9410799 -13.638741 1.2852529
-2.0260465 -13.92206 0.65608102
-2.0212965 -13.889421 0.98147357
-1.9988308 -13.735046 1.2949136
-2.0865834 -14.338042 2.7298827
-2.0608859 -13.872514 0.6540314
-2.0108969 -13.536021 1.2767068
-2.1047025 -13.900283 0.65561521
-2.156517 -14.242487 1.0072834
-2.0352743 -13.441751 1.2683465
-2.1428857 -13.874234 0.65468353
-2.0648122 -13.368742 1.2620299
-2.1794477 -13.854382 0.6540314
-2.1213222 -13.484887 1.2735486
-2.2253962 -13.893613 0.65617418
-2.1699948 -13.547731 1.280051
-2.2122235 -13.538882 1.2798653
-2.2510774 -13.524401 1.279122
-2.4054849 -13.712151 1.2988151
-2.4928684 -13.772026 0.97868335
-2.5229099 -13.481052 0.6395905
-2.5595031 -13.676587 0.97296333
-2.5819368 -13.573602 0.64434201
-2.621911 -13.551694 0.64368987
-2.6558857 -13.727296 0.97770673
-2.6528158 -13.509032 0.64201283
-2.6799791 -13.460894 0.64005637
-2.6883998 -13.50319 1.2845098
-2.7230475 -13.456324 0.6402427
-2.7288339 -13.484919 1.2835809
-2.764632 -13.468238 0.64117438
-2.7616761 -13.453838 1.2813514
-2.8086555 -13.479534 0.642106
-2.970716 -13.670788 0.97826481
-2.9992414 -13.607359 0.97435844
-3.0365562 -13.58477 0.97338182
-3.0768487 -13.575701 0.97338182
-3.1314111 -13.628736 0.97784626
-3.1459439 -13.51889 0.97059155
-3.1781912 -13.48675 0.96891743
-3.2228649 -13.486402 0.96961498
-3.2642751 -13.482597 0.97003359
-3.3014369 -13.471491 0.96989399
-3.340431 -13.457764 0.96961498
