# .PCD v0.7 - Point Cloud Data file format
VERSION 0.7
FIELDS x y z
SIZE 4 4 4
TYPE F F F
COUNT 1 1 1
WIDTH 209
HEIGHT 1
VIEWPOINT 0 0 0 1 0 0 0
POINTS 209
DATA ascii
-15.444549 3.1450343 1.1021523
-15.469758 3.2008164 1.1046635
-15.302762 3.2582831 1.0940605
-15.250699 3.291744 1.0909913
-14.605006 3.2004306 2.4564502
-14.345233 3.1435058 2.7669129
-15.167211 3.3652637 1.0863873
-14.558045 3.2301035 2.4499655
-14.34463 3.1827517 2.7683942
-14.970299 3.3682094 1.0729941
-14.473306 3.2563896 2.43732
-14.779339 3.3713479 1.0600194
-14.417402 3.2887857 2.4295382
-14.298664 3.2617002 2.7632101
-14.858687 3.4358575 1.066437
-14.342206 3.3164287 2.418514
-14.311903 3.3094215 2.7676537
-14.716939 3.4464045 1.0569501
-14.313673 3.3519678 2.4152715
-14.306432 3.3502722 2.7683942
-14.836709 3.5209212 1.0662974
-14.257578 3.3834867 2.4074898
-14.321288 3.3986061 2.7732081
-14.716245 3.5357733 1.0583452
-14.914936 3.5835116 1.4310933
-14.23502 3.4201527 2.0575352
-14.641094 3.5664067 1.0537413
-14.060641 3.4250147 2.0338757
-14.507614 3.5338922 2.453208
-14.612335 3.5999501 1.0523461
-13.90163 3.4248581 2.0121648
-14.195545 3.497268 2.4019778
-14.524158 3.6239705 1.0467657
-13.325857 3.3249784 1.606132
-13.806856 3.444994 1.9999176
-14.171702 3.5360279 2.399708
-14.094308 3.516717 2.7369184
-14.495934 3.6626506 1.0455101
-13.315933 3.3645029 1.606132
-14.117139 3.5669417 2.3922505
-14.504332 3.710587 1.0469052
-14.179822 3.627569 2.7576556
-14.382535 3.719578 1.0388135
-14.702342 3.8022857 1.416788
-13.307114 3.4414549 1.9317229
-13.995216 3.6194105 2.7235875
-14.19322 3.7182248 1.0259782
-14.301204 3.7465134 1.3792596
-14.298759 3.745873 1.7285548
-13.171704 3.4506166 1.9136304
-14.154204 3.7080038 2.4039233
-14.06363 3.6842759 2.7391403
-14.257995 3.7777748 1.0314192
-14.29646 3.7879665 1.379817
-13.218687 3.5024016 1.5991629
-13.177332 3.4914441 1.9158571
-14.220473 3.7678332 2.7717268
-14.166449 3.7958889 1.0255597
-14.228121 3.8124139 1.3742434
-14.070386 3.770149 1.7034662
-13.165618 3.5277171 1.9155787
-14.001739 3.751755 2.3815506
-14.226983 3.8121092 2.7750597
-14.486329 3.9277027 1.0495559
-14.849073 4.0260539 1.4353663
-14.314132 3.8810146 1.7343624
-13.857213 3.7571292 2.3588538
-14.364253 3.9430902 1.0416037
-14.492615 3.9783263 1.4021111
-13.479963 3.7003462 1.9645677
-13.944303 3.8278108 2.3757141
-14.417851 4.0038404 1.0463471
-14.795422 4.1086912 1.4325795
-14.045161 3.9003439 1.7046278
-13.260917 3.6825593 1.9342279
-14.248548 3.9568245 2.4295382
-13.953888 3.9170027 1.6948711
-13.233421 3.7147601 1.9317229
-13.847922 3.8872569 2.3630688
-14.368075 4.0332694 2.8117199
-14.456686 4.1017303 1.0508115
-14.21668 4.0336347 1.3787023
-14.040358 3.9836075 1.7067184
-13.575481 3.8517106 1.9832169
-14.005988 3.9738562 2.3919263
-14.351084 4.0717688 2.8106089
-14.575586 4.1794815 1.0602984
-14.199615 4.0716734 1.3781449
-13.922245 3.9921389 1.6937096
-13.657958 3.9163558 1.9968557
-14.337768 4.1112876 2.8102386
-14.532463 4.2138205 1.0580662
-14.351954 4.1614804 1.3941222
-14.303362 4.1473904 1.7415637
-14.357595 4.163116 2.8165338
-14.348365 4.2093477 1.3950512
-14.153021 4.1520405 1.7248379
-13.493148 3.9584548 1.9762582
-13.977637 4.1005883 2.3932233
-14.287868 4.1916003 2.8054247
-14.297525 4.2351184 1.0427198
-13.806497 4.0896692 1.3434033
-13.410577 3.9723923 1.9656811
-13.828717 4.096251 2.3695538
-14.210889 4.2094555 2.792464
-14.32196 4.2858934 1.0453706
-13.844625 4.1430492 1.3482337
-13.848695 4.1442671 1.6904573
-13.295076 3.9785948 1.950372
-13.821007 4.1359816 2.3702021
-14.227323 4.2575727 2.7980187
-14.348055 4.342865 1.3985811
-13.835607 4.1877575 1.6904573
-13.29578 4.024363 1.9523205
-13.998724 4.2371302 2.4029505
-14.155561 4.2846017 2.7865393
-14.689312 4.4909744 1.0741102
-14.240653 4.3538055 1.3892919
-13.28449 4.0614772 1.9523205
-14.160457 4.3292871 2.7898719
-13.480531 4.1651864 1.9829385
-13.70822 4.2355375 2.3572326
-14.13065 4.3660588 2.7865393
-14.9176 4.6577415 1.0928049
-14.049192 4.3865976 1.3731287
-13.745441 4.2917571 1.6839529
-13.581544 4.2405829 1.9996393
-13.569374 4.2367835 2.3355083
-14.202057 4.4343266 2.8032029
-14.934157 4.7115879 1.0950371
-14.241217 4.4929714 1.3931934
-13.704229 4.3235569 1.6804683
-13.993875 4.4149375 2.0622673
-13.641438 4.3037467 2.3500991
-14.027642 4.425591 2.7713566
-14.893256 4.7415881 1.0929445
-14.011192 4.4607644 1.3718282
-13.730721 4.37147 1.6851144
-14.272898 4.5440836 2.1051323
-13.600037 4.329864 2.3449113
-14.120324 4.544415 1.3839042
-13.669647 4.3993716 1.679307
-13.885262 4.4687638 2.05002
-13.580731 4.3707552 2.3439386
-13.996309 4.5045028 2.7702458
-13.997732 4.5481386 1.3731287
-13.848241 4.4995656 2.0464015
-13.61915 4.4251299 2.3526931
-13.935076 4.5277801 2.760618
-14.160137 4.6474023 1.3904066
-13.704478 4.4978538 1.6867405
-13.72945 4.5060492 2.0308142
-13.694092 4.4944444 2.3679326
-13.934651 4.5733972 2.7632101
-14.188258 4.7033072 1.045231
-14.136835 4.6862602 1.3894777
-13.661502 4.5286908 2.022742
-13.64323 4.522634 2.3614476
-14.024563 4.6898303 0.68962115
-14.143404 4.7295713 1.3913355
-13.654653 4.5661321 1.6837206
-13.685287 4.576376 2.0280306
-13.610755 4.5514526 2.3578811
-13.964811 4.6698494 2.7743192
-14.08062 4.7550697 0.69306827
-14.229302 4.8052802 1.4011821
-13.633518 4.6040816 1.6827915
-13.772975 4.6511769 2.0430613
-13.597191 4.591814 2.3578811
-13.976964 4.7200646 2.7795036
-14.031577 4.787673 0.69139129
-14.131568 4.8217907 1.0441148
-14.278214 4.8718271 1.4074987
-13.769387 4.6982121 1.7013755
-13.679568 4.6675653 2.0313706
-13.707839 4.6772118 2.3796051
-13.995547 4.7753792 2.7861688
-14.162567 4.8737965 0.69847196
-14.250347 4.9040046 1.4060124
-13.638705 4.6935191 1.6867405
-13.663557 4.7020712 2.0308142
-13.773927 4.7400532 2.3932233
-13.996222 4.8657832 0.69101864
-14.133715 4.9135828 1.0463471
-14.25556 4.9559426 1.4080561
-13.759089 4.7833447 2.0472364
-13.736598 4.7755251 2.3893323
-13.959957 4.896915 0.68990058
-13.963677 4.8982196 1.0347675
-14.553595 5.1051526 1.4388962
-13.75673 4.8256264 2.3951688
-13.942544 4.9345732 0.34338051
-13.938696 4.9332108 0.68952799
-13.492361 4.7752433 1.6737317
-13.53612 4.7907305 2.0180101
-13.78227 4.8778486 2.4019778
-13.896791 4.9675622 0.68822366
-14.078633 5.0325637 1.3948654
-14.487388 5.1786776 1.7991744
-13.565761 4.8492317 2.0246904
-13.871588 5.0022845 0.68766463
-13.419887 4.839395 2.0049279
-13.833159 5.0321207 0.68645346
-13.320706 4.8457046 1.992124
-14.082186 5.217545 0.70033526
-14.19482 5.3043981 0.70667064
-13.912653 5.2488313 0.69344097
-13.98009 5.3133283 0.69744712
-13.940947 5.3486352 0.69632912
