# .PCD v0.7 - Point Cloud Data file format
VERSION 0.7
FIELDS x y z
SIZE 4 4 4
TYPE F F F
COUNT 1 1 1
WIDTH 632
HEIGHT 1
VIEWPOINT 0 0 0 1 0 0 0
POINTS 632
DATA ascii
-2.4792414 3.3750787 0.39070353
-1.9453241 2.6482382 0.53986138
-2.4680424 3.3808105 0.39051771
-1.9293131 2.6428401 0.5375917
-2.4521544 3.3800585 0.3895888
-1.9145103 2.638968 0.5356462
-1.9117503 2.6507072 0.5369432
-1.9073265 2.6611798 0.53791589
-1.8959882 2.6620045 0.5369432
-2.372781 3.3511984 0.38308635
-1.8851249 2.6624572 0.53597051
-2.5016873 3.5767648 0.10133833
-2.3831148 3.4072368 0.38791674
-1.8051195 2.5972261 0.44451892
-2.4804196 3.5915463 0.10133833
-2.3198531 3.3590527 0.38085699
-1.8052841 2.6139777 0.44646734
-2.3832791 3.4728847 0
-2.4708827 3.6005392 0.10138476
-2.306495 3.3609955 0.38029963
-1.7986404 2.6209562 0.44674566
-2.3786891 3.4857197 0
-2.2999334 3.3703117 0.38067117
-1.8029368 2.642015 0.44952917
-2.3649678 3.4877968 0
-2.2876875 3.3738256 0.38029963
-1.9192665 2.8304873 0.64432937
-2.353492 3.4931393 0
-2.2832308 3.388855 0.38122854
-2.3426156 3.4980354 0
-2.2759752 3.3985267 0.38160011
-2.2818291 3.4305317 0.38438684
-2.3416705 3.5419059 0
-2.251375 3.4053288 0.38085699
-2.4337122 3.7049711 0.10291667
-2.4425924 3.7397883 0.10370585
-2.3204684 3.577307 0
-2.3992751 3.6987975 0.10235962
-2.2519157 3.4716239 0.3860589
-2.3158891 3.5921772 0
-2.3997717 3.7222877 0.10282383
-2.3470039 3.6404397 0.30288258
-2.226028 3.4527936 0.38327217
-2.3535645 3.6759245 0.10133833
-2.3311753 3.6409559 0.20161308
-2.2119472 3.4547389 0.38271481
-1.8486255 2.9051154 0.64877301
-2.3158994 3.661973 0.10059559
-2.2965975 3.6314521 0.50246793
-1.8101372 2.8622458 0.55639768
-1.8394555 2.9086049 0.64840269
-2.2641675 3.6024051 0.098785147
-2.2853897 3.6361704 0.50223565
-1.7464761 2.7787316 0.53921288
-2.3174186 3.7129679 0.10161687
-2.1592226 3.4595065 0.28516448
-2.0676236 3.3127465 0.36432222
-1.7983449 2.8813081 0.55801886
-1.7836592 2.8577788 0.63470143
-1.8350235 2.9584346 0.57196122
-1.7300892 2.7892587 0.61840802
-2.2550883 3.6598654 0.099806428
-2.1018348 3.4111447 0.46855196
-1.8303781 2.9705875 0.57325822
-1.7609837 2.857965 0.63247961
-2.2079008 3.6043763 0.098135248
-2.0939353 3.418329 0.46878424
-1.8215643 2.973686 0.57293397
-2.1971955 3.6109123 0.098135248
-2.0806849 3.4194367 0.46808735
-1.8055512 2.9672766 0.57066429
-1.8062935 2.9684968 0.6546979
-2.1868751 3.6195078 0.098181665
-2.062742 3.4140544 0.46646124
-1.7686651 2.9273262 0.56190974
-2.1773925 3.6252205 0.098181665
-2.0075862 3.3425038 0.36376485
-2.2577391 3.7589924 0.6162585
-1.7569312 2.9251792 0.5606128
-2.1670177 3.63376 0.098228097
-2.0104868 3.3712819 0.45902759
-1.754809 2.9425488 0.56288248
-1.7551222 2.9630253 0.56580067
-1.749362 2.9710109 0.56644911
-2.1566703 3.6892207 0.19928393
-1.7390227 2.9747887 0.56612486
-2.1507308 3.7042413 0.19974975
-2.0347712 3.5045216 0.37807021
-1.8118867 3.1206439 0.67987853
-2.1390276 3.7063992 0.19956343
-2.1949744 3.8033412 0.30706802
-1.7213947 2.9827459 0.56580067
-2.1164486 3.694032 0.19853857
-2.1849995 3.8136797 0.30734703
-2.0195024 3.5248225 0.37899914
-2.1104181 3.7089782 0.19900443
-2.0090342 3.5307996 0.37899914
-1.7148538 3.0137892 0.56969154
-1.6378126 2.8783922 0.62396258
-2.0977511 3.7092733 0.19872493
-2.0017447 3.5395133 0.37937069
-1.7059867 3.0165501 0.56936729
-2.0877149 3.7172225 0.19881809
-1.9931849 3.5489097 0.37974226
-1.9989911 3.5592477 0.47737938
-2.1065304 3.7753763 0.20161308
-1.9687129 3.5283763 0.37695551
-1.6018828 2.8709342 0.38445884
-1.8900801 3.4126036 0.36395064
-1.4811376 2.6742442 0.50224936
-1.8373457 3.3393564 0.35559034
-1.5896058 2.8890917 0.38562036
-2.1004207 3.8174922 0.61236167
-1.828385 3.3465405 0.35577613
-1.5819798 2.8955386 0.38585266
-1.467604 2.6861939 0.50289792
-1.8522776 3.4128909 0.36227858
-1.5719917 2.8964534 0.38538802
-1.4934628 2.7517612 0.58989459
-1.8770974 3.483233 0.36915258
-1.5633912 2.9011047 0.38538802
-1.5026649 2.7884181 0.5204069
-1.9217473 3.5900602 0.28474593
-1.8203723 3.4006793 0.35986337
-1.5815324 2.9544969 0.39189246
-1.4911461 2.7856441 0.5191099
-1.813674 3.4110241 0.36042073
-1.7840412 3.3552928 0.44439259
-1.4034401 2.6394866 0.56323272
-1.6111492 3.0532305 0.16099234
-1.8103845 3.4307942 0.36190701
-1.5815879 2.99721 0.39630622
-1.8107715 3.4315274 0.63745791
-1.3951416 2.6438823 0.56323272
-1.8029685 3.441443 0.36246437
-1.5376565 2.9350245 0.38747877
-1.3845539 2.6427877 0.56212181
-1.588926 3.0535984 0.1605265
-1.6880813 3.2441552 0.25572723
-1.5396537 2.9589069 0.31118801
-1.497362 2.8776307 0.37934822
-1.5094856 2.9009299 0.53726745
-1.3844266 2.6605916 0.56508422
-1.6780983 3.2470846 0.25558773
-1.538698 2.9773479 0.31267428
-1.4546628 2.8147416 0.37052074
-1.5430703 2.9858084 0.47235352
-1.5376211 2.9752641 0.55023706
-1.6578751 3.2328122 0.25405309
-1.7592376 3.4304664 0.35967761
-1.4412811 2.8104596 0.36935923
-1.5300683 2.9835923 0.55088556
-1.6638988 3.265584 0.25628528
-1.6381484 3.2150459 0.33664039
-1.3924345 2.7328053 0.35867336
-1.505229 2.9541769 0.544725
-1.5560478 3.0764482 0.24107836
-1.838917 3.6357064 0.38011381
-1.3726636 2.713881 0.35565343
-1.5652269 3.0945961 0.48738423
-1.4011463 2.7701938 0.51003116
-1.5191622 3.0257778 0.23675346
-1.4403389 2.8687823 0.29948363
-1.3654971 2.7197168 0.35588574
-1.3858371 2.7602289 0.50743723
-1.5142682 3.0371501 0.23731153
-1.429657 2.8674464 0.29892626
-1.3605565 2.7288525 0.35658267
-1.365334 2.7384348 0.43004492
-1.3790048 2.7658541 0.50776148
-1.5326816 3.0970626 0.24163643
-1.4025936 2.8341961 0.29502481
-1.3506908 2.7293169 0.35611808
-1.3598374 2.7477994 0.43087995
-1.3699161 2.7681651 0.50743723
-1.5229354 3.0773687 0.64692146
-1.5502111 3.156004 0.16397367
-1.5428377 3.1409929 0.24470571
-1.3959347 2.8419197 0.29539636
-1.3399599 2.7279632 0.35542116
-1.3481864 2.7447109 0.42976657
-1.3564767 2.7615888 0.50549179
-1.3297236 2.7263386 0.35472426
-1.3522193 2.7724619 0.50678879
-1.4715838 3.0171955 0.63247961
-1.5372305 3.1756694 0.16453268
-1.4873419 3.0726078 0.23870665
-1.793406 3.7048867 0.38401529
-1.32336 2.7338476 0.35518885
-1.3465675 2.7817907 0.50776148
-1.5054427 3.1100011 0.65099484
-1.51396 3.1514037 0.16304201
-1.4885865 3.0985873 0.24038081
-1.7815437 3.7083962 0.38382947
-1.3204044 2.7485054 0.35658267
-1.3519819 2.8142362 0.51294935
-1.3906742 2.8947766 0.60507709
-1.5189141 3.1844707 0.16453268
-1.4971056 3.1387482 0.24317107
-1.7763238 3.7241414 0.3849442
-1.3050264 2.7360456 0.35449195
-1.3475156 2.8251262 0.51424634
-1.3800459 2.8933272 0.60396618
-1.6047269 3.3902302 0.26228434
-1.2952033 2.7363145 0.35402733
-1.3332175 2.8166254 0.51197666
-1.3781825 2.9116206 0.60692859
-1.6056883 3.4184523 0.26409802
-1.289613 2.7455394 0.35472426
-1.4373288 3.0600209 0.47513703
-1.3164645 2.8027053 0.50873423
-1.3653601 2.9068022 0.60507709
-1.2832611 2.7507062 0.35495657
-1.3099573 2.8079302 0.50905848
-1.61949 3.4714224 0.7217229
-1.2746124 2.7547243 0.35495657
-1.303615 2.8174052 0.51003116
-1.4415687 3.1399653 0.080216512
-1.2763797 2.7801576 0.35774419
-1.2944268 2.8194671 0.50970691
-1.2732164 2.7925272 0.35890567
-1.2854027 2.8192554 0.50905848
-1.3746345 3.0388188 0.39003408
-1.2827265 2.8356433 0.5113281
-2.1018729 4.6834383 0.35896683
-1.3551112 3.0194881 0.3087728
-1.3778114 3.0700691 0.3935186
-1.2799629 2.852041 0.51359785
-1.9794976 4.4481134 0.11303658
-2.0780854 4.6696491 0.59771156
-1.2742068 2.86326 0.51489478
-1.3328903 2.9951272 0.61766744
-1.3476299 3.0511568 0.31118801
-2.0473809 4.635457 0.59260088
-1.2678013 2.8704174 0.51554328
-1.3253157 3.0006354 0.6180377
-1.3407022 3.0585561 0.31155956
-1.3216646 3.0151255 0.62025958
-1.3480437 3.098809 0.31527525
-1.8550514 4.2642903 0.54381758
-1.5335509 3.5252426 0.72431505
-1.9265311 4.4626288 0.22667497
-1.3567494 3.1427829 0.31936249
-1.8462861 4.2767487 0.54474682
-1.729461 4.006134 0.71689701
-1.3562707 3.168999 0.32159191
-1.3122978 3.0662541 0.39003408
-1.3689888 3.1987154 0.57163697
-1.3904206 3.2487919 0.66580701
-1.4119306 3.3246858 0.16844569
-1.2967422 3.0534508 0.38794336
-1.5181968 3.5749121 0.63810641
-1.3452348 3.1676366 0.64840269
-1.4100046 3.34936 0.16947052
-1.5807241 3.7548914 0.28488544
-1.3119442 3.116425 0.31546104
-1.2917668 3.0684948 0.38933718
-1.3086604 3.1086245 0.47402361
-1.5620903 3.710628 0.66145182
-1.3070744 3.1292636 0.31638995
-1.3098984 3.1360245 0.47764212
-1.4035152 3.3867121 0.17096119
-1.3044304 3.1476185 0.31787622
-1.2708075 3.0664856 0.38817567
-1.3018947 3.1414995 0.47792047
-1.3799853 3.3564031 0.084255189
-1.3788588 3.3536632 0.16909786
-1.3126986 3.1927483 0.48515746
-1.4896759 3.6231925 0.64361852
-1.2959532 3.15202 0.64210749
-1.3513782 3.3131042 0.16686186
-1.2529105 3.071696 0.38794336
-1.301991 3.192024 0.6495136
-1.3488035 3.3367271 0.083558865
-1.3424612 3.3210375 0.16704819
-1.2499552 3.0921919 0.39003408
-1.8214638 4.5060143 0.68306166
-1.4089791 3.4855919 0.61767924
-1.2757525 3.1560104 0.6413669
-1.3411293 3.346282 0.083698131
-1.3296293 3.3175879 0.16667551
-1.3749536 3.4306779 0.3448149
-1.2466873 3.1106377 0.39189246
-1.8073502 4.5095596 0.68278325
-1.2810067 3.1962686 0.64877301
-1.3419698 3.3739347 0.084301613
-1.3202 3.3192019 0.16658235
-1.3788795 3.4667318 0.26088923
-1.4207649 3.5720389 0.54027003
-1.2902923 3.244009 0.57358241
-1.3191071 3.3453212 0
-1.337088 3.3909218 0.084626563
-1.3118122 3.3268211 0.16676868
-1.2139921 3.0787446 0.38701415
-1.3876389 3.5191214 0.5316413
-1.2661831 3.2111034 0.5670976
-1.3307948 3.4062796 0.084905095
-1.31226 3.3588383 0.16816619
-1.2180493 3.117698 0.39142787
-1.2510624 3.2021978 0.56482792
-1.310308 3.3799243 0.084162347
-1.3114047 3.3827531 0.16919102
-1.2149081 3.1338415 0.39305398
-1.2749974 3.288841 0.49573463
-1.243387 3.2073023 0.56515217
-1.2942975 3.3699992 0
-1.2953825 3.3728242 0.083883815
-1.2907436 3.3607457 0.16788669
-1.3018744 3.3897274 0.25391355
-1.2425039 3.2351429 0.56936729
-1.2827451 3.3679936 0
-1.2806416 3.3624706 0.16779353
-1.2995036 3.4119949 0.25530869
-1.1758026 3.087204 0.4642815
-1.2722861 3.3687837 0.083605289
-1.2712474 3.3660333 0.16779353
-1.7131886 4.5362144 0.45238379
-1.7054729 4.5157843 0.5644924
-1.2355722 3.2715721 0.57455516
-1.2517709 3.3444555 0.082908966
-1.2808621 3.4221809 0.1704022
-1.167734 3.1199279 0.38956946
-1.2391733 3.3427467 0.082769699
-1.2902436 3.4805119 0.17310403
-1.2317985 3.3497324 0.082862541
-1.2783699 3.4763775 0.17273137
-1.2982806 3.5305226 0.35094577
-1.1634585 3.1638894 0.39421549
-1.2393224 3.4013171 0.16881835
-1.2864351 3.5306177 0.3505742
-1.1520247 3.1617286 0.3935186
-1.2299876 3.408952 0.16900469
-1.2766894 3.5383875 0.35094577
-1.2065697 3.3440483 0.49963146
-1.402813 3.8879433 0.77874976
-1.2334371 3.4448535 0.084951513
-1.2687116 3.5433712 0.35113156
-1.3212304 3.6900506 0.64394271
-1.2185992 3.4374049 0.084672987
-1.256907 3.5454628 0.35094577
-1.2977272 3.6606081 0.54583693
-1.1910996 3.3898613 0.083419599
-1.2509629 3.5602312 0.35206047
-1.4660829 4.1724615 0.6215471
-1.3110898 3.7649333 0.37193933
-1.2836993 3.6862788 0.45647228
-1.4876443 4.2719283 0.63574278
-1.2058014 3.4979346 0.34518644
-1.1992785 3.512804 0.34630117
-1.1996937 3.5484161 0.34945947
-1.1941845 3.5607774 0.35038841
-1.088642 3.2460747 0.64506996
-1.1798565 3.5550613 0.34945947
-1.1516135 3.4699614 0.51382715
-1.168059 3.5526671 0.34890214
-1.1518171 3.503267 0.51828068
-1.3198204 4.0142512 0.79615408
-1.1837898 3.6368489 0.26744631
-1.1599772 3.5636916 0.34964529
-1.0536222 3.2369471 0.6413669
-1.1622229 3.6069212 0.35354674
-1.1395098 3.536432 0.52217752
-1.0548625 3.2737319 0.64803237
-1.1563861 3.6234314 0.35484722
-1.1169869 3.4999774 0.51633227
-1.2186464 3.8185182 0.65853357
-1.0481087 3.2841537 0.6495136
-1.1450293 3.6249483 0.35466143
-1.0672241 3.3786316 0.49796137
-1.193638 3.7788341 0.65107608
-1.0377669 3.2853754 0.64914334
-1.1276169 3.6092606 0.62124586
-1.0274411 3.2886193 0.64914334
-1.0442327 3.3733706 0.49629134
-1.115245 3.6027741 0.61962467
-1.0112715 3.26689 0.64432937
-1.0278444 3.3535502 0.49295115
-1.1069152 3.6115346 0.62059736
-1.0027211 3.2715802 0.64469963
-1.0144308 3.347286 0.49155942
-1.1012868 3.633882 0.6238398
-0.99528742 3.2841194 0.64655113
-1.0045258 3.3461363 0.49100274
-1.104254 3.6783371 0.6309731
-0.9855566 3.2829487 0.64581054
-1.0666988 3.5942061 0.52690941
-0.95790195 3.2276189 0.63433111
-1.2591338 4.2864485 0.52244586
-1.0890353 3.7073846 0.54305351
-0.94833332 3.2283955 0.63396084
-1.0345079 3.5631189 0.60957319
-0.93489736 3.2200339 0.63173902
-1.0289124 3.5811687 0.61216712
-0.9259007 3.2226324 0.63173902
-1.0471629 3.683413 0.3572624
-1.0429622 3.668637 0.4460187
-0.9542793 3.3566935 0.49044606
-1.0410353 3.6618588 0.62546104
-1.0421575 3.7075915 0.35930604
-1.0356493 3.7218177 0.36042073
-0.94029516 3.379143 0.49295115
-1.0318696 3.7538548 0.36320749
-0.98932105 3.5990667 0.43649435
-0.93859935 3.4145453 0.49768305
-0.90278399 3.2842519 0.64173716
-0.98187321 3.6113994 0.43765584
-0.92646307 3.4075971 0.49629134
-0.92940456 3.418416 0.58201271
-0.88948452 3.2715874 0.63877475
-0.89109933 3.3186777 0.48293072
-0.8413797 3.1335092 0.53305227
-0.962789 3.5856681 0.69950467
-0.83854598 3.1603639 0.38236812
-0.8751542 3.2983353 0.47959054
-0.89518923 3.3738444 0.65766031
-0.86752248 3.304446 0.48014721
-0.89803499 3.42067 0.58103997
-0.98067874 3.7354653 0.72764778
-0.8033846 3.099762 0.37446988
-0.87204283 3.3646712 0.48849764
-0.87292439 3.3680727 0.57163697
-0.91371059 3.5254414 0.68617368
-0.79571176 3.1058416 0.37493446
-0.86313558 3.3690119 0.48877597
-0.85714865 3.3456435 0.56742185
-0.8975215 3.5032277 0.68135971
-0.93708891 3.7006187 0.35614771
-0.79386282 3.1350107 0.37818667
-0.84828752 3.349937 0.5677461
-0.84160107 3.367964 0.24275254
-0.77148813 3.0873823 0.37214687
-0.78695142 3.1492643 0.45620945
-0.82627565 3.3066339 0.5599643
-0.79619235 3.186245 0.61877835
-0.83289057 3.3680732 0.24261302
-0.92070818 3.7231934 0.35781977
-0.75583565 3.0564759 0.36819774
-0.7797299 3.1531003 0.4564878
-0.80303347 3.2473361 0.54958856
-0.79406679 3.2110763 0.62322199
-0.82183152 3.3687351 0.2424735
-0.89909452 3.6854408 0.35391831
-0.73963761 3.0318174 0.36494553
-0.75526792 3.0958869 0.44785908
-0.84592801 3.4675078 0.67247248
-0.81230038 3.3730984 0.24261302
-0.73342973 3.0455859 0.36633933
-0.74051523 3.0750086 0.44451892
-0.89176404 3.7030733 0.62578523
-0.84714037 3.5177724 0.68173003
-0.83811963 3.5207806 0.25307649
-0.88126546 3.7020278 0.35503301
-0.74845552 3.1441188 0.37795439
-0.73475611 3.08657 0.44591066
-0.7714659 3.2407811 0.54731894
-0.84065956 3.53145 0.68395191
-0.85468692 3.6439698 0.26172629
-0.91354823 3.8949258 0.37323982
-0.73847932 3.1485169 0.37818667
-0.74944896 3.1952863 0.53921288
-0.87292784 3.7217402 0.72024167
-0.84225577 3.6366241 0.26102871
-0.95658427 4.1302624 0.39553392
-0.73371702 3.1679845 0.3802774
-0.76146823 3.2878063 0.47430196
-0.73295212 3.1646814 0.53370076
-0.87672102 3.7854354 0.73209143
-0.71176958 3.11024 0.44841576
-0.7396338 3.2319992 0.544725
-0.86373925 3.7743063 0.72949934
-0.82788032 3.6706083 0.26312143
-0.76935673 3.4111297 0.32623649
-0.76440835 3.38919 0.40629515
-0.70286554 3.1163249 0.44897243
-0.7173177 3.180402 0.5356462
-0.80344498 3.5622683 0.68802524
-0.81262833 3.6474473 0.26130775
-0.70109737 3.1468456 0.30078411
-0.69685858 3.1278198 0.45036417
-0.72186452 3.2400579 0.54537344
-0.793262 3.5605226 0.68728459
-0.79432231 3.6188023 0.25907555
-0.69078147 3.1470871 0.30059832
-0.69888085 3.1839867 0.3812066
-0.70698643 3.2209144 0.46344647
-0.74468583 3.3926668 0.57066429
-0.80398464 3.6628222 0.70654047
-0.6828326 3.1528969 0.3009699
-0.68073553 3.1432142 0.37609598
-0.6950537 3.2093265 0.46149805
-0.72184038 3.3330109 0.56028855
-0.77170324 3.5632465 0.68691432
-0.71332079 3.344425 0.23912519
-0.67583233 3.1686592 0.30227038
-0.66754311 3.1297951 0.37423757
-0.68083715 3.1921244 0.45871457
-0.69921941 3.3209007 0.23731153
-0.8722676 4.1427827 0.39497656
-0.661394 3.1412511 0.37539908
-0.67288643 3.1958339 0.45899293
-0.77826351 3.6963158 0.62059736
-0.74468976 3.5368595 0.68098944
-0.68895674 3.3210073 0.23717201
-0.65005231 3.1334746 0.37423757
-0.66259569 3.193938 0.45843622
-0.73259449 3.5313561 0.67950821
-0.68948698 3.3738596 0.24079935
-0.66187447 3.2387438 0.54310375
-0.77366561 3.7857702 0.72801811
-0.8127625 4.0308547 0.48086393
-0.64442027 3.1959701 0.5356462
-0.68673599 3.4619257 0.2467984
-0.6397534 3.22508 0.54018563
-0.77861768 3.9251132 0.75393933
-0.79426414 4.0671763 0.38661626
-0.62937868 3.2228496 0.46149805
-0.6237517 3.1940358 0.53467351
-0.76508552 3.9177616 0.75208789
-0.63331401 3.2887537 0.39166018
-0.62168711 3.2283762 0.46205473
-0.75160015 3.9030049 0.65302151
-0.74516201 3.8695724 0.74245995
-0.62334907 3.2926786 0.39189246
-0.61338443 3.2400429 0.46344647
-0.76209563 4.0255709 0.67312449
-0.61357737 3.2945135 0.39189246
-0.74292195 3.9890106 0.66663957
-0.72367096 3.8856452 0.74468178
-0.73585314 4.0132928 0.4771471
-0.60114193 3.2785871 0.46845669
-0.71042305 3.8745987 0.64718515
-0.71033502 3.8741186 0.74208969
-0.69750869 3.8688371 0.45972449
-0.65234864 3.6771338 0.43672666
-0.68707377 3.8728712 0.55279559
-0.70843422 3.9932752 0.66631538
-0.70311546 3.9632943 0.75838304
-0.68359792 3.9168382 0.74912542
-0.63708907 3.7154045 0.35168889
-0.67994624 3.9653411 0.75801277
-0.57932621 3.4397857 0.40792125
-0.5737679 3.4696064 0.32809433
-0.56375796 3.4692299 0.32790858
-0.56428552 3.4724762 0.41140577
-0.61917734 3.8102672 0.63421553
-0.6165176 3.8706629 0.64394271
-0.64515561 4.1198864 0.68512136
-0.63634986 4.1392274 0.68803954
-0.55087006 3.6597364 0.25879651
-0.62363547 4.1431575 0.68836379
-0.52278841 3.5360405 0.33348209
-0.60874629 4.1174436 0.68382442
-0.57462096 3.8866262 0.74023813
-0.53863722 3.7240598 0.26312143
-0.5239352 3.6224117 0.34147078
-0.57292557 3.9611244 0.65756088
-0.56606621 3.9136996 0.7450521
-0.51107985 3.6090922 0.25489017
-0.54538554 3.8513491 0.54667199
-0.55582827 3.9250922 0.74690366
-0.53557402 3.8547254 0.54695034
-0.55839777 4.0189962 0.66663957
-0.48974738 3.608022 0.25461113
-0.52532512 3.8701267 0.54889876
-0.56647307 4.1732683 0.69193041
-0.48256177 3.6311305 0.25614578
-0.51477718 3.8735416 0.54917711
-0.53921825 4.0574532 0.67247593
-0.4915469 3.7847066 0.53637314
-0.51624608 3.97488 0.65853357
-0.48338708 3.7997332 0.53832161
-0.50932556 4.0036263 0.66307294
-0.52707213 4.1431255 0.78689641
-0.45011967 3.6292634 0.25572723
-0.48217398 3.8877137 0.55056882
-0.50573361 4.077672 0.67506987
-0.47345889 3.9067407 0.55307394
-0.45920277 3.7891064 0.62708223
-0.44822252 3.7983699 0.62837917
-0.43258503 3.755939 0.26437703
-0.44936261 3.9016111 0.55196053
-0.43761438 3.7996066 0.62837917
-0.42188269 3.7611713 0.26465607
-0.43734163 3.8989909 0.55140388
-0.42105794 3.7538188 0.62059736
-0.41115493 3.7663732 0.26493508
-0.42620173 3.9042089 0.55196053
-0.39776245 3.7404816 0.61800349
-0.39056566 3.7729867 0.6231913
-0.39462468 3.8121982 0.72209322
-0.41312364 4.1027288 0.57951683
-0.38279679 3.8015532 0.62773067
-0.41130993 4.2024226 0.59343415
-0.37256268 3.8065357 0.62837917
-0.39773294 4.1997504 0.59287745
-0.36283582 3.8312643 0.63227004
-0.38346225 4.1811895 0.59009403
-0.38661408 4.2155566 0.6954971
-0.37606454 4.2303801 0.69776678
-0.33762202 3.7979372 0.71839017
-0.36746427 4.2687731 0.70392728
-0.23953597 4.0082016 0.75653148
-0.22727667 4.0148211 0.75764239
-0.21420097 3.9551029 0.65075183
-0.21842121 4.0330272 0.76097512
-0.20197642 3.959698 0.65140027
-0.19158207 3.9740453 0.65366995
-0.15980257 4.0672464 0.7669
-0.14419082 3.9701223 0.65269721
-0.13872528 4.0955515 0.77208424
-0.12573813 4.0920386 0.77134371
-0.11103646 3.9751368 0.65334576
-0.11321364 4.0530806 0.76393765
-0.099437349 3.9833405 0.6546427
-0.10108813 4.0494685 0.763197
-0.088096194 4.0053215 0.65820938
-0.08894375 4.0438561 0.76208609
-0.049035382 3.7457695 0.70579988
-0.039167665 3.739989 0.70468891
-0.028113876 3.745985 0.70579988
-0.016982038 3.7421207 0.70505923
-0.0072046025 3.7519796 0.70691073
0.0039185877 3.7421575 0.70505923
0.02573793 3.7813802 0.71246535
0.03799174 3.8186219 0.71950108
0.048903115 3.8381534 0.72320414
0.060774587 3.82619 0.72098231
0.07030306 3.8358555 0.72283387
0.10425277 3.8036246 0.71690899
0.11540562 3.8209991 0.72024167
0.1261414 3.8226264 0.72061199
0.13829298 3.8261395 0.72135258
