# .PCD v0.7 - Point Cloud Data file format
VERSION 0.7
FIELDS x y z
SIZE 4 4 4
TYPE F F F
COUNT 1 1 1
WIDTH 184
HEIGHT 1
VIEWPOINT 0 0 0 1 0 0 0
POINTS 184
DATA ascii
-1.75699 -3.7253513 0.095628485
-1.7346134 -3.6530883 0
-1.7588502 -3.6742949 0.18996723
-1.7619332 -3.6528654 0.18912874
-1.7585634 -3.6216199 0
-1.7563431 -3.6170473 0.09335383
-1.7723622 -3.6500373 0.1892219
-1.7109878 -3.5236416 0.73801631
-1.7881563 -3.6549244 -0.094467945
-1.7596333 -3.5966246 0
-1.7582806 -3.5938597 0.092889614
-1.7216194 -3.5189257 0.55056882
-1.7216109 -3.5189083 0.64361852
-1.7145255 -3.504426 0.7350539
-1.8034133 -3.6585703 -0.094700053
-1.7588016 -3.5680671 0
-1.7565597 -3.563519 0.092239708
-1.8028243 -3.6573753 0.19015357
-1.7302101 -3.5100636 0.45763379
-1.7276745 -3.5049195 0.54917711
-1.7276813 -3.5049336 0.64199734
-1.8145113 -3.6553111 -0.09474647
-1.7705367 -3.5667245 0
-1.7736158 -3.5729275 0.092611082
-1.8156948 -3.6576951 0.19043307
-1.7522562 -3.5298989 0.3676663
-1.7391214 -3.5034392 0.45740148
-1.80504 -3.6362312 -0.96189338
-1.7407978 -3.5068161 0.73764598
-1.8298213 -3.6588516 -0.094978578
-1.7811126 -3.561455 0
-1.7833158 -3.5658605 0.092564657
-1.8149234 -3.6290622 0.1892219
-1.7598183 -3.5188758 0.27511954
-1.7555971 -3.5104353 0.36618003
-1.8193039 -3.6378212 -0.96373785
-1.7451917 -3.489629 0.64102459
-1.7468005 -3.492846 0.73579448
-1.8424681 -3.6569784 -0.09507142
-1.7979704 -3.5686581 0
-1.7866902 -3.5462689 0.092193283
-1.7744447 -3.5219638 0.18391138
-1.8239594 -3.6202419 -0.96051002
-1.7519565 -3.4773285 0.54722869
-1.7599773 -3.4932485 0.64264578
-1.7615772 -3.4964242 0.73764598
-1.846341 -3.6393373 -0.09474647
-1.8006902 -3.5493546 0
-1.778494 -3.5056033 0.091264851
-1.7752343 -3.4991782 0.18297972
-1.7755425 -3.4997857 0.27442196
-1.7642362 -3.4774997 0.45600766
-1.8234961 -3.5943074 -0.95497656
-1.7634524 -3.4759548 0.54778534
-1.7670468 -3.4830399 0.64167303
-1.7668884 -3.4827275 0.73579448
-1.7904587 -3.5033848 -0.27511954
-1.8028831 -3.5276959 -0.18474989
-1.8016266 -3.5252368 -0.091914758
-1.7866393 -3.4959116 0
-1.7834282 -3.4896283 0.090986319
-1.7810631 -3.4850006 0.18251388
-1.781633 -3.4861155 0.36525112
-1.7763547 -3.4757876 0.45647228
-1.8279535 -3.5767508 -0.95174873
-1.7746598 -3.472471 0.5480637
-1.7791699 -3.4812961 0.64232153
-1.785264 -3.4932203 0.73912722
-1.8005427 -3.4959691 -0.27498001
-1.8017066 -3.4982285 -0.091357693
-1.7930347 -3.4813912 0
-1.7892587 -3.4740596 0.18223438
-1.8023697 -3.4995162 0.27525905
-1.7943999 -3.4840419 0.36562267
-1.7872655 -3.4701898 0.45647228
-1.8391813 -3.5709903 -0.95174873
-1.797349 -3.4897678 0.55168223
-1.7991345 -3.4932346 0.64556396
-1.8209263 -3.5129237 -0.36915258
-1.8142791 -3.5000997 -0.27567759
-1.8062574 -3.4846244 -0.091125585
-1.7984606 -3.4695828 0
-1.8025769 -3.477524 0.090939902
-1.807541 -3.4871008 0.18316606
-1.8124428 -3.4965572 0.27539855
-1.8016814 -3.4757965 0.36525112
-1.8036571 -3.4796078 0.45833066
-1.8413582 -3.5523407 -0.94805974
-1.8174157 -3.506151 0.55502236
-1.8128141 -3.4972734 0.64718515
-1.8125894 -3.49684 0.74208969
-1.8296034 -3.5041764 -0.46227983
-1.8258115 -3.4969139 -0.36803788
-1.823733 -3.492933 -0.27553809
-1.8124499 -3.4713228 0
-1.8175142 -3.4810221 0.09117201
-1.8206537 -3.487035 0.18344556
-1.8218861 -3.4893956 0.27525905
-1.8267332 -3.4986792 0.36822367
-1.8415555 -3.5270677 0.4652997
-1.8563941 -3.5554876 -0.95036536
-1.8418775 -3.5023162 -0.55613577
-1.8353696 -3.4899416 -0.46111831
-1.8306179 -3.4809065 -0.36692318
-1.8313029 -3.4822087 -0.27511954
-1.8306268 -3.4809232 -0.091311276
-1.8255346 -3.4712403 0
-1.8296961 -3.4791534 0.091264851
-1.8347117 -3.4886906 0.18381822
-1.8424467 -3.5033987 0.27679369
-1.8473021 -3.5126312 0.3702673
-1.8732762 -3.5620208 -0.95359319
-1.8620431 -3.5182731 -0.65399426
-1.8491867 -3.4939814 -0.55557907
-1.8404125 -3.4774027 -0.27511954
-1.8447728 -3.4856415 -0.18391138
-1.8444095 -3.4849551 -0.091543384
-1.8392932 -3.4752879 0
-1.8462801 -3.4884894 0.091636226
-1.8606598 -3.5156596 0.18549521
-1.8600112 -3.5144341 0.27804932
-1.8835049 -3.5588245 -0.9540543
-1.873224 -3.5393991 -0.85119057
-1.8516216 -3.4985821 -0.74579275
-1.8665863 -3.5002158 -0.65172452
-1.8545043 -3.4775598 -0.460886
-1.8534467 -3.4755764 -0.36748052
-1.8513281 -3.4716036 -0.27511954
-1.8613548 -3.4904056 -0.18447039
-1.854408 -3.4773791 -0.091496959
-1.8567898 -3.4818454 0
-1.8807516 -3.5267785 0.092796765
-1.8792162 -3.5238993 0.18624055
-1.8873503 -3.5391524 -0.95036536
-1.8650029 -3.4972465 -0.84245819
-1.8607541 -3.4892793 -0.7450521
-1.862999 -3.4686615 -0.5533523
-1.8648146 -3.4720418 -0.460886
-1.8656355 -3.4735703 -0.36785209
-1.8644528 -3.4713683 -0.27553809
-1.8726484 -3.4866273 -0.18456355
-1.8789089 -3.4982836 -0.092193283
-1.8968842 -3.5317514 0.093075298
-1.8803473 -3.5009618 -0.94160408
-1.8735204 -3.488251 -0.84162664
-1.885776 -3.4876711 -0.65140027
-1.8820974 -3.4808676 -0.55613577
-1.8763921 -3.4703159 -0.46135059
-1.8800633 -3.4771059 -0.36878103
-1.8769855 -3.4714134 -0.2759566
-1.9203856 -3.5516803 -0.18829024
-1.8864133 -3.4888499 -0.93975967
-1.8789499 -3.4750464 -0.74431145
-1.8989476 -3.4872603 -0.65237302
-1.890523 -3.4717891 -0.55557907
-1.8923807 -3.4752007 -0.46274441
-1.9103708 -3.5082383 -0.37268245
-1.9130391 -3.5131381 -0.27972347
-1.9224926 -3.5304987 0
-1.8930342 -3.4764009 -0.93791521
-1.8954506 -3.4808385 -0.84245819
-1.8911325 -3.4729085 -0.7450521
-1.9153193 -3.4940579 -0.6546427
-1.910683 -3.4856002 -0.5586409
-1.9307238 -3.5221601 -0.46971345
-1.936433 -3.5325749 -0.37584078
-1.9055414 -3.4762204 -0.93929857
-1.9070445 -3.4789627 -0.84328991
-1.9055473 -3.4762311 -0.74690366
-1.9323537 -3.5004544 -0.65691239
-1.9430307 -3.5197957 -0.56504285
-1.9450052 -3.5233724 -0.47064263
-1.9252518 -3.4875894 -0.94390976
-1.9192489 -3.4767151 -0.84412158
-1.9348496 -3.5049756 -0.75430971
-1.9592401 -3.5244005 -0.56671292
-1.9346464 -3.4801598 -0.94344854
-1.9542702 -3.5154603 -0.8549329
-1.9576558 -3.5215507 -0.75912368
-1.9810485 -3.5388658 -0.66631538
-1.9677781 -3.5151601 -0.95451546
-1.9694698 -3.518182 -0.85701209
-1.9700153 -3.5191567 -0.75986421
-1.9825139 -3.5198319 -0.85867536
