# .PCD v0.7 - Point Cloud Data file format
VERSION 0.7
FIELDS x y z
SIZE 4 4 4
TYPE F F F
COUNT 1 1 1
WIDTH 72
HEIGHT 1
VIEWPOINT 0 0 0 1 0 0 0
POINTS 72
DATA ascii
-8.8318357 14.051897 -1.9408783
-8.8149958 14.123385 -1.9469181
-8.789135 14.169889 -1.9499379
-8.7553864 14.209437 -1.9517964
-8.7368364 14.2628 -1.9559778
-8.6882792 14.278481 -1.9545841
-8.673172 14.35501 -1.9613209
-8.6509056 14.40321 -1.9648052
-8.6168089 14.449082 -1.9673607
-8.5738964 14.474588 -1.9673607
-8.548068 14.517524 -1.9701482
-8.4863729 14.51687 -1.9664314
-8.4382792 14.533395 -1.9652698
-8.4041691 14.562321 -1.9661992
-8.3761578 14.619676 -1.9703805
-8.385788 14.737698 -1.9829248
-8.3677139 14.795912 -1.9878031
-8.335453 14.841456 -1.9905907
-8.3026886 14.880285 -1.9926814
-8.2693701 14.930627 -1.9959337
-8.2458401 14.986728 -2.0003474
-8.2394371 15.080855 -2.0096395
-8.2086582 15.12476 -2.0124271
-8.190134 15.19801 -2.0189314
-8.157032 15.238338 -2.0212545
-8.1321688 15.294383 -2.0256681
-8.1016979 15.353234 -2.030082
-8.0726957 15.408878 -2.0342634
-8.0378914 15.447221 -2.0363543
-8.0293741 15.536668 -2.0451818
-8.0231323 15.644893 -2.0560999
-8.0074005 15.715401 -2.0626042
-7.9795599 15.776317 -2.0674825
-7.9407396 15.815898 -2.0695732
-7.8726134 15.79001 -2.0633011
-7.8195562 15.800838 -2.0616748
-7.784905 15.848932 -2.0649273
-7.755414 15.900963 -2.0688763
-7.722918 15.9543 -2.0728254
-7.6910324 16.009371 -2.0770068
-7.6599746 16.059477 -2.0807238
-7.6258926 16.110861 -2.0844405
-7.5915718 16.162182 -2.0881574
-7.5576344 16.200001 -2.0904803
-7.5308909 16.275951 -2.0972173
-7.4966583 16.328911 -2.1011662
-7.4711838 16.38644 -2.1060445
-7.4339976 16.433874 -2.1092968
-7.4006524 16.490294 -2.1137104
-7.3690047 16.558832 -2.119518
-7.3371849 16.612053 -2.1236994
-7.3043184 16.663408 -2.1276486
-7.2728157 16.718349 -2.1320624
-7.2418513 16.775068 -2.1367085
-7.2070866 16.839743 -2.1420515
-7.1778951 16.901855 -2.1473942
-7.140172 16.960941 -2.1520405
-7.1119227 17.026636 -2.1578479
-7.0818424 17.088636 -2.1631906
-7.0514708 17.150602 -2.1685336
-7.0253015 17.22357 -2.1752703
-6.9905171 17.293436 -2.1813102
-6.957654 17.360199 -2.1871178
-6.933466 17.431885 -2.1938546
-6.9013925 17.502275 -2.2001266
-6.8637257 17.568275 -2.2057021
-6.8392439 17.64175 -2.212671
-6.8044443 17.716925 -2.2194078
-6.7711992 17.778557 -2.2247508
-6.7411809 17.84943 -2.2312551
-6.7076821 17.921446 -2.2377594
-6.6720643 17.998306 -2.2447283
