# .PCD v0.7 - Point Cloud Data file format
VERSION 0.7
FIELDS x y z
SIZE 4 4 4
TYPE F F F
COUNT 1 1 1
WIDTH 64
HEIGHT 1
VIEWPOINT 0 0 0 1 0 0 0
POINTS 64
DATA ascii
5.9934916 5.3625674 -1.70945
6.0137634 5.34866 -1.7106977
6.021884 5.327713 -1.7090342
6.0273809 5.3007798 -1.7061235
6.0381126 5.2766671 -1.7044601
6.2897468 5.4965682 1.5737928
6.0858641 5.2903619 -1.7140242
6.2596154 5.4414015 1.5626838
6.0695353 5.2464781 -1.7052919
6.0859499 5.2606668 -1.5156553
6.261405 5.4123297 1.559351
6.131351 5.2663503 -1.135931
6.0755982 5.2184634 -1.7023811
6.2575035 5.3747058 1.5541667
6.1943488 5.2904754 -0.56963134
6.0960965 5.2065597 -1.7040443
6.1036067 5.2129741 -1.5123224
6.2500696 5.3380651 1.5486122
6.223505 5.283524 -0.18953936
6.126431 5.2011118 -1.7082026
6.1340299 5.2075629 -1.5160255
6.2613845 5.3156824 1.5475013
6.1772852 5.2109771 -1.3277671
6.1704144 5.2051811 -1.1345392
6.1812887 5.2143545 -0.94569904
6.2823191 5.2995806 0.38328847
6.264534 5.2845778 1.5441685
6.2055693 5.2070928 -0.94732511
6.2071142 5.2083893 -0.75595462
6.2173553 5.2169828 -0.56753868
6.30932 5.2941504 0.76840216
6.313612 5.2977514 0.96381855
6.2768412 5.2668972 1.5437982
6.2487516 5.2136569 -0.56907326
6.2725511 5.2335143 -0.3809593
6.2684646 5.2301044 -0.18953936
6.2670827 5.2289515 0
6.2761407 5.2365093 0.18977147
6.3614726 5.3077059 1.3611641
6.2885089 5.2468286 1.5430577
6.3050337 5.2271085 0
6.3033347 5.2257004 0.19009642
6.3181834 5.2380104 0.38272947
6.3250012 5.2436624 0.57451427
6.3004198 5.2232838 1.5419466
6.3673291 5.2488232 0.57702553
6.3583522 5.2414231 0.76877367
6.3672667 5.2487717 0.96498007
6.377305 5.2570467 1.1615388
6.3913312 5.268609 1.3608396
6.310431 5.20192 1.5408359
6.3974686 5.241868 1.1623738
6.414567 5.255878 1.3624609
6.3273568 5.1844206 1.5412061
6.3433352 5.1679707 1.5415764
6.3647528 5.1540728 1.5430577
6.3775887 5.1350474 1.5426874
6.4044318 5.1235819 1.5452795
6.421792 5.1081219 1.5460202
6.4446254 5.0951452 1.5478717
6.4736247 5.0869284 1.5512043
6.50705 5.0856972 1.5560182
6.5438433 5.0832467 1.5612025
6.5877857 5.0842795 1.567868
