# .PCD v0.7 - Point Cloud Data file format
VERSION 0.7
FIELDS x y z
SIZE 4 4 4
TYPE F F F
COUNT 1 1 1
WIDTH 101
HEIGHT 1
VIEWPOINT 0 0 0 1 0 0 0
POINTS 101
DATA ascii
38.23653 -9.8886395 6.4887118
38.273685 -10.01236 6.4997363
38.136971 -10.097589 6.4815788
37.954338 -10.169835 6.4556398
37.701138 -10.221979 6.4177032
37.453785 -10.281335 6.3810639
37.238564 -10.334166 6.3492885
36.973846 -10.365033 6.3087583
36.796806 -10.440198 6.2841158
36.581528 -10.482677 6.2520161
36.417625 -10.559624 6.2296433
36.134258 -10.593785 6.1865196
35.955078 -10.657206 6.1612287
35.713406 -10.687363 6.1245894
35.513416 -10.742425 6.0957317
35.317188 -10.797547 6.067523
35.113407 -10.849272 6.0380173
34.902096 -10.897528 6.0072141
34.683308 -10.935605 5.9747896
34.507835 -10.986317 5.9498234
34.309708 -11.042069 5.9216142
34.126766 -11.081874 5.8950272
33.902393 -11.126873 5.862278
33.723186 -11.172469 5.8366632
33.547741 -11.218407 5.811697
33.360886 -11.27257 5.7854328
33.174236 -11.312819 5.7585211
32.972698 -11.346974 5.7290154
32.810135 -11.406438 5.7069674
32.657372 -11.442848 5.6852427
32.440796 -11.481517 5.653791
32.272625 -11.536213 5.6307702
32.11808 -11.569551 5.6087217
31.923931 -11.613051 5.5811615
31.741304 -11.647085 5.5548973
31.582796 -11.689098 5.5328493
31.422258 -11.735801 5.5108008
31.248583 -11.782932 5.4868073
31.088495 -11.81562 5.4641104
30.898285 -11.854552 5.4371982
30.737823 -11.897735 5.4151497
30.598091 -11.935849 5.3960195
30.42297 -11.97166 5.371377
30.253674 -12.002715 5.3473835
30.102495 -12.046234 5.3269563
29.951046 -12.094927 5.3068533
29.798046 -12.136097 5.2861023
29.629536 -12.151958 5.2614598
29.479971 -12.198949 5.2416806
29.331038 -12.233364 5.2212539
29.176363 -12.270606 5.2001777
29.041716 -12.315515 5.1826692
28.881651 -12.348868 5.1606207
28.723806 -12.376369 5.1385722
28.58378 -12.416719 5.1200905
28.442329 -12.449801 5.1009603
28.283918 -12.486489 5.0795603
28.135717 -12.509181 5.0588093
27.991833 -12.550678 5.0400028
27.852757 -12.576001 5.0208726
27.743471 -12.625888 5.0079031
27.589285 -12.654667 4.9868274
27.446348 -12.681993 4.9673729
27.317356 -12.720882 4.9508367
27.200882 -12.764989 4.9365702
27.051825 -12.798894 4.9167914
26.929594 -12.821688 4.9002552
26.791325 -12.859257 4.882422
26.657585 -12.88678 4.8645883
26.528744 -12.921742 4.848052
26.387041 -12.955443 4.8295703
26.284033 -12.990377 4.816925
26.141645 -13.010964 4.7974706
26.010677 -13.047896 4.7809343
25.904198 -13.079477 4.7676406
25.771517 -13.11425 4.7507801
25.639412 -13.142944 4.7335954
25.513714 -13.16297 4.7167349
25.396942 -13.203914 4.7027922
25.29003 -13.238173 4.6898227
25.193031 -13.282778 4.6791229
25.066359 -13.311187 4.6629105
24.950768 -13.339263 4.6483197
24.831743 -13.364926 4.6330805
24.698288 -13.387759 4.6155715
24.585093 -13.4265 4.6022773
24.466837 -13.445197 4.5867143
24.350233 -13.480891 4.5727715
24.252155 -13.515213 4.5614233
24.131699 -13.53654 4.5458593
24.022045 -13.57442 4.5332141
23.903418 -13.595591 4.5179749
23.803698 -13.62699 4.5063024
23.685547 -13.658325 4.4920359
23.559233 -13.667799 4.4748507
23.448706 -13.696829 4.4615569
23.344328 -13.734402 4.4498844
23.234264 -13.74618 4.4352937
23.138409 -13.787786 4.4252419
23.026318 -13.813738 4.411624
22.920073 -13.837186 4.3986545
