# .PCD v0.7 - Point Cloud Data file format
VERSION 0.7
FIELDS x y z
SIZE 4 4 4
TYPE F F F
COUNT 1 1 1
WIDTH 101
HEIGHT 1
VIEWPOINT 0 0 0 1 0 0 0
POINTS 101
DATA ascii
21.913429 -12.712993 -1.7715354
21.813595 -12.741729 -1.766513
21.71327 -12.774785 -1.7616301
21.699163 -12.837962 -1.7630252
21.716997 -12.940791 -1.7677685
21.740097 -13.042119 -1.772791
21.761663 -13.137836 -1.7775344
21.784571 -13.234814 -1.7824174
21.804152 -13.340671 -1.7874398
21.835417 -13.438491 -1.7928809
21.854141 -13.544861 -1.7979034
21.874105 -13.652537 -1.8030653
21.899118 -13.747945 -1.8080878
21.928112 -13.851666 -1.8136684
21.947527 -13.955205 -1.8186908
21.980736 -14.062675 -1.8246899
21.999304 -14.166716 -1.8297123
22.018301 -14.277006 -1.8350139
22.038502 -14.377683 -1.8400364
22.07332 -14.488433 -1.8463143
22.095158 -14.596753 -1.8517554
22.04434 -14.651772 -1.8509182
22.058811 -14.755939 -1.8558012
22.083504 -14.873089 -1.8618002
22.1063 -14.978346 -1.8672413
22.140219 -15.09171 -1.8736589
22.161791 -15.208606 -1.8795185
22.195179 -15.311428 -1.8855175
22.21907 -15.431156 -1.8916562
22.250048 -15.550732 -1.8982131
22.270716 -15.663738 -1.9039332
22.301811 -15.778877 -1.9103508
22.328033 -15.897051 -1.916629
22.357716 -16.00655 -1.9227674
22.383392 -16.131536 -1.9293245
22.409727 -16.25176 -1.9357421
22.440378 -16.375807 -1.9425783
22.47142 -16.488792 -1.9489958
22.498148 -16.617392 -1.955832
22.536255 -16.736898 -1.9629471
22.561611 -16.859825 -1.9695042
22.586657 -16.989386 -1.9763404
22.626442 -17.112244 -1.9837346
22.648438 -17.22851 -1.9898732
22.676575 -17.362648 -1.9971278
22.710196 -17.489204 -2.0043826
22.740213 -17.620056 -2.0116372
22.764984 -17.753983 -2.0187523
22.804777 -17.881229 -2.0264256
22.732822 -17.927546 -2.0244725
22.612318 -17.948017 -2.0187523
22.526247 -17.982466 -2.0155435
22.455683 -18.035482 -2.014009
22.467312 -18.148268 -2.0195894
22.376284 -18.178226 -2.0159621
22.166151 -18.123413 -2.0021503
22.112282 -18.1891 -2.0021503
22.066013 -18.254593 -2.002569
21.734192 -18.088974 -1.977317
21.675941 -18.143194 -1.9766194
21.712194 -18.27689 -1.9845717
21.74144 -18.41852 -1.9925239
21.748951 -18.536007 -1.9982439
21.697321 -18.590286 -1.997965
21.614866 -18.631132 -1.9954537
21.530849 -18.670351 -1.9928029
21.41848 -18.67795 -1.9872224
21.280222 -18.6754 -1.9798282
21.198343 -18.702007 -1.976759
21.099485 -18.726414 -1.972713
21.003649 -18.753059 -1.9689462
20.80542 -18.687309 -1.9555529
20.807938 -18.794817 -1.9607149
20.75174 -18.86278 -1.960994
20.614258 -18.830002 -1.9523442
20.391958 -18.744799 -1.9368582
20.153975 -18.734785 -1.9241626
20.057495 -18.756342 -1.9202563
19.962519 -18.778862 -1.9164894
19.870869 -18.797516 -1.9127226
19.77375 -18.830286 -1.9093742
19.6793 -18.845413 -1.9053283
19.458851 -18.732214 -1.8887264
19.364079 -18.758547 -1.8852384
19.284887 -18.779945 -1.8823087
19.203428 -18.811953 -1.8797975
19.227106 -18.947269 -1.8876102
19.136799 -18.970522 -1.8842618
19.054075 -18.99431 -1.881332
18.966139 -19.025816 -1.8785419
18.872715 -19.031487 -1.874217
18.789026 -19.066526 -1.8718452
18.704988 -19.08757 -1.868776
18.612917 -19.113365 -1.8655671
18.525892 -19.117237 -1.8615212
18.500341 -19.211271 -1.8650092
18.494917 -19.313293 -1.8698921
18.512459 -19.439995 -1.8771467
18.423868 -19.469074 -1.8743564
18.33868 -19.494591 -1.8715662
18.228289 -19.485989 -1.8658462
