# .PCD v0.7 - Point Cloud Data file format
VERSION 0.7
FIELDS x y z
SIZE 4 4 4
TYPE F F F
COUNT 1 1 1
WIDTH 147
HEIGHT 1
VIEWPOINT 0 0 0 1 0 0 0
POINTS 147
DATA ascii
-4.5546432 2.2184963 0.71200961
-4.5563016 2.2193038 0.83265102
-4.5565405 2.2371588 0.71340138
-4.5528498 2.2353468 0.83329952
-4.5111771 2.2148864 0.94686788
-4.5823674 2.2647462 0.83978432
-4.4613137 2.2049177 0.93761027
-4.5901594 2.2845685 0.84237826
-4.5114446 2.2453914 0.94946003
-4.5870914 2.3171053 0.84432369
-4.7648807 2.4246867 0.87836903
-4.6685152 2.3920848 0.86183274
-4.433742 2.3218477 0.82227528
-4.4446988 2.3603036 0.82681471
-4.4167924 2.3623118 0.82292378
-4.3247032 2.3451908 0.69141203
-4.8005304 2.6216834 1.0305567
-4.6946712 2.5980151 1.0109304
-4.3942814 2.4488385 0.8264904
-4.7710671 2.658813 1.0290754
-4.4011955 2.4688246 0.8290844
-3.8825331 2.193949 0.84022027
-4.1874905 2.3972278 0.56426013
-4.7323089 2.7091219 0.89587808
-4.176497 2.4083869 0.56379551
-4.0022998 2.3079357 0.75904828
-4.5510974 2.6244011 0.98982316
-4.1628833 2.4160511 0.56286633
-4.1491542 2.4235981 0.44829652
-4.152689 2.425663 0.56240171
-4.5670447 2.6676958 0.86896604
-4.1330633 2.4316461 0.56077558
-4.4092169 2.5941181 0.71896833
-4.5535383 2.6790285 0.8679933
-4.2688427 2.5115306 0.93316668
-4.1346998 2.4481766 0.44829652
-4.1125832 2.4350812 0.55891722
-4.5358515 2.6857004 0.86604792
-4.1924739 2.4823849 0.91798413
-4.1189899 2.4554102 0.56077558
-4.4078126 2.627583 0.72119504
-4.4990439 2.6819677 0.86053574
-4.1867776 2.4958198 0.91835439
-4.1598063 2.4955125 0.45256954
-4.066124 2.4393113 0.55450344
-4.5016909 2.7006125 0.86248118
-4.1730504 2.5034575 0.91687322
-4.1745439 2.5212264 0.45498475
-4.395997 2.6549735 0.72175175
-3.8415718 2.320127 0.73732418
-4.1437335 2.5026183 0.91205925
-4.0503097 2.461658 0.55427116
-4.3868728 2.6662109 0.7214734
-4.1266508 2.5080557 0.90983742
-4.0366416 2.4688134 0.55334198
-4.4740272 2.7363191 0.73706084
-4.4952669 2.7493093 0.86572361
-4.1296911 2.5257227 0.91205925
-4.4376945 2.7311552 0.73232889
-4.1343389 2.5444567 0.91465139
-4.3853235 2.7179549 0.72509187
-4.3515606 2.7159901 0.72091675
-3.7247832 2.3247921 0.82725966
-4.553977 2.8777924 0.75710171
-4.1430306 2.6343222 0.92501992
-3.8670285 2.4740195 0.53684855
-4.0412898 2.5855072 0.9039126
-4.4212575 2.8668115 0.86572361
-3.860512 2.5032158 0.86688215
-3.8687618 2.5229766 0.87021494
-3.9713297 2.6066914 0.33218032
-4.3936281 2.8838785 0.86345392
-3.8579731 2.5322866 0.86947429
-4.3718791 2.8881998 0.86086005
-3.9045587 2.5794735 0.88169432
-3.9382615 2.6175654 0.89095193
-4.1892343 2.802331 0.47021902
-3.9197247 2.6220462 0.55148351
-3.847121 2.5734789 0.65049511
-4.2862759 2.8672459 0.84724188
-3.8553312 2.5789711 0.87391794
-4.1804104 2.8154774 0.47021902
-3.8982878 2.6254697 0.54962516
-3.8242331 2.5755944 0.64798999
-4.372189 2.944639 0.86604792
-3.796675 2.5570343 0.8624385
-4.1202645 2.7906771 0.46427393
-3.9060271 2.6455731 0.66302073
-4.3530259 2.9483278 0.86377817
-3.7183669 2.5184698 0.84614509
-4.1415844 2.8230793 0.46761805
-4.0566344 2.7838788 0.34403893
-3.9128995 2.68524 0.55496806
-3.7787497 2.5931792 0.64409316
-3.8874478 2.6677737 0.77461189
-3.6251278 2.4877558 0.82837051
-3.925776 2.7082109 0.44495243
-3.8180487 2.6338949 0.65188682
-3.5947711 2.479866 0.82281595
-3.9859462 2.7682414 0.56751233
-3.9073582 2.7136621 0.66858763
-4.0151324 2.7885113 0.80314511
-3.5885766 2.4922681 0.82318622
-3.9581766 2.7664006 0.56472474
-3.7726676 2.6367469 0.64687663
-3.5876095 2.5074084 0.82466745
-3.9883013 2.8030241 0.5700677
-3.7803357 2.6568635 0.64938176
-3.5858572 2.5201819 0.82577837
-3.9827185 2.8178346 0.57053226
-3.7687361 2.6664391 0.64882505
-3.5650871 2.5223539 0.82281595
-3.7901421 2.6984944 0.32534418
-3.7753286 2.6879478 0.65133017
-3.8713193 2.7562909 0.78077251
-3.5399752 2.5203815 0.81874263
-3.8344967 2.7462425 0.32980859
-3.7742484 2.7030931 0.65244353
-4.0882354 2.9279685 0.82616621
-3.5169442 2.5188134 0.81503963
-3.8166203 2.750608 0.32897153
-3.8643253 2.7849886 0.44439507
-3.774246 2.7200689 0.6538353
-3.8137527 2.7485411 0.77234221
-3.5190222 2.5361314 0.8172614
-3.7798486 2.7401772 0.3264603
-3.7730489 2.7352479 0.65494865
-3.5230651 2.5540237 0.81985348
-3.7770185 2.7542479 0.32687885
-3.5302119 2.5742736 0.82318622
-3.7720466 2.767803 0.32715786
-3.7853343 2.7775531 0.77136952
-3.5479119 2.6033404 0.8291111
-3.4943182 2.5800016 0.81837231
-3.751359 2.7870204 0.76780277
-3.4614055 2.5716035 0.81244743
-3.6505337 2.7279668 0.64047468
-3.7277529 2.7856712 0.7645604
-3.45736 2.5836122 0.81318808
-3.4790688 2.6169097 0.82022387
-3.6980035 2.8130457 0.65300024
-3.7854712 2.8795819 0.78142095
-4.3170118 3.305383 0.89328408
-4.5053859 3.4683607 0.93413848
-4.4889331 3.6259937 1.0872132
-4.5016718 3.6571047 1.0927677
-4.4230866 3.6383388 1.0790664
