# .PCD v0.7 - Point Cloud Data file format
VERSION 0.7
FIELDS x y z
SIZE 4 4 4
TYPE F F F
COUNT 1 1 1
WIDTH 146
HEIGHT 1
VIEWPOINT 0 0 0 1 0 0 0
POINTS 146
DATA ascii
37.906273 -9.9162445 3.6554837
37.936363 -10.044473 3.661243
37.908314 -10.157502 3.6614287
37.641609 -10.205839 3.6385775
37.398125 -10.266056 3.6181412
37.183186 -10.318797 3.6001201
36.93362 -10.353757 3.5785692
36.71125 -10.415924 3.5601764
36.500088 -10.459338 3.5423415
36.291088 -10.522932 3.5252492
36.093456 -10.581823 3.5090859
35.886253 -10.636806 3.4919941
35.652245 -10.669061 3.4719293
35.458416 -10.725788 3.4561377
35.258854 -10.779713 3.4397888
35.091629 -10.842542 3.4265978
34.855915 -10.883109 3.4067192
34.635468 -10.920521 3.3881409
34.477703 -10.976723 3.3756931
34.276237 -11.031298 3.3593442
34.090034 -11.069947 3.343924
33.875347 -11.117997 3.3262749
33.717518 -11.170591 3.3138273
33.510555 -11.205973 3.2965493
33.3186 -11.258283 3.2811294
33.128712 -11.297294 3.2655234
32.967106 -11.34505 3.2527044
32.74509 -11.383825 3.2343116
32.581863 -11.416391 3.2209351
32.42382 -11.475509 3.2088594
32.230095 -11.521009 3.1932535
32.050095 -11.545062 3.1782048
31.875183 -11.595318 3.1644571
31.706207 -11.634208 3.1508946
31.535398 -11.671556 3.1371469
31.383102 -11.721176 3.1254423
31.182154 -11.757883 3.1090934
31.030272 -11.793492 3.0970173
30.894531 -11.853112 3.0871708
30.714376 -11.888659 3.0726798
30.54957 -11.916922 3.0593033
30.386215 -11.957196 3.0464842
30.234241 -11.995006 3.0345941
30.07835 -12.036571 3.0225182
29.918518 -12.081791 3.0102563
29.770037 -12.12469 2.9989233
29.609512 -12.143745 2.9857328
29.447935 -12.185692 2.9732854
29.292486 -12.217285 2.9610236
29.134956 -12.253191 2.9487619
29.014141 -12.303821 2.9402158
28.840181 -12.331138 2.9262819
28.684931 -12.359618 2.9140203
28.554983 -12.40421 2.9045453
28.419901 -12.439984 2.8943272
28.260445 -12.476127 2.8820653
28.134886 -12.508811 2.8725905
27.977339 -12.544181 2.8605144
27.851843 -12.575588 2.8510394
27.702034 -12.60703 2.8395209
27.564955 -12.643507 2.8293028
27.410233 -12.665305 2.8170412
27.271439 -12.6995 2.806637
27.156124 -12.743984 2.7986486
27.034952 -12.790911 2.7902882
26.901131 -12.808135 2.7796986
26.744068 -12.836575 2.7676225
26.616682 -12.867006 2.7581475
26.488874 -12.902323 2.7488585
26.374922 -12.949493 2.7412412
26.257025 -12.977029 2.7325094
26.110153 -12.99529 2.7209909
25.967741 -13.026358 2.7104011
25.862444 -13.058395 2.7029698
25.737879 -13.097134 2.6942379
25.617386 -13.131655 2.6856918
25.503283 -13.157589 2.6773314
25.375248 -13.192635 2.6682281
25.248333 -13.216346 2.6587532
25.1315 -13.250337 2.6505787
25.016449 -13.284684 2.64259
24.894958 -13.309426 2.6336725
24.77002 -13.331705 2.6243832
24.635817 -13.353896 2.6143508
24.525583 -13.394002 2.6071053
24.422371 -13.42076 2.5998597
24.315628 -13.461733 2.5929856
24.196184 -13.484022 2.5842538
24.068121 -13.500876 2.5745931
23.95104 -13.534296 2.5666044
23.845646 -13.562731 2.5593588
23.740276 -13.590684 2.5521133
23.633638 -13.628392 2.5452392
23.518641 -13.64425 2.5366931
23.39896 -13.66777 2.5281472
23.276953 -13.694762 2.5196011
23.174868 -13.711038 2.5121696
23.068384 -13.74606 2.5052958
22.97456 -13.782687 2.4995363
22.864382 -13.803565 2.4917336
22.745758 -13.818765 2.4830017
22.634287 -13.848581 2.4755702
22.216373 -13.672949 2.433769
22.23086 -13.778345 2.4400856
22.244902 -13.883966 2.4464021
22.291119 -13.994037 2.4555056
22.317612 -14.097707 2.4627512
22.351305 -14.211945 2.4711115
22.353464 -14.301134 2.4757559
22.394648 -14.421303 2.4850452
22.427759 -14.542506 2.493777
22.458778 -14.651867 2.5017657
22.491024 -14.762604 2.5099401
22.518568 -14.876472 2.5179291
22.536642 -14.978981 2.5246172
22.568237 -15.096711 2.5331633
22.595024 -15.217594 2.5415235
22.61344 -15.321963 2.5483975
22.649544 -15.438888 2.5573151
22.676458 -15.561799 2.5658612
22.715406 -15.670308 2.5745931
22.742937 -15.794981 2.5833249
22.784113 -15.923994 2.5933573
22.818205 -16.048805 2.6026466
22.849705 -16.166521 2.6113784
22.871393 -16.283911 2.6193671
22.904783 -16.398212 2.628099
22.925854 -16.522482 2.6364591
22.962166 -16.652393 2.6463056
22.985041 -16.773273 2.6546659
23.040592 -16.906431 2.6661847
23.046635 -17.022509 2.6730585
23.069134 -17.13265 2.6808615
23.109125 -17.268969 2.6914511
23.13592 -17.402533 2.7009263
23.183989 -17.533915 2.7118874
23.228445 -17.669718 2.7228487
23.253456 -17.804346 2.7323236
23.239933 -17.897158 2.7365966
23.141081 -17.930664 2.731209
23.021824 -17.954287 2.7237775
22.982576 -18.020641 2.7247064
22.974382 -18.118044 2.7297227
22.853399 -18.13937 2.7221055
22.617458 -18.055279 2.6999972
22.642969 -18.185904 2.7094722
