# .PCD v0.7 - Point Cloud Data file format
VERSION 0.7
FIELDS x y z
SIZE 4 4 4
TYPE F F F
COUNT 1 1 1
WIDTH 73
HEIGHT 1
VIEWPOINT 0 0 0 1 0 0 0
POINTS 73
DATA ascii
-1.886337 19.918253 -2.8118534
-1.8313943 19.969128 -2.8182557
-1.7805365 20.0294 -2.8260493
-1.7301962 20.099411 -2.8352346
-1.6709751 20.152115 -2.8419149
-1.6234351 20.221569 -2.8511002
-1.563406 20.271988 -2.8575025
-1.5141571 20.327362 -2.8647394
-1.4583522 20.394983 -2.8736465
-1.4017628 20.45652 -2.8817184
-1.3405944 20.508255 -2.8883989
-1.2911093 20.578901 -2.8978624
-1.2332386 20.636019 -2.9053779
-1.1725483 20.712954 -2.9156766
-1.1255683 20.782999 -2.9251406
-1.0638063 20.855661 -2.9348826
-1.0090842 20.931744 -2.9451814
-0.95512378 21.033405 -2.9590988
-0.89247352 21.117434 -2.970511
-0.83283913 21.197168 -2.9813664
-0.77339649 21.29455 -2.9947271
-0.72262871 21.333984 -3.0000157
-0.65743142 21.395536 -3.0083661
-0.60011816 21.4844 -3.0206132
-0.47548911 21.618265 -3.0389841
-0.22818547 21.788666 -3.0623653
0.023047371 22.009687 -3.0932617
0.088514239 22.051113 -3.099107
0.15045238 22.10425 -3.1066222
0.22046268 22.159122 -3.1144159
0.28358904 22.257441 -3.1283331
0.35461861 22.325748 -3.1380751
0.41043657 22.394123 -3.1478176
0.48231384 22.464005 -3.1578379
0.54638463 22.518009 -3.1656315
0.61882359 22.577557 -3.1742604
0.68400741 22.647007 -3.1842809
0.74973619 22.720228 -3.1948581
0.82376355 22.790993 -3.2051568
0.88250154 22.868074 -3.2162905
0.95681268 22.924555 -3.2246411
1.0323863 23.000576 -3.235775
1.0922328 23.07514 -3.2466304
1.1681107 23.138847 -3.2560942
1.2361956 23.20076 -3.2652795
1.3038698 23.248631 -3.2725167
1.3762374 23.301994 -3.2805886
1.4533668 23.360811 -3.2894957
1.5181048 23.412264 -3.2972894
1.595541 23.464684 -3.3053615
1.6614383 23.523645 -3.3142686
1.7348578 23.567991 -3.3212271
1.8091711 23.620008 -3.3292992
1.8882431 23.675409 -3.3379278
1.959561 23.733208 -3.3468349
2.0298798 23.775002 -3.3535151
2.1097972 23.827694 -3.3618658
2.1732147 23.879667 -3.3699377
2.2526877 23.920044 -3.3766179
2.331116 23.990137 -3.3874736
2.3996146 24.041101 -3.3955455
2.4802094 24.082697 -3.4025044
2.5532937 24.130823 -3.4102981
2.6350939 24.177811 -3.4180918
2.7043111 24.223974 -3.425607
2.782722 24.272905 -3.4336789
2.856024 24.31225 -3.4403594
2.9310098 24.363171 -3.4487097
3.0143378 24.408876 -3.4565034
3.0884299 24.447525 -3.4631836
3.1731558 24.532532 -3.4765444
3.2535894 24.547968 -3.4801629
3.3268633 24.606096 -3.4896266
