# .PCD v0.7 - Point Cloud Data file format
VERSION 0.7
FIELDS x y z
SIZE 4 4 4
TYPE F F F
COUNT 1 1 1
WIDTH 223
HEIGHT 1
VIEWPOINT 0 0 0 1 0 0 0
POINTS 223
DATA ascii
38.128521 -9.8607063 5.5349145
38.139156 -9.9771671 5.5404816
38.157249 -10.102958 5.5474401
37.901363 -10.15564 5.514595
37.651241 -10.20845 5.4825854
37.454735 -10.281596 5.4586477
37.16061 -10.312532 5.4199576
36.959942 -10.361135 5.394628
36.736679 -10.423139 5.3667932
36.539822 -10.470724 5.342021
36.270874 -10.517072 5.3075056
36.098869 -10.583409 5.2869081
35.871723 -10.6325 5.2582383
35.663513 -10.672433 5.2317958
35.440224 -10.720285 5.2036829
35.281364 -10.786594 5.1850333
35.067543 -10.8351 5.1583123
34.849964 -10.881251 5.1310339
34.658894 -10.927907 5.1073747
34.450848 -10.968173 5.0812101
34.227688 -11.015673 5.0533757
34.083824 -11.06793 5.036397
33.909634 -11.129251 5.015799
33.690418 -11.161613 4.9879642
33.493828 -11.200378 4.96347
33.317753 -11.257996 4.9425936
33.153091 -11.305608 4.9228315
32.928493 -11.331762 4.8941617
32.761787 -11.38963 4.8746772
32.593674 -11.420529 4.8538017
32.378399 -11.459433 4.8270802
32.202366 -11.511097 4.8062038
32.071655 -11.55283 4.790895
31.888172 -11.600043 4.7689061
31.718061 -11.638557 4.7483082
31.505268 -11.660404 4.7213082
31.368494 -11.71572 4.7059999
31.209221 -11.768089 4.6876287
31.056116 -11.803315 4.6692581
30.863556 -11.841228 4.6458764
30.710079 -11.886995 4.6280627
30.557076 -11.919849 4.6096916
30.379665 -11.954619 4.5882592
30.22282 -11.990475 4.5696101
30.056557 -12.02785 4.5498471
29.90476 -12.076236 4.5325899
29.725727 -12.106644 4.510879
29.600773 -12.140161 4.4964051
29.427065 -12.177055 4.4758072
29.281441 -12.212679 4.4588284
29.117279 -12.245757 4.4393439
28.965946 -12.283383 4.4218082
28.823753 -12.324114 4.405664
28.665543 -12.351264 4.3867364
28.51796 -12.388126 4.3697572
28.37258 -12.419271 4.352778
28.219278 -12.457952 4.3352423
28.115988 -12.500408 4.3243871
27.951881 -12.532765 4.305181
27.821501 -12.561889 4.2901506
27.695776 -12.604183 4.2765112
27.564646 -12.643365 4.2620373
27.408775 -12.664632 4.2433882
27.281307 -12.704095 4.2294707
27.146675 -12.739551 4.2144403
27.018797 -12.783267 4.2008014
26.892704 -12.804124 4.186049
26.752357 -12.840553 4.1704617
26.618324 -12.8678 4.1551523
26.498123 -12.906828 4.1423488
26.375664 -12.949858 4.1295447
26.256447 -12.976744 4.1161842
26.122587 -13.001478 4.1008749
25.984249 -13.034638 4.085566
25.852797 -13.053524 4.0702567
25.741055 -13.09875 4.059123
25.599854 -13.122666 4.0429788
25.509087 -13.160583 4.0340719
25.386784 -13.198632 4.0212679
25.269112 -13.227223 4.0084639
25.140406 -13.255032 3.9942682
25.037996 -13.296126 3.9842479
24.902958 -13.313703 3.9686604
24.781973 -13.338139 3.9552999
24.653488 -13.363475 3.9411042
24.552284 -13.408584 3.9316404
24.435516 -13.427985 3.9185581
24.316971 -13.462477 3.9063108
24.201431 -13.486945 3.8937852
24.111855 -13.525408 3.8854349
23.988201 -13.555296 3.8723526
23.869343 -13.576209 3.8592703
23.766022 -13.605422 3.8486931
23.64081 -13.632527 3.8353326
23.524519 -13.64766 3.8222504
23.406965 -13.672447 3.8097246
23.302446 -13.709762 3.7997043
23.202398 -13.727327 3.7888486
23.113222 -13.772778 3.7813334
22.995831 -13.795447 3.7688079
22.879223 -13.812524 3.7560039
22.59005 -13.724167 3.7148087
22.359299 -13.680332 3.6839123
22.397621 -13.784496 3.6961594
22.419859 -13.895484 3.707015
22.450022 -14.011991 3.7192621
22.482035 -14.113892 3.7306745
22.517881 -14.224215 3.7432001
22.549116 -14.337722 3.7554471
22.567381 -14.437993 3.7651894
22.601042 -14.554213 3.7779934
22.638294 -14.679021 3.7919106
22.661907 -14.784386 3.8027661
22.701662 -14.900862 3.8164051
22.720144 -15.00964 3.8269823
22.752367 -15.122362 3.8395078
22.779829 -15.238254 3.8517549
22.794268 -15.351784 3.8623321
22.836569 -15.473146 3.8768063
22.873459 -15.591517 3.890445
22.879887 -15.701402 3.899909
22.929485 -15.817992 3.9149396
22.969149 -15.952085 3.9302487
22.996389 -16.072355 3.9430525
23.026361 -16.195208 3.9564133
23.052183 -16.309778 3.9686604
23.064999 -16.421755 3.9792376
23.105667 -16.542032 3.9937115
23.130709 -16.67012 4.0070724
23.178947 -16.809607 4.0240512
23.215363 -16.941349 4.0390821
23.263542 -17.070024 4.0552258
23.259188 -17.179504 4.0638547
23.298403 -17.302921 4.0786071
23.337393 -17.43955 4.0944729
23.374289 -17.581831 4.1106172
23.4198 -17.712255 4.1267614
23.412809 -17.809961 4.1342764
23.320572 -17.855734 4.1278744
23.240803 -17.897827 4.1225858
23.143763 -17.932741 4.1147923
23.135727 -18.043118 4.1234212
23.069706 -18.088961 4.1200809
22.885361 -18.04784 4.0961428
22.771151 -18.074089 4.085844
22.777861 -18.183325 4.0961428
22.669764 -18.207422 4.086401
22.572609 -18.233322 4.0780506
22.475489 -18.25882 4.0697002
22.370485 -18.29048 4.0610714
22.267172 -18.316509 4.0521641
22.165577 -18.33696 4.0429788
22.066925 -18.365902 4.0349069
21.97151 -18.390591 4.026835
21.867037 -18.407232 4.0170927
21.765278 -18.438715 4.0090208
21.663744 -18.463387 4.000392
21.56871 -18.480091 3.9917631
21.468779 -18.505213 3.9834127
21.37188 -18.532501 3.9756191
21.272278 -18.550455 3.966712
21.170729 -18.579309 3.9586401
21.080429 -18.59798 3.9508462
20.979237 -18.61969 3.9422176
20.881056 -18.643602 3.9341455
20.788809 -18.67239 3.9271867
20.702782 -18.699837 3.920785
20.59557 -18.720823 3.9115994
20.513206 -18.7377 3.9046409
20.411955 -18.763182 3.8965688
20.313652 -18.790901 3.8890536
20.102308 -18.686758 3.857322
20.000484 -18.70303 3.8484147
19.897299 -18.71751 3.8392293
19.810423 -18.740337 3.8325493
19.815578 -18.870119 3.8456316
19.748503 -18.911682 3.8428481
19.663252 -18.928982 3.8358893
19.569548 -18.95759 3.8292091
19.490053 -18.97974 3.8233638
19.394039 -18.998678 3.8155699
19.300905 -19.019995 3.8083332
19.209225 -19.042318 3.8013744
19.130724 -19.070719 3.7963643
19.027374 -19.087244 3.7877355
18.946657 -19.10605 3.7816117
18.846226 -19.124571 3.7735398
18.760864 -19.14459 3.7671378
18.672993 -19.175056 3.7615709
18.384886 -18.971729 3.7128603
18.218037 -18.918118 3.6911492
18.087053 -18.887383 3.6752834
17.993265 -18.894789 3.6669333
17.899786 -18.91526 3.6599743
17.812372 -18.935108 3.6535726
17.732367 -18.955851 3.6480057
17.645025 -18.975019 3.6416035
17.567764 -18.998047 3.6365933
17.510622 -19.042656 3.6357584
17.467405 -19.109148 3.6385417
17.419271 -19.17712 3.6410468
17.390875 -19.253616 3.6463354
17.370857 -19.332964 3.6527376
17.327751 -19.414104 3.657191
17.299219 -19.484579 3.6619232
17.237398 -19.531366 3.661088
17.163698 -19.564558 3.6577477
17.079538 -19.585543 3.6521807
16.998358 -19.595779 3.6457789
16.811283 -19.503569 3.6187792
16.712933 -19.499313 3.6093156
16.626745 -19.515646 3.6031919
16.54829 -19.540712 3.5987384
16.562548 -19.668655 3.6137691
16.426538 -19.743755 3.6095939
16.324284 -19.72566 3.59846
16.19808 -19.698826 3.5842643
16.191898 -19.803782 3.5951197
16.1078 -19.813576 3.5887179
16.031513 -19.839714 3.584821
15.949014 -19.857855 3.5795324
15.876195 -19.880648 3.5756357
15.838278 -19.961454 3.5812025
