# .PCD v0.7 - Point Cloud Data file format
VERSION 0.7
FIELDS x y z
SIZE 4 4 4
TYPE F F F
COUNT 1 1 1
WIDTH 120
HEIGHT 1
VIEWPOINT 0 0 0 1 0 0 0
POINTS 120
DATA ascii
-9.6942835 1.9476689 0
-9.6874142 2.0308659 0
-9.6652346 2.026216 0.22927624
-9.6632109 2.0257919 0.46043065
-9.7077131 2.0669782 -0.23043679
-9.6770744 2.0604546 0
-9.656867 2.0561521 0.22922982
-9.6509371 2.0548897 0.46015114
-9.6712828 2.0874708 0
-9.6608601 2.0852211 0.22946194
-9.6490669 2.0826757 0.46033749
-9.6685848 2.1187005 0
-9.6542606 2.1155617 0.22946194
-9.6463795 2.1138346 0.46052381
-9.664957 2.1444373 0
-9.6486893 2.1408277 0.22946194
-9.6466637 2.1403782 0.4608033
-9.6585522 2.1731048 0
-9.6461964 2.1703248 0.22955477
-9.6344233 2.167676 0.46052381
-9.655961 2.2026429 0
-9.6416636 2.1993814 0.22960119
-9.6318445 2.1971414 0.46071014
-9.6513319 2.2317317 0
-9.6409407 2.2293286 0.22974047
-9.6311235 2.2270586 0.46098965
-9.6509047 2.2600434 0
-9.6327305 2.2557874 0.22969405
-9.6287575 2.2548568 0.46117598
-9.6402645 2.2877452 0
-9.6318312 2.285744 0.2298333
-9.6278543 2.2848003 0.46145546
-9.6357832 2.315125 0
-9.6292982 2.3135669 0.22992614
-9.6136675 2.3098114 0.46108282
-9.6362343 2.3472788 0
-9.6219826 2.3438072 0.22992614
-9.6102448 2.3409481 0.46126914
-9.626173 2.3715401 0
-9.6216383 2.3704231 0.23006542
-9.6099043 2.367532 0.46154866
-9.6249151 2.4015441 0
-9.6165018 2.3994451 0.23011184
-9.6067133 2.3970025 0.46173498
-9.6196871 2.4305818 0
-9.6190329 2.4304166 0.23034395
-9.6034317 2.4264748 0.4619213
-9.6240578 2.4620855 0
-9.6020947 2.4564667 0.23011184
-9.5961905 2.4549563 0.4619213
-9.6156425 2.4867752 0
-9.6091805 2.4851038 0.23043679
-9.5916643 2.4805741 0.46201447
-9.6155224 2.5189967 0
-9.5993929 2.5147712 0.23039037
-9.5915556 2.512718 0.46238714
-9.610383 2.5463514 0
-9.5903988 2.5410564 0.23034395
-9.5845013 2.5394936 0.46238714
-9.6032352 2.5731792 0
-9.5909901 2.5698984 0.23052962
-9.5812311 2.5672836 0.46257347
-9.6013498 2.60323 0
-9.587184 2.5993893 0.23062249
-9.5774288 2.5967441 0.46275979
-9.596981 2.6344399 0
-9.5770416 2.6289663 0.23057604
-9.5730762 2.627878 0.46294615
-9.5891228 2.6629012 0
-9.5749798 2.6589737 0.23071532
-9.5710125 2.6578722 0.46322563
-9.5874252 2.6912909 0
-9.5694418 2.6862426 0.23076174
-9.5693245 2.6862097 0.46350515
-9.5817966 2.7186 0
-9.5657501 2.7140472 0.23085457
-9.5617857 2.7129226 0.46350515
-9.5799341 2.7470014 0
-9.5600557 2.7413015 0.23090102
-9.5618534 2.7418168 0.4638778
-9.5717421 2.775414 0
-9.5557213 2.7707686 0.23099385
-9.5536757 2.7701757 0.4638778
-9.5668135 2.8065951 0
-9.5584812 2.8041503 0.23127238
-9.5506773 2.8018613 0.46415731
-9.5632687 2.8327682 0
-9.5491896 2.8285978 0.23122597
-9.5452251 2.8274233 0.46425048
-9.5572376 2.8600345 0
-9.5469999 2.856971 0.23136522
-9.5372925 2.8540659 0.46425048
-9.5539474 2.8917861 0
-9.5340147 2.8857529 0.46452996
-9.5477467 2.91904 0
-9.5394382 2.9164999 0.23159733
-9.5297403 2.9135346 0.46471632
-9.5447769 2.9491255 0
-9.5383844 2.9471502 0.231783
-9.5267792 2.9435647 0.4649958
-9.5398026 2.9786251 0
-9.5276899 2.974843 0.23173659
-9.5294466 2.9753916 0.4655548
-9.5347366 3.008121 0
-9.5207272 3.003701 0.231783
-9.5205765 3.0036533 0.4655548
-9.5344534 3.0354979 0
-9.5242634 3.032254 0.23206154
-9.5183916 3.0303843 0.46583429
-9.520401 3.0639985 0.23220082
-9.5088243 3.0602729 0.46583429
-9.5257826 3.0951142 0
-9.519413 3.0930445 0.23238648
-9.5059414 3.0886674 0.46611381
-9.5317593 3.1283538 0
-9.5177927 3.12377 0.23257218
-9.502429 3.1187277 0.46639329
-9.5129433 3.1534731 0
-9.5046864 3.1507361 0.23247935
-9.4893417 3.1456494 0.46620697
