# .PCD v0.7 - Point Cloud Data file format
VERSION 0.7
FIELDS x y z
SIZE 4 4 4
TYPE F F F
COUNT 1 1 1
WIDTH 66
HEIGHT 1
VIEWPOINT 0 0 0 1 0 0 0
POINTS 66
DATA ascii
10.512533 -20.811279 -0.54132217
10.461494 -20.863825 -0.54187924
10.382028 -20.997208 -0.54382896
10.362681 -21.124863 -0.54628932
10.311335 -21.178885 -0.54689276
10.210588 -21.112206 -0.54447883
10.119129 -21.091902 -0.54313266
10.10662 -21.217554 -0.5456394
10.003739 -21.153511 -0.54327196
9.9567623 -21.226467 -0.5443396
9.8611526 -21.17625 -0.5423435
9.7818441 -21.160145 -0.54122937
9.6878223 -21.130793 -0.53969741
9.5918684 -21.066916 -0.53742278
9.5787086 -21.204615 -0.54020804
9.5341148 -21.283871 -0.54146147
9.5014458 -21.370703 -0.54299337
9.4360819 -21.384348 -0.5426684
9.3701839 -21.406755 -0.54252917
9.3047934 -21.42 -0.5422042
9.2425652 -21.440395 -0.54206496
9.1704493 -21.458294 -0.54178643
9.1103344 -21.473024 -0.54155427
9.0381842 -21.490479 -0.5412758
8.9652376 -21.50585 -0.54095083
8.9058447 -21.521856 -0.54076511
8.8366375 -21.535236 -0.5404402
8.773448 -21.552423 -0.54025447
8.7102318 -21.569424 -0.54006881
8.6439676 -21.589602 -0.53992957
8.5709372 -21.603643 -0.5396046
8.5083828 -21.62191 -0.53946531
8.4391041 -21.634022 -0.5391404
8.3802738 -21.650448 -0.53900117
8.3138456 -21.669619 -0.53886187
8.2466717 -21.686712 -0.53867614
8.1770926 -21.708769 -0.53858334
8.1160307 -21.718866 -0.53830481
8.0487776 -21.735352 -0.53811914
7.9808078 -21.749754 -0.53788704
7.9224725 -21.766813 -0.53779417
7.852016 -21.785952 -0.53765488
7.7853251 -21.803505 -0.53751564
7.7210708 -21.815735 -0.53728354
7.6485343 -21.828562 -0.53700501
7.5880775 -21.839067 -0.53677291
7.5187793 -21.860909 -0.53672647
7.4564118 -21.878033 -0.53663361
7.3876309 -21.888695 -0.53635508
7.3283987 -21.902273 -0.53621584
7.2564106 -21.915695 -0.53598374
7.1926908 -21.928274 -0.53579801
7.1225333 -21.94696 -0.53570521
7.0626011 -21.957916 -0.53551948
6.9772139 -21.928555 -0.53426611
6.8945303 -21.866653 -0.53231645
6.8591328 -21.995098 -0.53491604
6.801815 -22.02754 -0.53524101
6.7346735 -22.041889 -0.53510171
6.6730962 -22.060608 -0.53510171
6.5716772 -21.974188 -0.53250211
6.4999275 -21.94339 -0.53134155
6.4397516 -21.965292 -0.53143442
6.3696017 -21.981573 -0.53134155
6.298861 -21.995708 -0.53120232
6.2483439 -22.037132 -0.53180575
