# .PCD v0.7 - Point Cloud Data file format
VERSION 0.7
FIELDS x y z
SIZE 4 4 4
TYPE F F F
COUNT 1 1 1
WIDTH 73
HEIGHT 1
VIEWPOINT 0 0 0 1 0 0 0
POINTS 73
DATA ascii
9.7211924 -4.1223969 -0.24515243
9.5956812 -4.1028056 0
9.6756783 -4.2030892 -0.24492031
9.670949 -4.2010345 0
9.5956192 -4.2002029 -0.48847383
9.649251 -4.2236786 -0.24454895
9.6463547 -4.2224112 0
9.612155 -4.243474 -0.24394546
9.5561972 -4.21877 0
9.5858727 -4.2618928 -0.48921922
9.5613165 -4.2870011 -0.73272198
9.5432682 -4.2789087 -0.48772851
9.5638371 -4.2881308 -0.24334198
9.411293 -4.2197351 0
9.4045916 -4.246336 -0.72156101
9.4956169 -4.2874351 -0.48586518
9.4979086 -4.2884703 -0.24194935
9.5533295 -4.3134933 0
9.4518766 -4.3014927 -0.72616494
9.5083122 -4.3271761 -0.4871695
9.4880352 -4.3519764 -0.72993177
9.520853 -4.3670297 -0.48847383
9.4530315 -4.3359208 0
9.5358257 -4.4061699 -0.48987138
9.4147463 -4.3502235 -0.2407888
9.4199142 -4.3865747 -1.2151687
9.5007935 -4.4242377 -0.73286152
9.5576792 -4.4507279 -0.24478106
9.4623499 -4.4063354 0
9.4684353 -4.4434028 -1.4699464
9.4392262 -4.4296956 -1.2193501
9.4858942 -4.4515958 -0.97759479
9.4388599 -4.429523 -0.72909468
9.4719505 -4.4814162 -1.22539
9.4070616 -4.4507155 -0.97090662
9.472477 -4.4816651 -0.24329557
9.7534418 -4.6145968 0
9.5291262 -4.5369964 -1.2342174
9.4970655 -4.5217319 -0.49052355
9.7493591 -4.6418538 0
9.3465519 -4.4500694 -1.9503922
9.7419415 -4.675921 0
9.2695379 -4.4810696 -1.2040181
9.4770231 -4.5813713 -0.73607028
9.4952478 -4.5901818 -0.49182788
9.2250223 -4.4933662 -1.4421117
9.4059906 -4.5815134 -0.73160595
9.5121202 -4.6332073 -0.49341172
9.6403284 -4.6956553 -0.248959
9.3306847 -4.5811563 -1.7077776
9.3530846 -4.592154 -1.4643794
9.2812204 -4.5568705 -1.2091289
9.4685163 -4.6488285 -0.9840973
9.6524506 -4.7391362 -0.24965534
9.8130369 -4.8179803 0
9.2550116 -4.5741115 -1.2072704
9.1343813 -4.5462747 -1.6763262
9.4360456 -4.6964164 -1.2325913
9.3635368 -4.6603279 -0.24283136
9.1324015 -4.5811429 -1.6785959
9.3875084 -4.7091136 -1.2281775
9.384594 -4.7076516 -0.2437598
9.2941637 -4.6622887 0
9.1861696 -4.6081147 -1.9363207
9.2410975 -4.6659899 -1.4549158
9.3758068 -4.7340069 -0.24385263
9.3658361 -4.7289729 0
9.1846008 -4.6374636 -1.9385425
9.3822727 -4.7743201 -0.2444097
9.5077925 -4.8381929 0
9.3463697 -4.7910156 -1.47607
9.3858585 -4.8112578 -0.2448739
9.1433353 -4.7536359 -0.23925689
