# .PCD v0.7 - Point Cloud Data file format
VERSION 0.7
FIELDS x y z
SIZE 4 4 4
TYPE F F F
COUNT 1 1 1
WIDTH 154
HEIGHT 1
VIEWPOINT 0 0 0 1 0 0 0
POINTS 154
DATA ascii
-3.921396 -12.613411 2.1701455
-4.0561919 -12.79449 2.2051635
-4.1681385 -12.392531 2.148097
-4.2790527 -12.24646 1.8231677
-4.3025417 -12.210932 1.8195492
-4.2892685 -12.052324 1.4960212
-4.3311424 -12.050005 1.4974148
-4.369442 -12.057302 1.4997379
-4.5521197 -12.445987 2.1772788
-4.6101546 -12.278135 1.8432087
-4.7056489 -12.316427 1.2300751
-4.6586471 -12.193405 1.5264525
-4.677969 -12.243979 1.8420954
-4.6976447 -12.180564 1.5266849
-4.711422 -12.216287 1.8401469
-4.7793941 -12.296545 1.2308183
-4.7374339 -12.188589 1.5292401
-4.7311916 -12.172528 1.835415
-4.8201818 -12.28703 1.2313756
-4.7887597 -12.206933 1.5334216
-4.7433691 -12.091229 1.8253945
-4.8530092 -12.269819 1.231004
-4.8111386 -12.163959 1.5297048
-4.7712879 -12.063204 1.8231677
-4.8191361 -12.073141 1.5201803
-4.8098969 -12.049994 1.823446
-4.8373857 -12.02731 1.5159991
-4.8421674 -12.039198 1.8237245
-4.8387003 -11.928228 1.5053132
-4.8771214 -12.022943 1.823446
-4.9105239 -12.002919 1.8226111
-4.9716082 -12.050087 1.2161413
-4.7987852 -11.631203 1.471397
-4.9415827 -11.977312 1.820941
-4.813251 -11.574483 0.87655985
-4.829721 -11.614089 1.4709325
-4.982615 -11.981754 1.8237245
-4.802052 -11.451595 0.86832863
-4.9939537 -11.90923 1.2048085
-4.8541737 -11.575892 1.4679126
-4.8192544 -11.403225 0.86567783
-4.8787475 -11.543996 1.4655896
-5.0607929 -11.974749 1.8270645
-4.8780956 -11.447608 0.87014228
-5.0126548 -11.763383 1.4953241
-5.1048417 -11.979722 1.8301264
-5.2840981 -12.400389 2.2145665
-4.9643655 -11.560435 0.87976867
-4.828464 -11.243963 1.141642
-5.0462699 -11.751164 1.4955565
-5.1437469 -11.978158 1.8320749
-5.3179278 -12.38377 2.2142422
-5.0077953 -11.561259 0.8810243
-4.813107 -11.111793 1.1297518
-5.0010471 -11.545681 1.471397
-5.1758404 -11.949218 1.8301264
-5.3779845 -12.415898 2.2229967
-5.041656 -11.550887 0.88130331
-4.8353548 -11.078233 1.1277082
-4.9919472 -11.436999 1.4593174
-5.2004733 -11.914752 1.8270645
-5.4142137 -12.40445 2.2236452
-5.0734959 -11.530398 0.88088471
-4.9123149 -11.164086 1.1379263
-5.0226603 -11.414865 1.4583882
-5.2230401 -11.870264 1.8226111
-5.1101313 -11.53167 0.88200086
-4.9221621 -11.107492 1.1334676
-5.0452833 -11.385332 1.4562976
-5.3046498 -11.970626 1.8401469
-5.3067045 -11.975263 2.1519878
-5.1544733 -11.533774 0.88339597
-4.9367199 -11.046523 1.1288229
-5.0761633 -11.358544 1.4549037
-5.3381891 -11.94486 1.8387551
-5.3402739 -11.949525 2.1503668
-4.9462924 -10.985484 1.1239924
-5.0988917 -11.3244 1.4523485
-5.3690858 -11.924488 1.8379201
-5.411705 -12.019143 2.165606
-4.973105 -10.958066 1.122692
-5.3479681 -11.784063 1.8187143
-5.5011721 -12.121644 2.187006
-5.3180008 -11.626244 0.89399898
-5.0014544 -10.934208 1.1217631
-5.3400688 -11.674488 1.8042402
-5.5486054 -12.130393 2.1915452
-5.1355877 -11.139947 1.1444287
-5.3323984 -11.566862 1.7900445
-5.5490465 -12.036809 2.177603
-5.1722784 -11.142722 1.1461008
-5.4035201 -11.64089 1.8036836
-5.5439768 -11.943478 2.1633363
-5.411644 -11.563129 0.89274335
-5.2013507 -11.113792 1.1448003
-5.4442625 -11.632825 1.8050752
-5.5806355 -11.924214 2.1630123
-5.4467802 -11.548825 0.89288282
-5.4095669 -11.469921 1.4830122
-5.4373574 -11.528846 1.7914363
-5.6176744 -11.911173 2.1636605
-5.4513216 -11.480459 0.8886975
-5.4370189 -11.450338 1.4823153
-5.4556265 -11.489526 1.7875395
-5.656456 -11.912471 2.1665788
-5.4115548 -11.304914 0.87642032
-5.3970151 -11.27454 1.1661655
-5.4566679 -11.399157 1.4779016
-5.4865642 -11.46161 1.7858694
-5.6998167 -11.907102 2.1688483
-5.4511423 -11.301387 0.87739694
-5.4524946 -11.304191 1.4676803
-5.5222692 -11.448849 1.7864261
-5.7625585 -11.947021 2.179224
-5.4014044 -11.123757 0.86470127
-5.5254526 -11.379225 1.4792954
-5.5989366 -11.53056 1.8014567
-5.8101926 -11.965624 2.1853848
-5.4335093 -11.10589 0.8645618
-5.5653033 -11.375272 1.4809215
-5.4682016 -11.093297 0.86484075
-5.5071406 -11.094068 0.86609638
-6.1041212 -11.851881 2.5117736
-5.993093 -11.478365 1.8198276
-6.1774478 -11.831453 2.1928422
-6.1884108 -11.852449 2.5191796
-6.0793724 -11.559881 1.5273818
-6.0289683 -11.464038 1.8203844
-6.1181307 -11.560019 1.2202286
-6.1142597 -11.552706 1.5285434
-6.0459881 -11.423709 1.8164876
-6.2701387 -11.847235 2.5254748
-6.1505237 -11.53344 1.5285434
-6.1209888 -11.478056 1.828178
-6.3054776 -11.824008 2.524734
-6.1690755 -11.486015 1.8323531
-6.3200746 -11.767156 2.5165875
-6.1351852 -11.346792 1.812869
-6.3342113 -11.714884 2.5091815
-6.3634586 -11.685966 1.2414079
-6.1849275 -11.358108 1.8176008
-6.303021 -11.498406 1.5334216
-6.2071018 -11.323424 1.8148174
-6.2109981 -11.251208 1.8061887
-6.260148 -11.261136 1.506707
-6.1567874 -11.075204 1.7808591
-6.2847981 -11.226912 1.5046163
-6.173173 -11.02751 1.7761273
-6.1952186 -10.99923 1.7741787
-6.3592968 -11.290541 2.1289668
-6.210196 -10.945261 1.7686119
-6.3859706 -11.255057 2.1260486
-6.4173765 -11.232635 2.1254001
-6.4595475 -11.238038 2.1296153
