# .PCD v0.7 - Point Cloud Data file format
VERSION 0.7
FIELDS x y z
SIZE 4 4 4
TYPE F F F
COUNT 1 1 1
WIDTH 167
HEIGHT 1
VIEWPOINT 0 0 0 1 0 0 0
POINTS 167
DATA ascii
-1.9272027 5.1028848 0.38142842
-1.655979 5.1888604 0.38087034
-1.5992635 5.2770405 0.51443559
-1.5558488 5.1826267 0.63278908
-1.530947 5.1584749 0.37626642
-1.5007948 5.1091304 0.37236005
-1.3555512 5.0484133 0.36552393
-1.3451724 5.0697689 0.36677954
-1.3091938 5.1100774 0.36887223
-1.1313564 5.0780444 0.60839742
-1.0793098 5.7011719 0.13471547
-1.0806583 5.7082953 0.27092925
-1.0636108 5.6182456 0.39984411
-1.0442269 5.6068234 0.53208506
-1.0442737 5.7922211 0.27446958
-0.98657721 5.4721994 0.38882259
-0.89319962 4.9542661 0.46966165
-0.99392503 5.6025186 0
-0.97898108 5.6093073 0.39816993
-0.87715584 5.0258751 0.47597831
-0.90089124 5.2538581 0.8757751
-0.96489555 5.7291284 0.40626171
-0.83203822 4.9402795 0.94390541
-0.9270404 5.605865 0
-0.91555363 5.6340952 0
-0.96096587 5.9135509 0.84199733
-0.81618243 5.0225887 0.95871764
-0.89847934 5.6408939 0
-0.92767215 5.8241744 0.27502859
-0.7968657 5.0029364 0.47263423
-0.96207762 6.0401812 0.71525604
-0.88710725 5.6649604 0.40096021
-0.78406942 5.0069733 0.47281998
-0.92750949 5.9229641 0.70108563
-0.90145493 5.7565832 0.81889457
-0.76312798 4.9638734 0.46854696
-0.87815714 5.7120967 0.81221431
-0.83412772 5.5415745 0
-0.86020613 5.7148275 0.81221431
-0.82342064 5.5694594 0
-0.84408396 5.7092223 0.81110084
-0.82727897 5.7196865 0.81221431
-0.78145778 5.6244421 -0.13183732
-0.78778648 5.669992 0.13290502
-0.69552696 5.0059657 0.4715195
-0.69600618 5.0094147 0.59143937
-0.7784313 5.6026587 1.0657355
-0.76862347 5.6625323 0.13267291
-0.6735841 4.9623671 0.58563185
-0.77351385 5.6985602 1.0835102
-0.67394066 5.0711985 0.47727877
-0.65710789 4.9445372 0.58330888
-0.70167184 5.2798672 1.0035244
-0.73207331 5.6366596 0
-0.67171359 5.1719151 0.486568
-0.64089769 4.9346457 0.58191502
-0.66370076 5.2171144 0.49065521
-0.63675165 5.0052772 0.59004557
-0.74485815 6.0057058 0.56459719
-0.63520569 5.1215911 0.60351902
-0.69352043 5.7225761 -0.13383345
-0.67373586 5.5593243 0
-0.73239475 6.0433474 0.56794137
-0.60560405 4.9971352 0.58865178
-0.6661067 5.4963722 1.043147
-0.58850628 4.9871759 0.58725798
-0.59809327 5.1929717 0.48768273
-0.55454892 4.8148956 0.91317016
-0.63676149 5.6768603 -0.13262649
-0.62422568 5.5651007 0
-0.56492329 5.0364079 0.47281998
-0.54716915 5.0123272 0.4704048
-0.55250841 5.0612378 0.59538853
-0.52767295 4.8337326 0.91613269
-0.54264653 5.1029439 0.47876507
-0.56799138 5.3412819 0.62814301
-0.60818243 5.7192307 0.80831742
-0.52144736 4.9035907 0.92909324
-0.5889439 5.689383 0.26673672
-0.52429193 5.0648246 0.47504941
-0.56023061 5.4120035 0.63627356
-0.59241116 5.7228775 0.80859578
-0.58046073 5.7645531 0.27018389
-0.54591233 5.421453 0.63720274
-0.54237348 5.5415215 0
-0.52495486 5.3635526 1.0153742
-0.48720828 5.1445408 0.48210916
-0.51316887 5.4186645 0.6365059
-0.47285229 5.155879 0.4830381
-0.48765627 5.3172984 0.62442619
-0.49873924 5.6103582 0.13076963
-0.45915872 5.1651134 0.48378125
-0.4898684 5.5105691 0.64695942
-0.48787004 5.6675076 -0.13206942
-0.48358297 5.6177053 0.13090889
-0.4469519 5.1921678 0.48619643
-0.43294275 5.2213297 0.4887974
-0.45518917 5.4896235 0.64417183
-0.47297928 5.704174 0.80442059
-0.39025688 4.7065344 0.77590883
-0.44593853 5.5546269 0.12937698
-0.47281444 5.8893943 0.55122083
-0.45693293 5.6915736 0.80247217
-0.40509674 5.0459003 0.83167827
-0.43535793 5.4228344 1.0250021
-0.44217032 5.7334251 -0.1335085
-0.42971697 5.5719485 0.12974834
-0.41480586 5.3786025 0.50328857
-0.43737599 5.6712599 0.7994104
-0.42715967 5.7345634 -0.1335085
-0.39273632 5.2724342 0.49325624
-0.42193961 5.6644845 0.79829693
-0.38032195 5.105773 0.96464247
-0.41465119 5.7988763 0.27111557
-0.37623906 5.2616844 0.36887223
-0.36714727 5.1345363 0.48025134
-0.40371662 5.645957 0.79551351
-0.36404824 5.0911965 0.96168005
-0.38492063 5.6173105 0.13072321
-0.386287 5.6372504 0.7941218
-0.36927229 5.3889475 0.88744783
-0.34437332 5.0255861 0.94908971
-0.38318893 5.861979 0.54806244
-0.36715519 5.6166968 0.79105997
-0.34847966 5.3310008 0.87772053
-0.32948169 5.0403719 0.95168185
-0.33646166 5.3628387 0.62837535
-0.33501458 5.3397737 0.87901753
-0.34029987 5.694304 -0.13244081
-0.34216732 5.7255521 0.26748204
-0.31900877 5.3380356 0.62535542
-0.32297513 5.7053256 -0.13267291
-0.28040415 4.9533129 0.69725728
-0.30978853 5.7200742 -0.13299787
-0.28526598 5.5925694 0.6548577
-0.25202847 4.9409561 0.69530886
-0.27577507 5.7204862 0.53431445
-0.23518376 5.5648456 0.51963753
-0.21442109 5.073566 0.71367973
-0.22195344 5.6490912 0.52744049
-0.20543003 5.2285428 0.73539072
-0.19013232 5.2350669 0.73622578
-0.17559515 5.1840515 0.72898877
-0.17430721 5.6726775 0.52948409
-0.17162186 5.5852847 0.6534639
-0.1594916 5.190516 0.72982383
-0.15574189 5.5756035 0.52038068
-0.15608056 5.5877285 0.65369618
-0.14698803 5.2622132 0.73984426
-0.13715893 5.4944215 0.51276356
-0.13944954 5.5861807 0.6534639
-0.13013691 5.2131276 0.7328856
-0.12072568 5.4888315 0.5122062
-0.12265701 5.5766397 0.65230232
-0.11432122 5.1976509 0.73065889
-0.10765398 5.6066155 0.52316743
-0.10693203 5.5690165 0.65137315
-0.087655284 5.3998365 0.50384593
-0.070587553 5.3921208 0.50310278
-0.056117125 5.3584361 0.49994445
-0.040590122 5.4083614 0.50458902
-0.024607264 5.4223971 0.50588953
-0.025358163 5.5878634 0.6534639
0.005884652 5.6197019 0.65718073
0.022509744 5.6077409 0.65578687
0.037871007 5.5639544 0.65067625
0.055295434 5.5578489 0.64997935
