# .PCD v0.7 - Point Cloud Data file format
VERSION 0.7
FIELDS x y z
SIZE 4 4 4
TYPE F F F
COUNT 1 1 1
WIDTH 326
HEIGHT 1
VIEWPOINT 0 0 0 1 0 0 0
POINTS 326
DATA ascii
-12.791729 9.1613569 0
-12.770401 9.1460819 0.36468804
-12.689046 9.1448946 0.72940338
-12.651312 9.1714878 0
-12.636572 9.1608028 0.36236694
-12.621403 9.149806 0.72698104
-12.609509 9.1411839 1.4530158
-12.615956 9.1997089 0
-12.593172 9.183094 0.36185634
-12.57482 9.1697111 0.72576988
-12.542101 9.1458521 1.4481854
-12.509181 9.1218472 2.1758325
-12.512845 9.1245184 2.5443196
-12.580543 9.2311859 0
-12.554585 9.2121391 0.36153138
-12.541113 9.2022533 0.72539717
-12.494037 9.1677113 1.4457703
-12.469767 9.1499023 1.8086988
-12.459706 9.14252 2.1719356
-12.55953 9.2732277 0
-12.525584 9.2481632 0.36148494
-12.516967 9.2418013 0.72558355
-12.46955 9.2067909 1.0838761
-12.471584 9.208293 1.4463276
-12.43457 9.1809645 1.8075372
-12.42137 9.171217 2.1699872
-12.404493 9.1587572 2.5332954
-12.552834 9.3259544 0
-12.514142 9.2972097 0.36194918
-12.451789 9.250885 1.0847132
-12.436216 9.239316 1.4453986
-12.404088 9.2154465 1.8070726
-12.382976 9.1997614 2.1680388
-12.557183 9.3837175 0
-12.515361 9.3524647 0.36273834
-12.482738 9.3280859 0.7267015
-12.461069 9.3118944 1.0877825
-12.357728 9.2346697 1.4392678
-12.38149 9.2524261 1.8075372
-12.583579 9.4652023 0
-12.530655 9.4253941 0.36403814
-12.16758 9.1522932 0.71002465
-12.411023 9.3354082 1.0859687
-12.382761 9.3141499 1.4455844
-12.369821 9.3044167 1.8100926
-12.356654 9.2945127 2.173049
-12.324059 9.2699947 2.5336196
-12.108523 9.1576023 0.70797497
-12.439054 9.4075804 1.0905727
-12.399631 9.3777647 1.4504148
-12.378693 9.3619289 1.8149709
-12.321786 9.3188906 2.5381591
-12.28048 9.287652 2.9009633
-12.434964 9.4591913 1.0925258
-12.189545 9.2725029 1.4288639
-12.455267 9.4746351 1.8300705
-12.184994 9.3296185 1.0731336
-12.215693 9.3531237 1.4353663
-12.480643 9.5559864 1.8382012
-12.650977 9.6864052 2.2392952
-12.279767 9.4021826 2.913924
-12.120158 9.3304062 1.427006
-12.357991 9.5134964 1.8237983
-11.965464 9.2713327 1.0584848
-12.149029 9.4135656 1.4338801
-12.295068 9.5267229 1.81892
-12.850166 9.9568367 2.2846658
-12.068498 9.3511667 2.8765233
-12.224273 9.5300503 1.0838761
-12.102198 9.4348803 1.4316506
-12.282413 9.5753756 1.821243
-12.589396 9.8147001 2.2434707
-12.199407 9.5106649 2.5414014
-11.853143 9.2407169 2.8317163
-12.053782 9.4547701 1.4292355
-12.302402 9.6497831 1.8284444
-12.496327 9.8018951 2.2320583
-11.892171 9.3280058 2.8476396
-12.047097 9.5005732 1.0728546
-12.041497 9.4961576 1.4307216
-12.202227 9.6229115 1.817294
-12.430192 9.8026896 2.2248213
-11.866166 9.3578873 2.8472691
-12.066424 9.5740204 0.7183165
-11.94696 9.4792328 1.066437
-11.98675 9.5108023 1.4275634
-12.207856 9.6862383 1.8224045
-12.415015 9.8506079 2.2273266
-11.961857 9.5490208 0.35535729
-11.921902 9.5171251 1.066716
-12.106326 9.6643486 1.4452128
-12.208561 9.7459621 1.8268182
-12.35323 9.8614502 2.2214813
-12.417571 9.9128122 2.6104648
-11.991611 9.6311646 1.0755054
-11.968917 9.6129379 1.4322081
-12.159456 9.7659712 1.8237983
-12.373329 9.937746 2.2303884
-12.082747 9.7043619 2.9198487
-11.844098 9.5672235 0.71002465
-12.314481 9.9471817 1.8512099
-12.327041 9.9573269 2.2270482
-11.668475 9.4793301 0.70108068
-11.957763 9.714344 1.077319
-12.295906 9.989048 1.8526038
-12.285351 9.9804726 2.2245431
-11.953444 9.7733278 1.0796907
-12.310601 10.065346 1.8595728
-12.229405 9.9989586 2.2200894
-11.604179 9.5453568 0.70070797
-11.925931 9.8100233 1.0798302
-12.026394 9.892662 1.45283
-12.058232 9.9188509 1.8258891
-12.326632 10.139632 2.2431922
-11.596087 9.5897064 0.70173281
-11.887909 9.8310375 1.0787141
-11.971298 9.8999987 1.4493002
-11.865365 9.8123941 1.8005682
-12.338202 10.203421 2.2501509
-11.604441 9.6547375 0.70396882
-11.867889 9.8739233 1.0795512
-11.894417 9.8959942 1.4435408
-11.953781 9.945385 1.8184555
-12.278947 10.215918 2.2448623
-12.235585 10.179841 2.6150041
-11.65694 9.7570858 0.70890665
-11.962466 10.012817 1.0908517
-11.892234 9.954031 1.8135771
-12.122528 10.146792 2.2217596
-11.556284 9.7278452 0.70443463
-11.945143 10.055178 1.0918283
-11.744293 9.8861074 1.4322081
-12.266876 10.326007 2.2534912
-11.756295 9.9594831 0.35772479
-11.659809 9.8777437 0.71263331
-11.98352 10.151978 1.0982459
-11.716215 9.9255295 1.4325795
-12.033026 10.193918 1.8442409
-11.963876 10.135338 2.2036669
-11.708869 9.9720793 0.35707489
-11.481812 9.7787008 0.70331663
-12.089046 10.295863 1.1103836
-11.702317 9.9664984 1.4340658
-11.829354 10.074693 1.8170617
-12.082049 10.289906 2.2303884
-11.741246 10.063461 0.35902458
-11.539017 9.8901291 0.70872033
-12.046039 10.324699 1.1094069
-11.681536 10.012282 1.4353663
-11.746367 10.06785 1.8091635
-12.133877 10.399985 2.2459757
-11.534051 9.9418802 0.71011782
-11.544928 9.9512548 1.4219898
-11.668552 10.057815 1.8014975
-12.040219 10.433237 0.36988726
-11.612144 10.062297 1.4335085
-11.606153 10.057104 1.7959222
-12.227108 10.595182 2.2738104
-11.592968 10.109628 0.35712132
-11.406376 9.9469099 1.4119575
-11.484668 10.015185 1.7819841
-12.189281 10.629642 2.2729752
-12.181033 10.682481 0.37615418
-11.62513 10.194966 1.0812254
-11.453667 10.044598 1.7815194
-12.190818 10.691062 2.2788205
-12.179273 10.745028 0.37708259
-12.672703 11.180352 0.78809851
-11.527507 10.170015 1.0749472
-11.52809 10.17053 1.4342515
-11.465526 10.115334 1.7880239
-12.208055 10.770422 2.2880058
-12.183228 10.812972 0.37819672
-11.540554 10.24258 1.0789931
-11.466586 10.176931 1.4303502
-11.667232 10.35501 1.824263
-12.765591 11.397729 0.79806733
-11.627684 10.381751 1.0900147
-11.457135 10.229477 1.4329511
-12.172862 10.868512 1.9083561
-11.945961 10.665924 2.2507076
-12.164312 10.918242 0.37949651
-11.585922 10.3991 1.4524584
-11.493909 10.316513 1.8061435
-11.950424 10.726264 2.2568312
-12.351495 11.152606 0.3863669
-12.316204 11.120741 0.773844
-11.504363 10.387701 1.0838761
-11.654039 10.522849 1.464906
-11.454399 10.342587 1.8047497
-11.806826 10.660805 2.235677
-11.887499 10.80163 0
-12.323797 11.198074 0.386599
-12.295994 11.172811 0.77477556
-11.628294 10.566103 1.4658349
-11.474779 10.42661 1.8131125
-12.583791 11.494604 0.39569765
-12.234252 11.175319 0.772726
-11.732921 10.71738 1.4825554
-11.42251 10.433838 1.8091635
-11.772496 10.817786 0
-12.443624 11.434487 0.39235532
-12.57616 11.556275 0.79648352
-11.566061 10.628092 1.0983855
-11.392962 10.46903 1.8093957
-12.175697 11.259039 0.3850207
-12.212694 11.29325 0.7757073
-11.43586 10.5749 1.8214754
-11.77343 10.940546 0
-12.190623 11.328227 0.3863669
-12.329948 11.457695 0.78493083
-11.746212 10.915254 1.1212656
-11.500793 10.687198 1.4647201
-11.193164 10.40133 1.7868625
-11.701019 10.941962 0
-12.076112 11.292723 0.38386014
-12.01956 11.239839 0.76741546
-11.761409 10.998434 1.126009
-11.587884 10.836166 1.4801402
-11.72823 11.032818 0
-12.097894 11.380564 0.38562417
-11.823178 11.122137 0.75698072
-11.830448 11.128976 1.135775
-11.571635 10.885509 1.4821838
-11.701738 11.069646 0
-12.002522 11.354182 0.77048993
-11.606562 10.97961 1.1172197
-11.523838 10.901356 1.4799545
-11.780397 11.210482 0
-11.800896 11.229988 0.7596826
-11.875997 11.301456 1.1463778
-11.433005 10.879896 1.8456347
-11.692183 11.192832 0
-11.833467 11.328082 0.38033214
-11.991213 11.479091 0.77412343
-11.92312 11.413906 1.1541907
-11.59272 11.097616 1.4972323
-11.343275 10.858825 1.8363426
-11.691141 11.254565 0
-11.848286 11.405842 0.76694959
-11.907012 11.462376 1.1557252
-11.32722 10.904234 1.8386657
-11.67781 11.308682 0
-11.70052 11.330674 0.37815031
-11.617771 11.250542 0.75418574
-11.93488 11.557627 1.5499949
-11.454641 11.092568 1.8646834
-11.693471 11.387293 0
-11.612074 11.308027 0.75586271
-11.765604 11.457538 1.5321598
-11.827383 11.582226 0
-11.610427 11.369766 0.75781929
-11.195233 10.963179 1.8323935
-11.563308 11.391032 0.37685049
-11.609374 11.436413 0.75996208
-11.828198 11.651977 1.1610267
-11.82 11.6439 1.5479515
-11.118785 10.953133 1.8251922
-11.608691 11.507825 0
-11.541664 11.441381 0.37731472
-11.58332 11.482675 0.76061428
-11.814204 11.711553 1.1632589
-11.684364 11.582841 1.5349464
-11.57286 11.532528 0
-11.56691 11.526599 0.37912518
-11.580108 11.539751 0.76238447
-11.852753 11.811445 1.1700951
-11.629685 11.654065 0.76778811
-11.709797 11.734344 1.1592131
-11.912697 11.93767 1.5734038
-11.198701 11.222177 1.8539976
-11.467604 11.564077 0
-11.403975 11.499913 0.37601492
-11.459374 11.555779 0.7589373
-11.667254 11.765409 1.158655
-11.093451 11.186778 1.8423824
-11.411126 11.571578 0.37731472
-11.452311 11.613341 0.76061428
-11.613339 11.776634 1.1565623
-12.077949 12.247776 1.6048012
-11.281153 11.439777 1.8788538
-11.435531 11.66535 0.37926441
-11.424797 11.654401 0.76108015
-11.641198 11.875151 1.1628404
-11.395566 11.693789 0
-11.549117 11.851358 0.7717011
-11.611483 11.915356 1.1633985
-11.949465 12.262183 1.5973699
-11.715343 12.085072 0.39077696
-12.061763 12.442426 0.80812937
-11.655237 12.023069 1.1709322
-11.917321 12.293426 1.5973699
-11.770248 12.21402 1.5825071
-11.713212 12.231503 0.39319089
-11.501911 12.010852 0.77552098
-11.559659 12.071155 1.5592842
-11.661469 12.245746 0
-11.743815 12.332219 0.39537269
-11.706675 12.293217 0.79163885
-11.36614 11.935621 1.1525165
-11.712668 12.299511 1.5845507
-11.720919 12.381531 0.39583692
-11.70723 12.367069 0.79415429
-11.326562 11.964947 1.1520979
-11.64695 12.372416 0
-11.700003 12.428773 0.39630115
-11.765767 12.498634 0.80048966
-11.342337 12.048829 1.1571205
-11.608825 12.405456 0
-11.682202 12.48387 0.39695105
-11.750474 12.556826 0.80198038
-11.548807 12.414952 0
-11.740439 12.620956 0.40020055
-11.7837 12.667461 1.6140904
-11.626816 12.569014 0
-11.654912 12.599385 0.39848298
-11.848892 12.809086 0.81371933
-11.938945 12.906436 1.640286
-11.488183 12.934902 0
-11.465172 12.908993 0.40085045
-11.543372 12.997041 0.81064487
-11.439117 12.961438 0.40136111
-11.527603 13.0617 0.812415
-11.533252 13.141891 0.81539643
-11.726665 13.442526 0.83188695
-11.792256 13.589365 0.83906078
