# .PCD v0.7 - Point Cloud Data file format
VERSION 0.7
FIELDS x y z
SIZE 4 4 4
TYPE F F F
COUNT 1 1 1
WIDTH 198
HEIGHT 1
VIEWPOINT 0 0 0 1 0 0 0
POINTS 198
DATA ascii
-1.6198272 -12.679845 1.4948596
-1.7112453 -12.808133 1.5111207
-1.6762394 -12.546124 1.7789108
-1.8946885 -13.584624 2.2534754
-1.7862628 -12.550939 1.7816943
-1.8453645 -12.680496 1.8009001
-1.9255321 -13.231371 2.196733
-1.9001503 -12.790549 1.8173225
-1.952021 -13.139709 2.1824665
-1.9395734 -12.809706 1.5150698
-1.9290423 -12.740154 1.8109206
-2.0046618 -13.239575 2.1999755
-2.015537 -13.3114 2.5365839
-1.9787841 -12.811749 1.5159991
-1.9344863 -12.52494 1.7811375
-2.0698416 -13.401305 2.2278602
-2.0164049 -12.817946 1.5173929
-1.9629911 -12.478403 1.7752922
-2.097749 -13.335036 2.2178087
-2.0311425 -12.680847 1.5018286
-1.991879 -12.435717 1.7700036
-2.044462 -12.764003 2.1237788
-2.1302345 -13.299499 2.5376947
-2.0744934 -12.695969 1.5043839
-2.0274231 -12.407897 1.7669419
-2.0750027 -12.699086 2.1140518
-2.1662998 -13.257827 2.5310295
-2.1163948 -12.715232 1.5074039
-2.1486814 -12.703772 1.506707
-2.0929062 -12.374008 2.0618489
-2.161587 -12.54035 1.4881228
-2.1334467 -12.377096 2.0634701
-2.1747448 -12.616686 2.4121616
-2.1960387 -12.518229 1.4862643
-2.1711831 -12.376543 2.0644426
-2.2317746 -12.503837 1.4853352
-2.2072012 -12.36616 2.0637944
-2.2216005 -12.446836 2.3821669
-2.2609048 -12.490526 1.484406
-2.2300286 -12.319949 2.0569854
-2.2775621 -12.582552 2.4091992
-2.2965348 -12.463826 1.482083
-2.2744441 -12.343936 2.0621731
-2.3281212 -12.635254 2.4206786
-2.2955215 -12.266013 1.4593174
-2.3571906 -12.595539 2.1052973
-2.3644819 -12.634501 2.4217896
-2.314945 -12.169988 1.1557616
-2.3233669 -12.214264 1.4539745
-2.3340697 -12.27053 2.0521216
-2.3905728 -12.567574 2.41031
-2.3505194 -12.148971 1.154461
-2.3553138 -12.17375 1.4500253
-2.375232 -12.2767 2.0543914
-2.4166698 -12.306498 1.170067
-2.3854733 -12.147634 1.4477024
-2.4079852 -12.262273 2.0530944
-2.4137745 -12.123813 1.4456117
-2.4227364 -12.168826 2.0385034
-2.5674253 -12.895564 2.4773352
-2.4475174 -12.094752 1.4430563
-2.4554746 -12.134075 2.0339642
-2.6028581 -12.862391 2.4725213
-2.5643654 -12.492616 1.491375
-2.5328195 -12.338936 1.7702819
-2.4913347 -12.136837 2.0355854
-2.6573417 -12.945561 2.4899256
-2.5330813 -12.156976 1.1585482
-2.6038511 -12.49662 1.4927688
-2.5289438 -12.137119 2.0368822
-2.5489528 -12.053943 1.1494449
-2.637629 -12.473291 1.4909104
-2.5662484 -12.135734 1.7432824
-2.5718846 -12.162387 2.0423944
-2.7682695 -13.091087 2.5210309
-2.5755174 -12.00349 1.1453577
-2.6026623 -12.130002 1.7435608
-2.6212108 -12.21645 2.0527701
-2.7807131 -12.959828 2.4973316
-2.609046 -12.006436 1.1462865
-2.6735063 -12.303073 1.4723263
-2.6331458 -12.11734 1.7427256
-2.6732981 -12.302115 2.0683336
-2.8054481 -12.91025 2.4891849
-2.643373 -11.992808 1.1457292
-2.7040131 -12.267928 1.4690741
-2.6776137 -12.148156 1.7482926
-2.8083415 -12.741259 2.1435578
-2.8247049 -12.815499 2.4725213
-2.6776423 -11.979083 1.1451719
-2.6989577 -12.074442 1.7388289
-2.7303255 -12.214773 2.0563369
-2.8567152 -12.780208 2.4673369
-2.7109716 -11.961374 1.144243
-2.7439637 -12.106943 1.7446741
-2.7543402 -12.152725 2.0472579
-2.8937526 -12.767842 2.4665964
-2.784308 -12.118052 1.7474576
-2.7930367 -12.156041 2.0492034
-2.9214993 -12.715144 2.4580793
-2.8208313 -12.121802 1.7491277
-2.9535601 -12.692171 2.1409636
-2.9445229 -12.653336 2.4477108
-2.8510361 -12.098457 1.7469009
-2.9793949 -12.643151 2.4473405
-2.8853481 -12.074029 1.7446741
-3.0145323 -12.614613 2.4436376
-2.9160342 -12.044242 1.7416123
-3.1193595 -12.884046 2.1779273
-3.0357609 -12.538754 2.4306767
-3.1500666 -12.690833 2.463634
-3.1380801 -12.493221 2.1163213
-3.1561618 -12.409263 2.1036761
-3.2405486 -12.741052 2.4769647
-3.2055571 -12.457738 2.1134031
-3.2815039 -12.75289 2.4810383
-3.2280786 -12.392788 2.1040003
-3.3213091 -12.750706 2.4825196
-3.2562821 -12.350714 2.0984881
-3.3601294 -12.744596 2.4832602
-3.2893505 -12.32765 2.0962183
-3.4019811 -12.749762 2.4862225
-3.3154471 -12.296131 2.0923274
-3.4486513 -12.790151 2.4958503
-3.4405377 -12.602411 1.8359717
-3.3291118 -12.194268 2.0767639
-3.5012395 -12.824758 2.5047379
-3.4693942 -12.569845 1.8326315
-3.3610523 -12.177315 2.0754671
-3.5286734 -12.784617 2.4988127
-3.399821 -12.176793 2.0770881
-3.5613043 -12.755161 2.4951098
-3.549305 -12.568096 1.835415
-3.4321799 -12.153357 2.0748184
-3.5996673 -12.74643 2.4954801
-3.4222841 -11.990191 1.458156
-3.4574397 -12.113361 2.0696306
-3.6314731 -12.723099 2.492888
-3.6073673 -12.506213 1.8292915
-3.494534 -12.115037 2.0715761
-3.6433101 -12.48341 1.8276213
-3.5607767 -12.200618 2.0881126
-3.4784675 -11.79601 1.4381781
-3.6742356 -12.459889 1.825673
-3.5926011 -12.183054 2.0868154
-3.5034533 -11.759598 1.4349259
-3.6417868 -12.092689 0.88311696
-3.5417652 -11.760563 1.4363196
-3.6488471 -12.116133 1.778354
-3.6712606 -12.060834 0.88158232
-3.7189472 -12.217494 1.4934658
-3.6715164 -12.061674 1.771952
-3.6224613 -11.782314 0.57483953
-3.6984761 -12.029558 0.88004762
-3.6794946 -11.96782 1.4641958
-3.6842308 -11.983224 1.7619317
-3.7303276 -11.998828 0.87865257
-3.7111778 -11.937231 1.4618727
-3.7124519 -11.941329 1.757478
-3.7626255 -11.984557 0.87837356
-3.7373586 -11.904078 1.4590851
-3.7445982 -11.927137 1.7569214
-3.714155 -11.715598 1.4372488
-3.7683125 -11.886428 1.7524679
-3.7961836 -11.845035 0.58005691
-3.7971406 -11.848022 0.87000269
-3.7315426 -11.643339 1.4298152
-3.806241 -11.876416 1.7527462
-3.8269579 -11.841427 0.58033639
-3.8119681 -11.795044 0.86679393
-3.7673118 -11.656868 1.4326028
-3.8492572 -11.910425 1.7591481
-3.8647611 -11.831244 0.58042955
-3.8378534 -11.748873 0.86428267
-3.8088491 -11.660081 1.4344612
-3.8891163 -11.905804 1.7602615
-3.8603582 -11.693184 0.86107391
-3.8435924 -11.6424 1.4337643
-3.9302249 -11.904812 1.7619317
-3.8860593 -11.661537 0.85953927
-3.8710661 -11.616545 1.431906
-3.9571931 -11.875 1.7591481
-3.9128847 -11.633621 0.8582837
-3.9890759 -11.86015 1.7585914
-4.0144081 -11.819294 0.58210653
-3.8701069 -11.39444 1.122692
-4.0467515 -11.806148 0.58201337
-3.9044948 -11.391123 1.1234351
-3.9343359 -11.374529 1.1228778
-3.9608555 -11.335793 1.1202768
-4.0064011 -11.370462 1.1247357
-4.0714808 -11.440368 1.1329101
-4.0885425 -11.375049 1.1277082
-4.0640302 -11.214529 1.1128454
-4.0665045 -11.118263 1.1044852
-4.1616373 -11.280613 1.1217631
-4.2208996 -11.3436 1.1291944
-4.2510376 -11.321707 1.1282656
