# .PCD v0.7 - Point Cloud Data file format
VERSION 0.7
FIELDS x y z
SIZE 4 4 4
TYPE F F F
COUNT 1 1 1
WIDTH 207
HEIGHT 1
VIEWPOINT 0 0 0 1 0 0 0
POINTS 207
DATA ascii
-8.8996401 0.96681029 0
-8.8833275 0.96503824 0.20745811
-8.8206625 0.98471802 0.82803881
-8.7511005 0.9769522 1.2375273
-8.8066835 1.0096223 -0.41338137
-8.7884359 1.0075305 0
-8.770277 1.0287186 -0.41179752
-8.7460403 1.0258758 0
-8.6687927 1.0168148 1.2266718
-8.7551012 1.0548327 -0.41123852
-8.7443886 1.0535421 -0.20448712
-8.7249031 1.0511944 0
-8.714613 1.0499547 0.2037908
-8.699564 1.0481415 0.40862986
-8.6937466 1.0474406 0.61232233
-8.6753159 1.04522 0.81521964
-8.6144314 1.0378845 1.2194347
-8.6094809 1.0372881 1.4247152
-8.7441902 1.0783001 -0.41086587
-8.7295065 1.0764893 -0.20420858
-8.7060537 1.0735972 0
-8.6977558 1.0725739 0.20346585
-8.682724 1.0707202 0.4079777
-8.6749458 1.0697612 0.61120617
-8.6427174 1.0657868 0.81243294
-8.61164 1.0619545 1.0146925
-8.578083 1.0578163 1.214703
-8.5615005 1.0557715 1.4172577
-8.5262661 1.0514265 1.6185998
-8.732832 1.1047608 -0.4104932
-8.71418 1.1024011 -0.20393005
-8.6947021 1.0999372 0
-8.6764908 1.0976332 0.20304805
-8.6674242 1.0964863 0.4074187
-8.6557083 1.0950042 0.61009014
-8.6254988 1.0911824 0.81113243
-8.5964375 1.0875059 1.0132987
-8.5648937 1.0835155 1.2133112
-8.5444365 1.0809275 1.414988
-8.7237692 1.1283749 -0.41021371
-8.7071018 1.126219 -0.20383722
-8.6796961 1.1226743 0
-8.6654596 1.1208329 0.20286237
-8.6544228 1.1194053 0.40695283
-8.6407442 1.1176361 0.60925305
-8.610568 1.1137329 0.8100177
-8.5776072 1.1094697 1.0114403
-8.5500498 1.1059052 1.2116411
-8.5257273 1.1027592 1.4123942
-8.7205839 1.1527325 -0.41021371
-8.6979752 1.149744 -0.20369795
-8.6785097 1.1471709 0
-8.6563492 1.1442416 0.2027231
-8.6433411 1.1425221 0.40658021
-8.6316566 1.1409776 0.60883451
-8.593605 1.1359478 0.80871725
-8.5587206 1.1313365 1.0095819
-8.5351467 1.1282203 1.2099711
-8.5206575 1.1263051 1.4120698
-8.4894876 1.122185 1.6134155
-8.7212896 1.1776155 -0.41040003
-8.6967125 1.174297 -0.20374438
-8.6693258 1.170599 0
-8.6432114 1.1670729 0.20249099
-8.6302166 1.1653181 0.40611434
-8.6225042 1.1642768 0.60841596
-8.5884256 1.1596752 0.80853146
-8.5555277 1.155233 1.0095819
-8.5201864 1.1504611 1.2083009
-8.509656 1.1490391 1.4107729
-8.4902163 1.1464143 1.6141561
-8.7100515 1.2008727 -0.41002735
-8.6914186 1.1983036 -0.20369795
-8.6561174 1.1934366 0
-8.6319971 1.1901112 0.2023053
-8.6249495 1.1891394 0.40602121
-8.6172428 1.188077 0.60827643
-8.5890999 1.1841967 0.80890304
-8.5463648 1.1783049 1.008885
-8.5064144 1.1727967 1.4107729
-8.4772463 1.1687753 1.6123044
-8.6983232 1.2271142 -0.40965471
-8.6678123 1.2228098 -0.20323373
-8.6345005 1.2181104 0
-8.6222744 1.2163856 0.20216604
-8.6093016 1.2145555 0.40546218
-8.601615 1.2134711 0.60743934
-8.5754766 1.2097837 0.8079741
-8.5327864 1.203761 1.0077236
-8.5065966 1.2000663 1.4114213
-8.4754791 1.1956764 1.6126748
-8.6889296 1.2505465 -0.40937519
-8.6584263 1.2461562 -0.20309447
-8.6251278 1.2413638 0
-8.6069708 1.2387505 0.2018875
-8.5999441 1.2377392 0.40518266
-8.594243 1.2369188 0.60716033
-8.5700941 1.2334431 0.80778831
-8.5215263 1.2264531 1.0067943
-8.4895382 1.2218491 1.4091517
-8.4701614 1.2190604 1.6123044
-8.6810055 1.2772539 -0.40918887
-8.6505127 1.2727675 -0.20300162
-8.6152487 1.2675791 0
-8.6030369 1.2657822 0.2018875
-8.5960131 1.2647489 0.40518266
-8.5824194 1.2627487 0.60660225
-8.5484467 1.2577504 0.80611628
-8.5137005 1.2526381 1.0063298
-8.4876099 1.2487993 1.4094758
-8.4740686 1.2468069 1.6137857
-8.6754284 1.3011951 -0.4090957
-8.6390162 1.2957338 -0.20281595
-8.6195869 1.2928197 0
-8.6133108 1.2918783 0.20221247
-8.6023273 1.2902309 0.4056485
-8.5906982 1.2884868 0.60743934
-8.5429316 1.2813225 0.8059305
-8.5121336 1.2767032 1.006562
-8.4782343 1.2716187 1.4085032
-8.4686098 1.2701752 1.6134155
-8.6658363 1.3245114 -0.40881619
-8.6472216 1.3216664 -0.20309447
-8.6357126 1.3199074 0
-8.6195507 1.3174372 0.20244457
-8.6085644 1.3157579 0.40611434
-8.5890379 1.3127733 0.60757887
-8.555068 1.3075813 0.8074168
-8.5144262 1.3013695 1.007259
-8.4870634 1.2971873 1.2066308
-8.4766016 1.2955884 1.4088274
-8.4572582 1.2926317 1.6119342
-8.6719742 1.3502413 -0.40928203
-8.6632538 1.3488835 -0.20355868
-8.6596613 1.3483241 0
-8.6395464 1.3451922 0.20300162
-8.6305199 1.3437867 0.40732554
-8.6089954 1.3404354 0.60925305
-8.5730267 1.3348351 0.8094604
-8.5303869 1.3281959 1.0095819
-8.4846506 1.3210746 1.4107729
-8.4516735 1.31594 1.6115639
-8.6815014 1.3796736 -0.40993419
-8.692544 1.3814286 -0.20434786
-8.6711836 1.378034 0
-8.6569996 1.3757799 0.20351227
-8.6400671 1.3730888 0.4079777
-8.6165648 1.3693539 0.61009014
-8.5845251 1.3642621 0.8109467
-8.5379438 1.3568593 1.0109757
-8.4882536 1.3489627 1.4120698
-8.4591446 1.3443364 1.6137857
-8.7111416 1.4093363 -0.41151804
-8.7004938 1.4076138 -0.20462637
-8.6751986 1.4035213 0
-8.6452284 1.3986726 0.20332657
-8.6500044 1.3994452 0.40862986
-8.6324024 1.3965975 0.6114853
-8.5944414 1.390456 0.81224716
-8.5635347 1.3854558 1.0144602
-8.5078325 1.3764439 1.4159607
-8.4728184 1.3707792 1.6171185
-8.7305765 1.4390763 -0.41263604
-8.6962795 1.4334229 -0.20462637
-8.6729689 1.4295808 0
-8.6568232 1.4269193 0.20369795
-8.6536989 1.4264044 0.40900254
-8.6380625 1.4238271 0.6121828
-8.6020679 1.4178939 0.81336188
-8.5731068 1.4131203 1.0160863
-8.529026 1.4058543 1.4201758
-8.4881067 1.3991096 1.6208216
-8.7302084 1.465636 -0.41282237
-8.6959324 1.4598818 -0.20471923
-8.692358 1.4592818 0
-8.6702986 1.4555783 0.20411575
-8.66716 1.4550514 0.40984103
-8.6554441 1.4530846 0.61371744
-8.6174603 1.4467078 0.81521964
-8.5865088 1.4415116 1.0181772
-8.5345488 1.4327886 1.421797
-8.4936104 1.4259157 1.6226732
-8.7415752 1.494224 -0.41356769
-8.7152138 1.489718 -0.2052763
-8.7155905 1.4897822 0
-8.7093 1.4887071 0.20513701
-8.6982517 1.4868186 0.41151804
-8.6982937 1.4868256 0.61706579
-8.6523886 1.4789789 0.81893533
-8.60569 1.4709966 1.0209646
-8.5477676 1.4610958 1.4247152
-8.7533817 1.5198369 -0.41431302
-8.7526541 1.5197107 -0.20625114
-8.7628937 1.5214885 0
-8.784174 1.5251833 0.20699388
-8.775034 1.5235964 0.41533786
-8.7572756 1.5205129 0.62153023
-8.7544355 1.52002 0.82896775
-8.6429119 1.5006562 1.025843
-8.5653028 1.4871812 1.4282819
-8.7999849 1.5548403 -0.41673535
-8.8682127 1.5668952 -0.20908286
-8.8843889 1.5697534 0
-9.1185513 1.6111268 0.86389506
-8.599721 1.5194564 1.4347667
-8.8779173 1.5957907 -0.4206484
-8.9461765 1.6080602 -0.21103255
