# .PCD v0.7 - Point Cloud Data file format
VERSION 0.7
FIELDS x y z
SIZE 4 4 4
TYPE F F F
COUNT 1 1 1
WIDTH 102
HEIGHT 1
VIEWPOINT 0 0 0 1 0 0 0
POINTS 102
DATA ascii
37.990692 -9.8250608 4.5888824
38.03421 -9.9497137 4.597477
38.029488 -10.06913 4.6004972
37.874722 -10.1485 4.5853972
37.633553 -10.203654 4.5598445
37.428905 -10.274506 4.5389376
37.206741 -10.325335 4.5154748
36.978741 -10.366405 4.4910831
36.756802 -10.428847 4.4680853
36.513584 -10.463206 4.4418349
36.306919 -10.527523 4.4206958
36.100151 -10.583786 4.3993244
35.904797 -10.642303 4.3793464
35.676994 -10.676467 4.3549547
35.456921 -10.725335 4.3319569
35.257771 -10.779382 4.3115144
35.07 -10.835859 4.2924652
34.813946 -10.870005 4.2650537
34.650837 -10.925367 4.2487926
34.472553 -10.975084 4.2306733
34.24881 -11.02247 4.2074432
34.080017 -11.066694 4.1902528
33.878998 -11.119195 4.1698103
33.687531 -11.160656 4.1500649
33.456539 -11.187909 4.1254406
33.285725 -11.247173 4.1087151
33.105656 -11.289432 4.0903635
32.904949 -11.32366 4.0694561
32.722862 -11.376098 4.0513363
32.567486 -11.411354 4.0355401
32.389156 -11.463241 4.0178852
32.210819 -11.514119 4.0002303
32.048031 -11.544319 3.9835045
31.860394 -11.589937 3.9646883
31.708549 -11.635067 3.9498208
31.556705 -11.679441 3.9349537
31.36746 -11.715334 3.9156725
31.20039 -11.764759 3.8994117
31.030214 -11.79347 3.8819888
30.876171 -11.846068 3.8673539
30.703804 -11.884566 3.8501637
30.518978 -11.904988 3.8308825
30.380007 -11.954753 3.8178737
30.22279 -11.990462 3.8023093
30.078268 -12.036538 3.7886035
29.880058 -12.06626 3.7683933
29.737421 -12.111406 3.7549202
29.604815 -12.141819 3.7419114
29.438036 -12.181597 3.7256498
29.275566 -12.210229 3.7093887
29.145824 -12.257762 3.6975415
28.966679 -12.283694 3.6794221
28.844259 -12.332881 3.6685038
28.689302 -12.361502 3.653172
28.546822 -12.400664 3.6396985
28.408358 -12.434931 3.6264575
28.261934 -12.476784 3.6127515
28.129337 -12.506344 3.5999749
27.96484 -12.538576 3.583946
27.819672 -12.561062 3.5695436
27.684643 -12.599116 3.556999
27.540609 -12.632339 3.5432932
27.3808 -12.651706 3.5272646
27.283718 -12.705217 3.5195987
27.146992 -12.739699 3.5068221
27.002689 -12.775646 3.4933486
26.878128 -12.797184 3.4812691
26.739296 -12.834284 3.4684923
26.619293 -12.868268 3.4575741
26.486343 -12.90109 3.4452622
26.361874 -12.943088 3.4343441
26.240639 -12.96893 3.4229612
26.102953 -12.991706 3.4097199
25.975006 -13.030003 3.3983374
25.848595 -13.051403 3.3862576
25.734879 -13.095607 3.3767333
25.600452 -13.122973 3.3641889
25.490099 -13.150786 3.3542001
25.37816 -13.194149 3.344908
25.246178 -13.215219 3.3323636
25.124268 -13.246523 3.3214455
25.011169 -13.281879 3.3116889
24.881136 -13.302036 3.299377
24.765179 -13.3291 3.2889235
24.639946 -13.356135 3.2775404
24.524643 -13.393488 3.2677839
24.419857 -13.41938 3.2584918
24.321966 -13.465242 3.2510583
24.185362 -13.47799 3.237817
24.057539 -13.49494 3.2257373
23.9666 -13.54309 3.219233
23.847534 -13.563806 3.2083149
23.737158 -13.588898 3.1985581
23.618631 -13.619739 3.1883368
23.517601 -13.643646 3.1795094
23.374102 -13.65325 3.1655715
23.272879 -13.692366 3.1576731
23.167547 -13.706707 3.1479163
23.068058 -13.745866 3.1402504
22.981178 -13.786658 3.1339781
22.857563 -13.799447 3.1223633
22.745935 -13.818873 3.1123743
