# .PCD v0.7 - Point Cloud Data file format
VERSION 0.7
FIELDS x y z
SIZE 4 4 4
TYPE F F F
COUNT 1 1 1
WIDTH 59
HEIGHT 1
VIEWPOINT 0 0 0 1 0 0 0
POINTS 59
DATA ascii
22.030676 -12.704041 -0.59043628
21.935078 -12.725552 -0.58876508
21.841978 -12.758308 -0.58727962
21.827637 -12.842072 -0.58797592
21.858145 -12.93202 -0.58964705
21.870657 -13.032353 -0.59108615
21.89533 -13.135245 -0.59280372
21.923611 -13.235607 -0.59456778
21.941246 -13.329999 -0.59605324
21.967484 -13.440604 -0.59791017
21.998629 -13.538939 -0.59972054
22.008673 -13.640637 -0.60115963
22.036953 -13.754177 -0.60310936
22.065218 -13.85222 -0.60487336
22.094067 -13.956496 -0.60673022
22.120049 -14.064902 -0.60858709
22.148056 -14.169722 -0.61044395
22.168118 -14.275426 -0.61216152
22.195299 -14.391775 -0.61415768
22.218658 -14.495215 -0.61592168
22.243282 -14.599992 -0.61773211
22.181515 -14.653804 -0.61722147
22.205452 -14.758855 -0.61903197
22.234686 -14.873587 -0.6210745
22.257504 -14.990277 -0.62302423
22.290043 -15.102843 -0.62511319
22.315519 -15.211203 -0.62701648
22.336863 -15.32875 -0.62896615
22.375048 -15.435512 -0.63110155
22.403631 -15.559334 -0.63328338
22.426201 -15.673847 -0.6352331
22.449921 -15.789779 -0.6372292
22.479191 -15.904376 -0.63931817
22.510086 -16.026669 -0.64154643
22.542837 -16.139086 -0.64368182
22.563395 -16.261263 -0.64572436
22.586266 -16.379789 -0.64776689
22.628014 -16.512733 -0.65036649
22.660473 -16.627514 -0.65254837
22.683718 -16.754454 -0.65473014
22.71843 -16.872194 -0.65700483
22.746752 -16.998175 -0.65927947
22.776327 -17.132051 -0.66169339
22.807947 -17.249516 -0.66392165
22.839256 -17.373663 -0.66624266
22.865528 -17.507322 -0.66861022
22.903677 -17.638206 -0.67116344
22.92869 -17.766094 -0.67343807
22.961056 -17.906895 -0.67603767
22.865318 -17.928699 -0.67459857
22.764925 -17.952862 -0.67311311
22.652031 -17.97954 -0.67144191
22.618923 -18.056448 -0.67195255
22.579279 -18.13475 -0.67237037
22.483442 -18.161297 -0.67102414
22.288313 -18.106762 -0.66670692
22.263824 -18.203272 -0.66768175
22.16185 -18.229874 -0.66624266
21.986065 -18.188454 -0.66248256
