# .PCD v0.7 - Point Cloud Data file format
VERSION 0.7
FIELDS x y z
SIZE 4 4 4
TYPE F F F
COUNT 1 1 1
WIDTH 148
HEIGHT 1
VIEWPOINT 0 0 0 1 0 0 0
POINTS 148
DATA ascii
22.280388 -12.672457 1.1953309
22.185963 -12.700879 1.1921631
22.081917 -12.733589 1.1887161
22.013943 -12.771305 1.1868526
22.029432 -12.867804 1.1897408
22.049164 -12.972405 1.1930016
22.08102 -13.063882 1.1964489
22.099939 -13.16898 1.1997097
22.120729 -13.270465 1.2029705
22.150288 -13.372455 1.206604
22.176035 -13.47264 1.2100512
22.201765 -13.583947 1.2137779
22.147409 -13.630506 1.2127531
22.045044 -13.663179 1.2094922
22.079975 -13.781029 1.2137779
22.106424 -13.878089 1.2172251
22.123322 -13.974977 1.2202996
22.186287 -14.107018 1.2260759
22.224216 -14.218446 1.2303616
22.225605 -14.312446 1.2327839
22.245905 -14.424589 1.2364174
22.295893 -14.545603 1.2414484
22.330345 -14.657139 1.245641
22.355101 -14.76848 1.2494607
22.390312 -14.881721 1.2537465
22.417461 -14.995852 1.2577527
22.436522 -15.110845 1.2614794
22.453777 -15.213783 1.2648333
22.497047 -15.334939 1.269678
22.524534 -15.457541 1.2739637
22.568922 -15.569256 1.278622
22.595379 -15.692502 1.2829077
22.628958 -15.815556 1.2874728
22.655466 -15.934346 1.2916653
22.692429 -16.055246 1.2963237
22.719557 -16.175806 1.3006095
22.759975 -16.29454 1.3053609
22.784851 -16.420864 1.3097397
22.810423 -16.542349 1.3140255
22.83709 -16.665308 1.3184043
22.883581 -16.791224 1.3236216
22.91107 -16.922379 1.32828
22.93726 -17.034712 1.3323793
22.957031 -17.155313 1.3364786
22.981255 -17.286196 1.3410438
23.025154 -17.413788 1.3462611
23.060711 -17.542122 1.3511989
23.097488 -17.684929 1.3566027
23.114491 -17.800554 1.3605157
23.096319 -17.895981 1.3625654
22.995874 -17.93405 1.3599567
22.90325 -17.958441 1.3572549
22.824776 -18.000061 1.3555779
22.830706 -18.121359 1.3593045
22.737856 -18.15139 1.356789
22.515675 -18.083666 1.346727
22.499279 -18.174088 1.3487766
22.445339 -18.234325 1.3485903
22.302877 -18.235203 1.3434662
22.085127 -18.166763 1.3335905
21.98197 -18.185068 1.3304228
21.884922 -18.214424 1.3278141
21.78648 -18.235716 1.3249259
21.691147 -18.259172 1.3222241
21.587946 -18.288486 1.3194292
21.489492 -18.314877 1.3167273
21.409613 -18.343777 1.3147707
21.361147 -18.412437 1.3151435
21.32906 -18.495369 1.316541
21.238178 -18.520718 1.3141186
21.139349 -18.551769 1.3116031
21.050259 -18.571362 1.3090876
20.956213 -18.599257 1.3066652
20.856228 -18.621435 1.3038702
20.759268 -18.645857 1.3012615
20.670055 -18.670275 1.2989323
20.568426 -18.696152 1.2962306
20.484329 -18.711321 1.2938082
20.384262 -18.737724 1.2911994
20.285696 -18.765041 1.288684
20.203203 -18.780548 1.2863549
20.109453 -18.80493 1.2839326
19.996817 -18.811127 1.2802991
19.794722 -18.725483 1.2707028
19.693453 -18.75382 1.2681873
19.603491 -18.772816 1.265765
19.551397 -18.821304 1.2655786
19.458416 -18.948931 1.2666035
19.366428 -18.97163 1.2642744
19.274479 -18.993952 1.2619451
19.192499 -19.025738 1.2602681
19.105335 -19.045408 1.2580321
19.000275 -19.060059 1.2550508
18.929211 -19.088457 1.2536533
18.825676 -19.103718 1.2507651
18.75268 -19.136238 1.2494607
18.652048 -19.153549 1.2467589
18.582947 -19.176113 1.2452682
18.482424 -19.192665 1.2425665
18.405266 -19.219675 1.2409827
18.321211 -19.239166 1.238933
18.229095 -19.263254 1.2367901
18.145853 -19.28961 1.2350199
18.06189 -19.308109 1.2329702
17.977312 -19.332354 1.2311069
17.896128 -19.353144 1.2292435
17.808208 -19.36628 1.2269144
17.726406 -19.39249 1.2252375
17.635841 -19.415548 1.2231877
17.556112 -19.436552 1.2214175
17.477129 -19.451241 1.2194611
17.388584 -19.482262 1.217784
17.312319 -19.499332 1.2160139
17.230589 -19.523649 1.2143369
17.142282 -19.540146 1.2121941
17.059282 -19.562315 1.2104238
16.980518 -19.575216 1.2084674
16.896763 -19.602737 1.2068835
16.818554 -19.622543 1.2052065
16.730459 -19.637381 1.2030637
16.537846 -19.528379 1.1933744
16.461372 -19.548506 1.1917905
16.383631 -19.566826 1.1901134
16.293968 -19.584414 1.1880639
16.30378 -19.700882 1.1925358
16.253227 -19.765892 1.1933744
16.172674 -19.78027 1.191511
16.012775 -19.69669 1.1837782
15.92664 -19.709929 1.1817285
15.935643 -19.841208 1.1867595
15.850253 -19.848162 1.1845235
15.772919 -19.87908 1.1834055
15.693836 -19.893248 1.1816353
15.460902 -19.953638 1.1771632
15.294868 -19.983162 1.1735299
15.222068 -20.003538 1.1722255
15.145656 -20.018883 1.1706417
15.069385 -20.041378 1.1693373
14.990718 -20.060396 1.1678467
14.915577 -20.076521 1.166356
14.844026 -20.097202 1.1651448
14.771291 -20.116032 1.1638404
14.686831 -20.133287 1.1621635
14.605921 -20.155062 1.1607659
14.546114 -20.176105 1.1599275
14.459393 -20.189219 1.1580641
14.389051 -20.209988 1.1569461
14.235636 -20.240236 1.1539648
