# .PCD v0.7 - Point Cloud Data file format
VERSION 0.7
FIELDS x y z
SIZE 4 4 4
TYPE F F F
COUNT 1 1 1
WIDTH 90
HEIGHT 1
VIEWPOINT 0 0 0 1 0 0 0
POINTS 90
DATA ascii
37.827595 -9.8956623 2.7341747
37.850136 -10.021643 2.7379415
37.839508 -10.139066 2.7393367
37.680244 -10.216313 2.7299893
37.399773 -10.266509 2.7119923
37.174866 -10.316489 2.697762
36.990204 -10.369618 2.6863217
36.752071 -10.427505 2.6713939
36.546272 -10.472573 2.6584191
36.356068 -10.541774 2.6469793
36.102539 -10.584486 2.6307955
35.898819 -10.640531 2.6182394
35.679707 -10.677279 2.6042883
35.491276 -10.735727 2.5928481
35.28373 -10.787318 2.5800128
35.047607 -10.82894 2.5650852
34.849632 -10.881148 2.5529475
34.668793 -10.931027 2.5419259
34.478439 -10.976957 2.5302069
34.293747 -11.036933 2.5191853
34.088257 -11.069369 2.5062106
33.861855 -11.113569 2.4921198
33.675385 -11.156632 2.4806795
33.494625 -11.200644 2.4696584
33.309948 -11.255359 2.4586368
33.10466 -11.289091 2.4458015
32.967358 -11.345136 2.4379888
32.752529 -11.386412 2.4247351
32.57774 -11.414947 2.4138529
32.402542 -11.467978 2.4035289
32.249874 -11.528079 2.3948791
32.050797 -11.545316 2.3821836
31.862501 -11.590704 2.3708832
31.702641 -11.632899 2.3613961
31.527828 -11.668754 2.3507931
31.364109 -11.714083 2.3411667
31.192743 -11.761877 2.3311219
31.051809 -11.801678 2.3228908
30.865562 -11.841998 2.3117297
30.720512 -11.891034 2.3034985
30.566603 -11.923566 2.2942905
30.382566 -11.955761 2.2831295
30.228516 -11.992734 2.2740612
30.072399 -12.03419 2.2649927
29.906796 -12.077058 2.2553663
29.756266 -12.119081 2.2467165
29.621351 -12.148601 2.2387643
29.463209 -12.192013 2.2296958
29.292786 -12.21741 2.219372
29.155254 -12.261728 2.2116988
28.999355 -12.29755 2.2026305
28.865513 -12.341969 2.1952362
28.691681 -12.362527 2.1846333
28.554228 -12.403881 2.17696
28.418957 -12.43957 2.1692867
28.292128 -12.490113 2.1625903
28.146301 -12.513886 2.1539404
27.97031 -12.541029 2.143477
27.842827 -12.571517 2.1362221
27.701899 -12.606969 2.1282701
27.579136 -12.650011 2.1217129
27.422358 -12.670907 2.1123655
27.285166 -12.705893 2.1046922
27.155233 -12.743567 2.0975771
27.041124 -12.793831 2.0918572
26.9035 -12.809263 2.0836258
26.755207 -12.841921 2.0752552
26.629427 -12.873168 2.0682795
26.49964 -12.907566 2.0611644
26.364038 -12.94415 2.0537701
26.256729 -12.976882 2.0480499
26.123936 -13.00215 2.0405164
25.979528 -13.03227 2.0324247
25.865175 -13.059774 2.0261467
25.735111 -13.095725 2.0191708
25.614471 -13.13016 2.0127532
25.503769 -13.157839 2.0067542
25.366716 -13.1882 1.9992206
25.236105 -13.209946 1.9918263
25.131498 -13.250336 1.9866644
24.996922 -13.274314 1.9791307
24.892895 -13.308323 1.9738292
24.771307 -13.332398 1.9671326
24.6492 -13.361152 1.9605755
24.461769 -13.359151 1.9489958
24.237873 -13.319374 1.9339285
24.082453 -13.332642 1.9248601
23.977158 -13.361963 1.9194191
23.866669 -13.387873 1.9135596
23.751537 -13.421561 1.9077001
