# .PCD v0.7 - Point Cloud Data file format
VERSION 0.7
FIELDS x y z
SIZE 4 4 4
TYPE F F F
COUNT 1 1 1
WIDTH 119
HEIGHT 1
VIEWPOINT 0 0 0 1 0 0 0
POINTS 119
DATA ascii
2.8754449 15.997046 -1.5163682
2.9156473 15.933087 -1.5111662
2.9416721 16.075304 -0.76210493
2.9315393 16.019932 2.288841
2.9503002 15.872021 -1.50615
2.9555295 15.900153 -1.1308919
2.9653723 15.953106 -0.75670129
2.98686 15.822628 -1.5022485
2.9910431 15.844788 -1.1275437
2.9921267 15.850529 -0.75222927
3.0599096 16.209602 2.3183458
3.0342968 15.801432 -1.5011337
3.0347824 15.803961 -1.1253114
3.0434117 15.848899 -0.75260186
3.0436361 15.850068 -0.37471512
3.0565979 15.917567 0.75586271
3.0721352 15.790062 -1.5007622
3.0802186 15.831609 -0.75213605
3.0846448 15.854359 -0.37499362
3.0946431 15.905748 0
3.1276927 16.075615 2.3016448
3.1279137 15.811589 -1.5037348
3.1249392 15.796553 -1.126009
3.1338215 15.841454 -0.75306773
3.1383221 15.864203 -0.37545785
3.1434371 15.89006 0
3.1369233 15.857133 0.75381309
3.1214545 15.778938 1.1247534
3.170809 16.028425 1.5243567
3.1612735 15.980223 2.2893977
3.191473 16.132881 2.7019007
3.1800303 15.842535 -1.1299154
3.1843352 15.86398 -0.75455838
3.183789 15.861259 -0.37559712
3.1866152 15.87534 0
3.1843352 15.86398 0.75455838
3.2117305 16.00046 2.2935729
3.2408032 15.914853 -1.5152533
3.2389863 15.905931 -1.1350774
3.2377896 15.900055 -0.75670129
3.2284656 15.854266 -0.37564352
3.2317302 15.870298 0
3.2322087 15.872647 0.75539696
3.2884073 16.148626 2.316119
3.3007221 15.966678 -0.76033473
3.2835848 15.883779 -0.37657198
3.2759671 15.84693 0
3.2841401 15.886465 0.75651497
3.3012476 15.96922 1.9069623
3.3322947 16.119406 2.3133357
3.3449793 15.928174 -0.37787178
3.3265619 15.840474 0
3.3356791 15.883888 0.75688761
3.3882146 16.134052 2.3169539
3.3763416 15.870834 0
3.3739233 15.859468 0.75614226
3.3016977 15.519963 2.6068981
3.4261107 15.859787 0.37671125
3.4190948 15.82731 0.75511742
3.4302964 15.879163 1.5156249
3.3487763 15.501799 2.6056011
3.4807966 15.897717 0.7589373
3.4965737 15.969774 1.143169
3.4401245 15.711956 1.5005765
3.4614191 15.809214 1.8925595
3.4557505 15.783324 2.2707484
3.3996482 15.52709 2.6114376
3.562824 16.057619 0.76704282
3.5320778 15.919046 1.1402394
3.482259 15.694512 1.4998332
3.5102835 15.820818 1.8951148
3.4963779 15.758147 2.2685218
3.4553888 15.573408 2.6208403
3.5860474 15.925506 0.76126647
3.5424883 15.732061 1.504478
3.5678279 15.844595 1.8992964
3.5376043 15.710373 2.2632332
3.5264122 15.660668 2.6373768
3.6358793 15.951838 1.5264004
3.6154747 15.862316 1.9025486
3.5734377 15.677885 2.2598929
3.5704672 15.664853 2.6396465
3.5653815 15.642541 3.0227933
3.6434479 15.768973 0.75474477
3.6742244 15.902176 1.5226847
3.6871161 15.957972 1.9153253
3.6395538 15.75212 2.2721403
3.6227026 15.679188 2.6438615
3.6042538 15.599339 3.0164983
3.7309308 15.93192 1.5265862
3.7244883 15.904409 1.9102145
3.697118 15.787532 2.2788205
3.6705625 15.674133 2.6448343
3.658145 15.621107 3.0227933
3.7680058 15.865572 1.9069623
3.8611047 16.257574 2.348407
3.7152228 15.643324 2.6415918
3.6994786 15.577031 3.0164983
3.8620372 16.061869 2.3216858
3.752892 15.607944 2.6373768
3.7489338 15.591482 3.021312
3.9260838 16.129915 2.3330979
3.7861993 15.555215 2.6302435
3.7929287 15.582862 3.0216825
4.0099616 16.264341 2.3542523
3.8504429 15.617335 3.0305696
4.0240736 16.139673 1.5518528
4.0161157 16.107758 1.9413428
4.048213 16.236492 2.3517473
3.9260235 15.746417 3.0576017
4.0885243 16.18145 2.3456235
4.0445957 16.007589 2.7126007
4.093327 16.000399 2.3211293
4.1650653 15.910231 2.3113871
4.2193599 15.924603 2.315284
4.365818 16.293455 2.3706748
4.410511 16.26705 2.3687263
4.4529986 16.232882 2.3656645
4.497251 16.216568 2.365108
