# .PCD v0.7 - Point Cloud Data file format
VERSION 0.7
FIELDS x y z
SIZE 4 4 4
TYPE F F F
COUNT 1 1 1
WIDTH 1589
HEIGHT 1
VIEWPOINT 0 0 0 1 0 0 0
POINTS 1589
DATA ascii
6.0530214 2.4320731 -2.3743038
21.653236 8.70016 0.54178643
6.7319436 2.7048604 -2.4514558
7.5450673 3.0315695 -2.5372972
18.518373 7.440588 1.395548
8.5663452 3.4419136 -2.6472213
14.041269 5.6417103 1.4117718
9.9549627 3.9998529 -2.8085585
12.174612 4.8916969 1.5343509
11.898443 4.7807336 -3.0383103
12.224661 4.9118061 1.8515592
14.850553 5.966876 -3.4018514
12.186983 4.8966675 2.1578243
20.830481 8.3695803 -4.2296147
12.056584 4.8442736 2.4480813
23.552208 9.3820829 -4.1652007
23.839281 9.496439 -3.0008695
25.124489 10.008405 -2.5231309
4.2874465 1.7079154 -2.1845064
25.181395 10.031074 -1.8954229
4.6100674 1.8364322 -2.2093935
25.260025 10.062396 -1.268001
5.0165029 1.9983368 -2.2554951
25.15621 10.021041 -0.62868762
5.4968152 2.1896706 -2.3104703
30.909807 12.313002 0
6.0567193 2.41271 -2.3729358
21.647381 8.6232901 0.54099721
6.7328997 2.6820679 -2.448895
13.619255 5.4252653 0.68365842
7.5469351 3.006341 -2.5349143
18.570026 7.397418 1.3977802
8.5729485 3.4150562 -2.6461186
19.668919 7.8351645 1.9752544
9.9613953 3.9681478 -2.807039
12.1983 4.8592243 1.5355123
11.92704 4.7511673 -3.0419991
12.178464 4.8513227 1.8423737
14.844565 5.9133711 -3.3964455
12.120789 4.8283477 2.1435578
20.855223 8.3077316 -4.2296147
10.745315 4.2804241 2.1792402
23.61828 9.3225412 -4.1716852
23.668823 9.3424911 -3.5761924
23.735962 9.3689919 -2.984144
23.866619 9.4205647 -2.3938253
4.3096051 1.7010753 -2.193063
4.6141143 1.8212701 -2.20858
29.034134 11.460272 -1.455639
5.0227556 1.982568 -2.2554951
25.189426 9.9427004 -0.62873405
5.5002017 2.1710241 -2.3090155
31.071117 12.264304 0
6.0642691 2.3936713 -2.3729358
6.7483416 2.6636865 -2.4514558
13.558183 5.3516479 0.67974544
7.5563421 2.9826181 -2.5349143
18.639568 7.3573585 1.4012681
8.5836344 3.388108 -2.6461186
19.328537 7.6293054 1.9386549
9.9720125 3.9361248 -2.8065326
12.16177 4.8004594 1.5290079
11.934668 4.7108183 -3.0401547
12.134693 4.789772 1.8334666
14.846692 5.8602443 -3.3927033
12.112034 4.780828 2.1393425
19.96714 7.8813734 -4.0444627
23.635252 9.257802 -4.1703882
23.672913 9.2725525 -3.5731306
23.716013 9.2894354 -2.9785686
23.798491 9.3217411 -2.3845363
4.3073101 1.6871504 -2.18964
23.886339 9.3561516 -1.7938575
4.618866 1.809185 -2.20858
29.080776 11.390784 -1.4564775
5.0313649 1.9707587 -2.2570369
25.237707 9.8854752 -0.62929112
5.5041308 2.1559384 -2.3082879
31.33403 12.273372 0
6.0757642 2.3798442 -2.3749878
29.700293 11.633446 0.74056369
6.7482343 2.6432474 -2.448895
13.648414 5.3460107 0.68356526
7.5659018 2.9635231 -2.5355098
20.182081 7.9052129 1.5156686
8.5906849 3.3649251 -2.6455674
19.172291 7.5096841 1.9210054
9.9804811 3.909301 -2.8060262
11.919777 4.6689124 -3.0332382
12.130593 4.7514882 1.8309616
14.854696 5.8185048 -3.3910401
12.093267 4.7368679 2.1338303
19.976723 7.8247752 -4.0422406
10.562994 4.1374679 2.1373959
23.667898 9.1849356 -4.1710367
23.714849 9.2031565 -3.575079
23.745079 9.2148876 -2.9785686
23.810946 9.2404499 -2.382864
4.3142748 1.6742651 -2.190496
23.856092 9.2579699 -1.7893931
4.6177135 1.7920223 -2.2053263
23.977785 9.3051958 -1.1994302
5.0323701 1.9529405 -2.2547243
24.12413 9.361989 -0.60078824
5.5126133 2.1393113 -2.3090155
31.359379 12.169813 0
6.0762019 2.3580263 -2.3722517
22.105398 8.5785675 0.55051368
6.7600369 2.6234059 -2.4501753
13.558978 5.26191 0.67825472
7.5787339 2.9411225 -2.5367017
8.6030045 3.3386171 -2.6461186
18.984154 7.3672886 1.899826
9.992713 3.877929 -2.8060262
12.179955 4.7267447 1.5278463
11.936199 4.6321487 -3.033699
12.108531 4.6990266 1.8253945
14.863782 5.7682724 -3.3889608
11.892825 4.6153164 2.0958941
19.944403 7.7399383 -4.0307612
23.730047 9.1281271 -4.1771975
23.779024 9.146966 -3.5806458
23.82423 9.1643553 -2.9850731
23.866142 9.1804771 -2.3856509
4.3107877 1.6582106 -2.1862175
23.885324 9.1878567 -1.7895325
4.6281266 1.78028 -2.2077668
23.964272 9.2182245 -1.1973804
5.0381432 1.937999 -2.2547243
24.028641 9.2429848 -0.59772444
5.5189376 2.1229439 -2.3090155
24.143383 9.2871218 0
6.0796642 2.3386362 -2.3708835
6.7677922 2.6033349 -2.4501753
13.539104 5.208024 0.67648458
7.5874281 2.9186206 -2.5367017
19.030796 7.3204875 1.4258223
8.6074915 3.3110037 -2.644465
13.082609 5.0324259 1.3077328
10.000564 3.8468702 -2.8050129
12.171679 4.682023 1.5250589
11.957157 4.599504 -3.0355434
11.965301 4.6026363 1.8017352
14.879007 5.7234383 -3.388545
10.900754 4.1931424 1.9188585
19.980124 7.6856613 -4.0333533
10.854058 4.17518 2.1910901
28.975464 11.064646 -5.0957723
23.845713 9.1057854 -3.587326
23.891094 9.1231146 -2.9906483
23.918272 9.1334925 -2.3886235
4.3232713 1.6508955 -2.190496
23.926344 9.1365757 -1.7909278
4.6273432 1.7670091 -2.2053263
23.984863 9.1589212 -1.1972873
5.0463119 1.9269977 -2.2562659
24.030609 9.1763906 -0.5972138
5.5258489 2.1101148 -2.3097429
24.096874 9.2016945 0
6.0888729 2.3251126 -2.3722517
22.356966 8.5372887 0.55562007
6.7723641 2.5861123 -2.4495351
20.701899 7.9052801 1.0334069
7.590971 2.8987076 -2.5355098
19.033718 7.2682643 1.4247062
8.6155577 3.289959 -2.644465
18.915842 7.2232518 1.8890505
10.002706 3.8196588 -2.8029871
12.162671 4.6444688 1.5225035
11.959271 4.5667982 -3.0332382
11.895103 4.5422945 1.7894878
14.883812 5.6835704 -3.3864658
19.708742 7.5260315 -3.9748454
10.862393 4.1479411 2.1907198
29.275888 11.074115 -5.1424632
42.133663 15.937792 -6.3309846
42.120407 15.932778 -5.266273
31.123262 11.772916 -3.1044488
4.3199821 1.6341083 -2.1862175
24.005312 9.0804272 -1.7946945
4.6345797 1.7531104 -2.2061396
24.054625 9.0990801 -1.199337
5.0437102 1.9078711 -2.2524118
24.068668 9.104393 -0.59744591
5.5289655 2.0914273 -2.3082879
24.112566 9.1209984 0
6.0926313 2.3046439 -2.3708835
24.158434 9.1383486 0.59967411
6.7804546 2.5648251 -2.4495351
20.769608 7.8564658 1.0355496
7.5946822 2.8728206 -2.5337229
19.075115 7.2154946 1.4261013
8.6258497 3.2628779 -2.644465
19.050194 7.2060671 1.9001976
10.012845 3.787533 -2.8024807
19.703878 7.4533348 2.4635565
11.955356 4.5223217 -3.0286267
11.955625 4.5224233 1.7964466
14.894274 5.6340184 -3.3848026
10.960922 4.1461596 1.9253434
19.566839 7.4014978 -3.9415178
29.218065 10.953263 -5.1265755
42.212292 15.824535 -6.3357167
42.266075 15.844699 -5.278585
42.11092 15.786534 -4.1957436
4.3417382 1.62763 -2.1947742
30.197113 11.320288 -2.2550874
4.6448932 1.7412766 -2.20858
29.472872 11.048784 -1.4678439
5.0458922 1.891603 -2.25087
24.166718 9.0596142 -0.59920996
5.5334015 2.0743606 -2.3075604
24.160122 9.0571423 0
6.099442 2.2865577 -2.3708835
18.60433 6.9743872 0.46129137
6.7880344 2.544697 -2.4495351
13.562572 5.0843339 0.67545974
7.5960212 2.8475947 -2.5313396
19.137539 7.1742773 1.4291706
8.6336918 3.2365966 -2.6439135
19.086405 7.155108 1.9016838
10.020414 3.7564511 -2.8014674
19.487818 7.3055892 2.4338219
11.979654 4.4909306 -3.0313935
14.903597 5.5870576 -3.3831394
10.956544 4.1073871 1.9224253
10.718215 4.0180421 2.1566517
29.257786 10.875071 -5.1281967
42.440102 15.774916 -6.3632731
42.358566 15.744609 -5.2846246
42.095108 15.646683 -4.1897984
4.3310161 1.6098316 -2.1870732
30.198681 11.224799 -2.2528551
4.6480246 1.727663 -2.2077668
29.846302 11.093822 -1.4848934
5.0649929 1.8826495 -2.2570369
29.591434 10.999087 -0.73295051
5.5409184 2.0595503 -2.3082879
31.234137 11.609676 0
6.1216574 2.2754099 -2.3770399
24.255644 9.0157824 0.60078824
6.7933373 2.5250723 -2.448895
22.198397 8.2511072 1.1043999
7.6093125 2.8283687 -2.5331271
19.662432 7.3084931 1.4668392
8.6354876 3.2097964 -2.6417086
19.132442 7.1114974 1.904285
10.030865 3.7284558 -2.8014674
10.734411 3.9899631 1.3392177
11.964786 4.4472909 -3.0244768
14.909971 5.5420117 -3.3810604
11.058614 4.1104684 1.938313
19.568613 7.2736211 -3.9333715
10.812294 4.0189118 2.1733155
29.310326 10.789925 -5.1314392
42.634418 15.694883 -6.384984
42.5961 15.680778 -5.3080869
31.195047 11.483742 -3.1012905
4.3411407 1.5980915 -2.18964
29.887419 11.002368 -2.2270451
4.6551433 1.7136843 -2.20858
29.620403 10.904073 -1.4719433
5.0587597 1.8622664 -2.251641
29.524519 10.868774 -0.73044378
5.5473609 2.0421338 -2.3082879
31.28359 11.516336 0
6.1111388 2.2496758 -2.3701997
18.61161 6.851438 0.46045581
6.7976799 2.5024099 -2.4476144
18.858892 6.9424686 0.93716544
7.6181598 2.804451 -2.5331271
8.6527443 3.1853094 -2.6439135
19.263075 7.0912595 1.9150603
10.035265 3.694253 -2.7994416
19.709784 7.2557049 2.4561229
11.984176 4.4116993 -3.0258601
10.826343 3.9854701 1.6213667
14.921799 5.4931183 -3.3798127
11.086288 4.0811629 1.9409069
19.576611 7.2066803 -3.930409
10.725267 3.9482613 2.1533189
29.344053 10.709377 -5.1320877
29.857357 10.896711 -4.4668999
43.320839 15.810331 -5.3928771
31.299952 11.4232 -3.108536
4.3727579 1.5958775 -2.2033308
30.021114 10.956476 -2.2347186
4.6633444 1.7019296 -2.2102072
29.725811 10.848703 -1.47567
5.0674081 1.8493962 -2.2531826
29.729441 10.850027 -0.734761
5.5477929 2.0247171 -2.3061054
31.559874 11.518061 0
6.1244597 2.2351768 -2.3729358
18.779058 6.8535867 0.46412307
6.8135419 2.4866636 -2.4508154
7.6169949 2.779891 -2.5301483
19.066349 6.958436 1.4192652
8.6598015 3.1604726 -2.6433623
19.230427 7.0183177 1.9098583
10.041908 3.664885 -2.7984283
11.987309 4.374877 -3.0235543
14.926057 5.4473991 -3.3773179
11.082812 4.0447721 1.938313
19.585585 7.1479359 -3.9281871
10.758409 3.926378 2.1577625
29.34786 10.617996 -5.1275482
29.792686 10.778934 -4.4527044
43.495579 15.736612 -5.4091387
30.198828 10.925875 -2.9961367
4.3754973 1.583046 -2.2024751
30.224192 10.935051 -2.2475536
4.6612058 1.6864148 -2.206953
29.99082 10.850617 -1.4873158
5.0760231 1.8364949 -2.2547243
29.362898 10.623437 -0.72496599
5.5551767 2.0098517 -2.306833
6.1236081 2.2155089 -2.3701997
6.8151135 2.4656944 -2.448895
18.953733 6.8574224 0.93996048
7.6301126 2.7605593 -2.5319355
19.13073 6.9214592 1.4226135
8.6703997 3.1369328 -2.6439135
19.266802 6.9706903 1.9115304
10.043006 3.6335392 -2.7958961
10.886502 3.9387145 1.3538525
11.990329 4.3380766 -3.0212491
10.872644 3.9337008 1.6249852
14.935689 5.4037023 -3.3760703
11.105197 4.017838 1.9402585
19.598072 7.0905423 -3.9267058
10.882069 3.9371104 2.1803513
29.397816 10.537522 -5.1307902
29.757421 10.666422 -4.4426842
71.114677 25.490757 -8.8344231
30.197371 10.82412 -2.9927926
4.3257208 1.5505364 -2.1750939
30.248995 10.842624 -2.2469954
4.6679096 1.6731924 -2.2077668
29.691889 10.642932 -1.4709184
5.0814505 1.8214244 -2.2547243
29.39053 10.53491 -0.72487319
5.5628695 1.9939871 -2.3075604
20.167543 7.2289705 0
6.1283865 2.1966941 -2.3695157
18.968796 6.7992845 0.4678368
6.8224006 2.4454606 -2.448895
19.009731 6.8139572 0.94173068
7.6364732 2.7372615 -2.5313396
19.198137 6.8814907 1.4261013
8.6670017 3.1066501 -2.6400547
19.321144 6.9255819 1.9148744
10.050101 3.6024163 -2.7948828
11.999484 4.3011642 -3.0203266
14.940608 5.3553977 -3.3735752
11.174663 4.0055103 1.95031
19.607925 7.028378 -3.924484
10.96956 3.9319923 2.1955338
29.460606 10.467272 -5.1366267
29.742306 10.567359 -4.4360037
30.022242 10.66682 -3.7258825
30.270639 10.755075 -2.9970655
29.034603 10.315914 -2.1546381
4.6725645 1.6601492 -2.2077668
28.959068 10.289077 -1.4331858
5.0813007 1.805372 -2.2524118
29.286068 10.405259 -0.72157723
5.5649061 1.9771957 -2.3061054
20.330881 7.223506 0
6.1362681 2.1801991 -2.3701997
6.8292036 2.4263973 -2.448895
19.145403 6.8023086 0.94750696
7.6458874 2.7165627 -2.5319355
19.236082 6.834527 1.4274964
8.6810789 3.0843635 -2.6417086
19.329153 6.8675942 1.9137598
10.0583 3.5736861 -2.7943764
10.849112 3.8546596 1.346419
12.004115 4.265029 -3.0184822
10.924983 3.8816164 1.6294388
14.953665 5.3129959 -3.3731596
10.823174 3.8454437 1.8870829
19.605255 6.965693 -3.9200404
10.723071 3.8098776 2.1440616
29.47669 10.380378 -5.1343575
29.803453 10.495449 -4.4407353
29.935741 10.542035 -3.7114797
43.478634 15.311238 -4.3005252
28.903337 10.178469 -2.1427794
4.6892457 1.6513435 -2.2134609
29.138439 10.261261 -1.4406391
5.0845814 1.7905632 -2.251641
29.315008 10.323441 -0.72157723
5.5598621 1.9579358 -2.3017404
31.428181 11.067606 0
6.1423326 2.1630559 -2.3701997
18.891432 6.6527214 0.4650051
6.8305907 2.4054301 -2.4469743
19.175631 6.7528033 0.948066
7.6480417 2.6932998 -2.5301483
19.433867 6.8437428 1.4407502
8.6914721 3.0607493 -2.6422598
19.545473 6.8830457 1.9332671
10.06459 3.5443006 -2.7933636
11.781682 4.148984 1.4607112
12.025156 4.2347245 -3.0207877
10.917099 3.8445163 1.6266553
14.95368 5.2660203 -3.3698328
10.861793 3.8250399 1.8919467
19.619068 6.9089622 -3.9189293
10.718837 3.7746971 2.141099
27.845011 9.7075615 -4.84481
29.890512 10.420681 -4.4488077
29.985592 10.453829 -3.7135704
43.534039 15.177201 -4.3012686
28.905025 10.077113 -2.140547
4.6978602 1.6378075 -2.2150879
29.061115 10.13153 -1.4352355
5.0901814 1.7745817 -2.251641
29.522881 10.292515 -0.72589445
5.5730224 1.9429138 -2.3046505
29.87077 10.413798 0
6.1437731 2.1418939 -2.3681474
18.978317 6.6163807 0.46662983
6.8452702 2.3864555 -2.4495351
23.035721 8.0309057 1.1376605
7.6636758 2.6717751 -2.5325313
19.479761 6.7911978 1.4425639
8.6937819 3.0308993 -2.6400547
19.504948 6.7999787 1.9271362
10.068366 3.5101182 -2.7913375
10.77238 3.7555575 1.334107
12.018186 4.1898808 -3.0157156
10.949694 3.8173742 1.6297172
14.960913 5.2157989 -3.3677537
10.883072 3.7941477 1.8935677
19.607271 6.8356509 -3.9122641
10.595163 3.6937747 2.1140666
28.105007 9.7047815 -4.885016
29.992435 10.356519 -4.4593844
30.042761 10.373897 -3.7168224
30.30117 10.463126 -2.9907491
29.146013 10.064246 -2.1561725
4.7147875 1.6280367 -2.220782
29.13448 10.060263 -1.4373783
5.0989122 1.7606766 -2.2531826
29.608093 10.223804 -0.72724068
5.5752397 1.9251546 -2.3031955
29.748405 10.272255 0
6.1589832 2.1267238 -2.3715677
18.995977 6.5593934 0.46658343
6.8469467 2.3642807 -2.4476144
22.902708 7.9084048 1.1299276
7.6697631 2.6484027 -2.5319355
30.209641 10.43152 2.234858
8.6954679 3.0025828 -2.6378498
19.459156 6.7193313 1.9206338
10.076907 3.4796002 -2.7908309
10.815394 3.7346027 1.3380561
12.036081 4.1561117 -3.0170987
10.998412 3.7977998 1.6352841
14.972623 5.1701121 -3.3669221
10.752506 3.7128873 1.8689255
19.623749 6.776166 -3.9115236
10.444448 3.6065135 2.0818503
28.481342 9.7513418 -4.9459729
30.096273 10.304256 -4.4707971
30.116808 10.311287 -3.7226303
30.319044 10.380527 -2.98982
29.957489 10.25674 -2.21421
4.7121201 1.6133192 -2.2175283
29.427229 10.075191 -1.4505149
5.106997 1.7485157 -2.2547243
29.587471 10.130054 -0.72608012
5.5802612 1.9105502 -2.3031955
29.788446 10.198864 0
6.1574183 2.1081553 -2.3688314
19.028217 6.5148144 0.4669548
6.8566995 2.3475728 -2.448895
22.913885 7.8451753 1.1294619
7.6784787 2.6289306 -2.5325313
32.020596 10.963099 2.3666975
8.7069378 2.9810507 -2.6389523
24.241293 8.2996483 2.3904812
10.087813 3.4538302 -2.7913375
10.772514 3.6882555 1.3315517
12.039558 4.1220617 -3.0152545
10.819069 3.7041948 1.6071711
14.967602 5.1245551 -3.3627641
10.786464 3.6930315 1.8731407
19.624689 6.7190318 -3.9081907
10.64538 3.6447277 2.1199918
28.580992 9.6852579 -4.9579697
57.351433 19.434713 -8.5104361
30.239353 10.247228 -3.7337804
30.347731 10.283954 -2.9894485
30.076485 10.192036 -2.2206275
4.7154341 1.597922 -2.2167149
29.379261 9.9557676 -1.4466019
5.1107163 1.7318715 -2.2539535
29.632402 10.04155 -0.72640508
5.5844712 1.892413 -2.3024681
31.489124 10.670738 0
6.1657906 2.0894051 -2.3695157
19.037228 6.4511566 0.46667627
6.8604507 2.324805 -2.4476144
19.470125 6.5978527 0.95868707
7.6830821 2.6035705 -2.5313396
32.217381 10.917523 2.3786957
8.7180796 2.9543006 -2.6395035
11.480122 3.8902755 1.1308665
10.083954 3.4171555 -2.7872853
12.034016 4.0779738 -3.0106432
10.731236 3.6365004 1.5924187
14.976213 5.0749984 -3.3611007
10.689602 3.6223915 1.8543346
19.63825 6.6548257 -3.9067094
10.587903 3.587929 2.1062903
28.497545 9.5683355 -4.9388394
57.454304 19.290857 -8.5176725
30.387661 10.202961 -2.9905632
30.362057 10.194364 -2.2396014
4.721611 1.585328 -2.2175283
29.459982 9.8914833 -1.4492105
5.1172829 1.718179 -2.2547243
29.681181 9.9657526 -0.72691572
5.5985651 1.8797741 -2.3061054
31.475197 10.568112 0
6.1698198 2.0715787 -2.3688314
29.078421 9.7633705 0.71215367
6.8651209 2.305033 -2.4469743
19.571808 6.5714302 0.96278638
7.6812744 2.5790646 -2.5283611
30.426361 10.215955 2.2443447
8.7226515 2.9287174 -2.638401
10.08979 3.387748 -2.7862725
11.2424 3.7747483 1.3868394
12.032443 4.0400128 -3.0074153
10.799554 3.6260581 1.6010475
14.973639 5.0275488 -3.3573582
10.778255 3.6189065 1.8679527
19.643717 6.5955744 -3.9041173
10.547576 3.5414541 2.0962923
28.625277 9.5223618 -4.9563484
57.509827 19.130972 -8.517951
30.450047 10.129382 -2.9939075
30.48506 10.141029 -2.246577
4.717351 1.5692538 -2.2134609
29.351 9.7637777 -1.4425025
5.1255631 1.7050478 -2.2562659
29.680437 9.8733673 -0.72621942
5.5949535 1.8611933 -2.3024681
31.102259 10.346344 0
6.1755805 2.0543423 -2.3688314
23.336061 7.7628741 0.57098556
6.8769245 2.2876482 -2.448895
19.609037 6.5230584 0.96371806
7.690258 2.5582082 -2.5289569
30.460449 10.132843 2.2447631
8.7289715 2.9037423 -2.6378498
11.3335 3.7701538 1.1143317
10.106554 3.3620028 -2.7882984
11.207659 3.7282917 1.3812641
12.045525 4.0070128 -3.0078764
10.792725 3.5902615 1.5985425
14.987619 4.9857173 -3.3573582
10.771464 3.5831892 1.8650346
19.649004 6.5363536 -3.901525
10.542504 3.5070243 2.0933297
28.61381 9.4188175 -4.9492154
57.52449 18.935356 -8.5112705
30.60466 10.074146 -3.0059831
30.588781 10.068919 -2.2518785
4.7222571 1.554427 -2.2134609
29.518158 9.7165012 -1.4492105
5.1361523 1.6906689 -2.2585785
30.193707 9.9388723 -0.73801047
5.6060815 1.8453557 -2.3046505
30.889542 10.167921 0
6.1784334 2.033757 -2.3674634
23.375526 7.69453 0.57135695
6.880477 2.2648489 -2.4476144
19.648409 6.4676728 0.96464968
7.7000694 2.5346344 -2.5295525
29.861065 9.8293762 2.1983056
8.7362242 2.8757057 -2.6372983
10.102363 3.3253982 -2.7842464
11.266487 3.7085931 1.3870717
12.052507 3.9673276 -3.0064931
10.837811 3.567486 1.6035526
14.979051 4.9306588 -3.3519528
10.763921 3.5431633 1.8617921
19.660107 6.4715238 -3.8996735
10.583339 3.4837213 2.0992546
28.523672 9.3009338 -4.9291124
57.279644 18.677616 -8.4672918
30.671791 10.001388 -2.2559242
4.7387395 1.5451974 -2.2191553
29.868076 9.7393141 -1.4650489
5.1338363 1.6740297 -2.2554951
30.099684 9.8148365 -0.73503947
5.6076708 1.8285365 -2.3031955
30.664925 9.9991493 0
6.1823025 2.0159111 -2.3667796
6.8885765 2.2462115 -2.4482546
19.675892 6.4158702 0.96511549
7.7053032 2.5125277 -2.5289569
29.918749 9.7558374 2.2005377
8.7423925 2.8506994 -2.6367469
11.673738 3.8065462 1.1455435
10.117129 3.2989707 -2.7857661
25.507364 8.3173828 3.1374629
12.052439 3.9300318 -3.0037265
10.761115 3.5089602 1.5907487
14.976022 4.8833475 -3.3482101
19.666893 6.4129357 -3.8974519
28.543898 9.21943 -4.9281397
30.809717 9.9512691 -2.2640162
4.7412972 1.5313977 -2.2183418
29.980707 9.683507 -1.4692414
5.1384912 1.6596878 -2.2554951
5.6216197 1.815734 -2.306833
30.871628 9.9712658 0
6.1950612 2.0009508 -2.3695157
23.577961 7.6154757 0.57525635
6.8894134 2.2252204 -2.4463339
19.741261 6.376255 0.96744472
7.7141061 2.4915888 -2.5295525
29.101019 9.399375 2.1384544
8.7521496 2.8268678 -2.6372983
11.551676 3.7310905 1.1325386
10.120778 3.268923 -2.7842464
11.149034 3.6010404 1.3701137
12.050404 3.892175 -3.0004985
10.810451 3.4916811 1.5965939
14.967261 4.8342948 -3.3432202
20.430889 6.598999 3.5274186
19.673502 6.3543696 -3.8952298
11.928662 3.8528538 2.3618002
28.499691 9.1118641 -4.9158187
53.660572 17.15625 -3.9394271
4.7510405 1.518993 -2.220782
30.989313 9.9078407 -1.5172223
5.1451502 1.644997 -2.2562659
31.024158 9.9189816 -0.75620776
5.6216583 1.7973453 -2.3046505
31.07062 9.933836 0
6.1973901 1.9814171 -2.3681474
30.102385 9.6242743 0.73373967
6.8995943 2.2059245 -2.4476144
28.846609 9.2227802 1.4123164
7.7251005 2.4698536 -2.5307438
29.159184 9.3227158 2.1406868
8.7586651 2.8003027 -2.6367469
12.088099 3.8647826 1.1840007
10.12859 3.2382925 -2.7837398
12.061897 3.8564055 -3.0004985
11.758335 3.7593513 1.7349321
14.974084 4.7874842 -3.341557
12.134128 3.879499 2.0929761
19.673548 6.2899871 -3.8915272
11.969994 3.8270226 2.3677251
28.46106 9.0119791 -4.9047947
53.712082 17.007524 -3.9397063
4.7570066 1.5062702 -2.2215958
44.145466 13.978328 -2.1594217
5.147965 1.6300641 -2.2554951
31.135614 9.8588562 -0.75825036
5.6213274 1.7799507 -2.3024681
31.187857 9.8753986 0
6.2118583 1.9669379 -2.3715677
29.927092 9.4761868 0.72881901
6.9039221 2.1860747 -2.4469743
28.588467 9.0523214 1.3984346
7.7265086 2.4465404 -2.5289569
28.492758 9.0220156 2.0899038
8.7627869 2.7746701 -2.6356444
12.264011 3.8833063 1.200164
10.13206 3.2082403 -2.7822204
11.197995 3.5457604 1.3735982
12.063343 3.8197663 -2.998193
11.963267 3.7880781 1.7636017
14.966882 4.7391496 -3.336983
23.497728 7.4403782 4.0494466
19.676048 6.2302713 -3.8885646
12.715137 4.0261521 2.5128844
28.415779 8.8995228 -4.892149
53.96516 16.90132 -3.954355
4.7634583 1.4918649 -2.222409
32.427879 10.156071 -1.5846752
5.1565824 1.6149873 -2.2570369
32.326538 10.124331 -0.78647465
5.632225 1.7639536 -2.3046505
31.909632 9.9937601 0
6.2108326 1.9451673 -2.3688314
29.985334 9.3910913 0.72951537
6.9161801 2.1660748 -2.448895
29.01713 9.0878592 1.4179996
7.7359781 2.4228268 -2.5295525
20.45208 6.4053755 1.498648
8.7732944 2.7477036 -2.6361957
10.153167 3.1798649 -2.7852592
20.446665 6.4036798 2.5056028
12.062284 3.7777801 -2.9949651
11.797447 3.6948361 1.7374371
14.964894 4.6868472 -3.3332407
12.124919 3.7973969 2.0874639
19.693647 6.1678429 -3.8881943
12.652699 3.962692 2.4980721
28.395279 8.8061113 -4.8843675
53.812054 16.688513 -3.9397063
4.7553897 1.4747695 -2.2167149
5.164597 1.6016752 -2.2585785
32.293568 10.015072 -0.78498918
5.640687 1.7493231 -2.3061054
31.950788 9.9087667 0
6.21983 1.9289304 -2.3701997
30.133661 9.3452282 0.73248631
6.9185815 2.1456313 -2.4476144
28.710371 8.9038296 1.4017886
7.742713 2.4012158 -2.5295525
20.563259 6.3771992 1.5054842
8.7735882 2.720917 -2.6339908
10.149071 3.1474895 -2.7817137
20.301296 6.2959576 2.485625
12.067208 3.7423537 -2.9935818
11.826635 3.6677458 1.7402205
14.962974 4.6404057 -3.3299139
15.911082 4.9344387 2.7369187
19.69202 6.1070056 -3.8844912
12.631802 3.9174488 2.4917769
28.345444 8.6931419 -4.8710732
55.170811 16.920097 -4.0352726
4.7722263 1.4635736 -2.222409
32.185791 9.8709211 -1.5699549
5.1696029 1.5854431 -2.2585785
32.16621 9.8649158 -0.78113621
5.6425924 1.7305024 -2.3046505
32.058239 9.8318033 0
6.2204685 1.9077287 -2.3681474
31.21233 9.5723753 0.75797176
6.9216647 2.1227756 -2.4463339
28.782129 8.8270674 1.4039314
7.7465672 2.3757613 -2.5283611
8.7839298 2.6939056 -2.634542
20.403355 6.2574172 1.991046
10.153358 3.1138899 -2.7801943
20.32667 6.2338991 2.4863219
12.080767 3.7049983 -2.9940429
12.34366 3.785624 1.8145391
14.968126 4.5905099 -3.3278348
15.82839 4.854341 2.720058
19.68292 6.0364699 -3.8789365
12.691022 3.8921547 2.5010345
28.320904 8.6045389 -4.8629675
4.7690501 1.4489466 -2.2191553
31.87701 9.6849651 -1.5536506
5.1684403 1.5702904 -2.2562659
31.903055 9.6928787 -0.77412647
5.6488872 1.7162613 -2.305378
32.089619 9.7495604 0
6.2200484 1.8897932 -2.3660953
31.204769 9.4807224 0.7571826
6.9326386 2.1062944 -2.4482546
29.252449 8.8875637 1.4257325
7.7545896 2.3560216 -2.5289569
20.370577 6.1890473 1.4887427
8.7854357 2.6692166 -2.6328881
12.13329 3.6863713 1.1830719
10.154074 3.0850401 -2.7781682
20.513987 6.2326188 2.5072291
12.082979 3.6710856 -2.9921985
12.359217 3.755013 1.815374
14.965122 4.5467467 -3.3245082
19.674217 5.9774776 -3.8741229
12.612785 3.8320529 2.4836304
28.310394 8.509696 -4.8568068
4.7750773 1.4353193 -2.2199686
31.985956 9.6145163 -1.5575635
5.1660061 1.5528269 -2.2531826
32.136551 9.6597843 -0.77909362
5.6521697 1.6989607 -2.3046505
45.318947 13.622222 0
6.2328262 1.8734976 -2.3688314
31.19063 9.375453 0.75616139
6.933413 2.084084 -2.4463339
25.796545 7.7540693 1.2561688
7.7652011 2.3341074 -2.5301483
20.209244 6.0746069 1.4756285
8.7933159 2.6431437 -2.6328881
12.163243 3.6560953 1.1849296
10.163181 3.0549057 -2.7781682
26.190063 7.872355 3.1980934
12.082634 3.6318653 -2.9894316
12.370301 3.7183342 1.815374
14.963556 4.497829 -3.3211818
19.659863 5.909471 -3.8678277
12.63351 3.7974505 2.485482
28.297686 8.4144011 -4.8503218
4.7845693 1.4227059 -2.222409
31.937748 9.4967842 -1.5538369
5.1776667 1.5395947 -2.2562659
32.13633 9.5558338 -0.77839732
5.6571865 1.6821812 -2.3046505
44.090088 13.110318 0
6.2347555 1.8539232 -2.3674634
30.963411 9.2070627 0.74998724
6.9431992 2.0645809 -2.4476144
25.857738 7.6888752 1.2580321
7.773922 2.311599 -2.5307438
20.22909 6.0151801 1.4757679
8.7937489 2.6148474 -2.6306832
12.162585 3.616581 1.1838149
10.170346 3.0241828 -2.7776618
26.283758 7.8155541 3.2066886
12.095222 3.5965502 -2.9898927
12.402164 3.6878202 1.8184359
14.965586 4.4500618 -3.3186867
15.549634 4.6237302 2.6652615
19.673544 5.849987 -3.8670871
12.661677 3.7649875 2.4888146
28.307381 8.3259535 -4.8477283
73.891998 21.733603 -5.3858976
4.7957807 1.4105667 -2.2256629
5.1910639 1.5268301 -2.2601204
32.262363 9.4892197 -0.78076476
5.6675138 1.6669667 -2.306833
32.06192 9.4302635 0
6.243834 1.8364778 -2.3688314
30.758488 9.0468893 0.74437022
6.9492936 2.0439723 -2.4476144
25.824854 7.5957766 1.2553303
7.7770834 2.2874472 -2.5295525
26.046427 7.6609473 1.8984922
8.8106909 2.5914586 -2.6334395
12.161798 3.5771084 1.1827002
10.177419 2.9934494 -2.7771554
26.243942 7.7190418 3.1990228
12.107706 3.5611987 -2.9903538
12.397849 3.6465371 1.8162091
14.974969 4.4045367 -3.3178551
15.570857 4.5798035 2.6665583
19.65876 5.7821641 -3.8607917
12.693533 3.7335057 2.492888
28.296412 8.236948 -4.8418918
4.7979465 1.396659 -2.2248495
5.1953073 1.5123289 -2.2601204
32.204269 9.374507 -0.77872229
5.6739354 1.6516551 -2.3075604
31.634937 9.2087774 0
6.2471337 1.8185104 -2.3681474
31.194466 9.0805578 0.75430447
6.9549742 2.0245593 -2.4476144
25.87282 7.5314527 1.2566347
7.7907724 2.2678561 -2.5319355
26.046648 7.5820532 1.8969576
8.8160458 2.5663083 -2.6328881
20.519497 5.9731264 1.9938326
10.18388 2.964478 -2.776649
26.213896 7.6307383 3.1927505
12.104524 3.5235682 -2.9871261
12.371854 3.6013868 1.8109206
14.977818 4.3599706 -3.3157759
15.74086 4.5820885 2.6934705
19.646523 5.7190075 -3.855237
12.671827 3.6887076 2.4865928
28.239176 8.1294699 -4.827949
4.8161154 1.3864592 -2.2313573
5.1909046 1.4943532 -2.2562659
32.083988 9.236311 -0.77514774
5.6734405 1.6332651 -2.305378
31.439178 9.050684 0
6.259726 1.8020446 -2.3708835
30.835064 8.876771 0.74497372
6.9645929 2.004961 -2.448895
31.284098 9.0060387 1.5181539
7.7974677 2.2447283 -2.5319355
25.923319 7.4627824 1.8863546
8.8273182 2.5412006 -2.6339908
12.256832 3.5284863 1.1899458
10.188913 2.9331756 -2.775636
12.111185 3.4865577 -2.9862039
12.426259 3.5772607 1.8173225
14.98693 4.3144245 -3.3149445
15.885248 4.5730314 2.7158432
19.640739 5.6541595 -3.8507934
12.637388 3.6380403 2.4777055
28.227608 8.0408382 -4.822113
4.8392982 1.3785093 -2.2403057
5.1932836 1.4793445 -2.2554951
30.996267 8.8295116 -0.74826968
5.6797714 1.6179241 -2.3061054
31.137342 8.8696976 0
6.2647347 1.7845551 -2.3708835
31.390474 8.9418049 0.7577861
6.9738097 1.9865402 -2.4501753
31.270702 8.9076862 1.5162908
7.7981987 2.2213736 -2.5301483
8.8269844 2.5144308 -2.6317856
12.228335 3.48333 1.1862301
10.195204 2.9041777 -2.7751293
19.954796 5.6842685 2.4263883
12.111518 3.4500537 -2.9838982
15.620966 4.4497452 2.2827172
15.000802 4.2730875 -3.3153601
15.909346 4.5318928 2.7177885
19.641335 5.5949764 -3.8478312
12.658841 3.6059628 2.4799273
28.158768 7.9363012 -4.8065495
4.8431282 1.3649931 -2.2403057
5.1991696 1.4653403 -2.2562659
31.097776 8.7646351 -0.75012648
5.68606 1.602566 -2.306833
31.187006 8.7897835 0
6.2660751 1.7660382 -2.3695157
31.705914 8.9360332 0.76479572
6.9829764 1.9680905 -2.4514558
31.380054 8.8441925 1.52039
7.8080444 2.2006288 -2.5313396
19.752369 5.5670314 1.4350301
8.8413725 2.491863 -2.6339908
19.783989 5.5759435 1.9176613
10.205135 2.8762279 -2.775636
19.718208 5.5574036 2.3957245
12.117356 3.4151704 -2.982976
15.721018 4.4308305 2.2955215
14.995727 4.2264137 -3.3116176
15.933334 4.4906702 2.719734
19.634178 5.5337205 -3.8433876
15.468606 4.3596907 3.0279775
28.180294 7.85218 -4.8062253
5.2070498 1.4508967 -2.2578077
30.931038 8.6186504 -0.74548435
5.6907902 1.5856864 -2.306833
31.155155 8.681098 0
6.287581 1.7519767 -2.3756719
31.505013 8.7785826 0.75931799
6.9833097 1.9458352 -2.4495351
31.542805 8.789113 1.527005
7.8145404 2.1774499 -2.5313396
8.8505793 2.4661326 -2.634542
17.168573 4.7838655 1.6627659
10.213625 2.845933 -2.775636
15.970627 4.4500685 1.9387876
12.127438 3.379199 -2.982976
15.652059 4.3613024 2.2835524
15.002549 4.1803226 -3.3103702
21.035885 5.8614564 3.5877273
19.633472 5.4706869 -3.8400548
15.473903 4.3116612 3.0264964
28.060209 7.7238107 -4.7815828
5.2115822 1.4345322 -2.2578077
32.351738 8.9050894 -0.77904719
5.7029276 1.5697792 -2.3097429
30.997156 8.5322294 0
6.2948661 1.7327152 -2.3763559
36.28437 9.9875803 0.87374723
6.9930415 1.924894 -2.4508154
31.624191 8.7048264 1.5296136
7.8231826 2.1533973 -2.5319355
20.70933 5.7004185 1.5019964
8.8527212 2.4367867 -2.6328881
10.226246 2.8148608 -2.776649
12.139869 3.3416016 -2.9834371
15.763065 4.3389173 2.2977481
15.008062 4.1310964 -3.308707
19.644876 5.4074183 -3.8389437
15.481686 4.2614651 3.0253854
28.053108 7.6376357 -4.7767191
5.2155685 1.4199713 -2.2578077
31.3617 8.5384207 -0.75462943
5.7072897 1.5538456 -2.3097429
30.980339 8.4345932 0
6.2924275 1.713153 -2.3736198
36.354568 9.8977604 0.87476856
7.0093594 1.9083422 -2.4546571
31.798733 8.6574059 1.5368805
7.834693 2.1330445 -2.5337229
27.428221 7.4675059 1.9877806
8.8687677 2.414578 -2.6356444
16.956482 4.6165094 1.6395428
10.237801 2.7873056 -2.7776618
16.13092 4.3917451 1.9550487
12.149154 3.3076837 -2.9834371
15.790412 4.2990394 2.2999749
15.023317 4.0901928 -3.3095386
15.751786 4.2885232 2.682122
19.621973 5.342206 -3.8315375
15.730577 4.2827487 3.0716734
28.018471 7.5389886 -4.7669921
67.047745 18.040676 -4.8551903
5.2286687 1.4068888 -2.261662
31.425508 8.4557276 -0.75555784
5.7064772 1.5354538 -2.3075604
31.179045 8.389411 0
6.3047414 1.69643 -2.3763559
36.300747 9.767518 0.87277234
7.0149899 1.8875381 -2.4546571
31.835855 8.5661402 1.5374396
7.8446741 2.1107829 -2.5349143
23.845577 6.4161797 1.7267518
8.8814621 2.3897536 -2.6372983
17.164322 4.6184402 1.658307
10.247893 2.757422 -2.7781682
16.128532 4.3397379 1.9531902
12.158914 3.2716243 -2.9834371
15.783971 4.247026 2.2971914
15.041052 4.0471272 -3.310786
15.756817 4.2397194 2.6808252
19.611166 5.2768173 -3.8263533
15.748906 4.2375913 3.0727844
27.971369 7.4478292 -4.7556438
67.092827 17.864552 -4.8550506
5.2198515 1.3898699 -2.2562659
31.511299 8.3903933 -0.75708973
5.7212801 1.5233834 -2.3119254
31.028896 8.2619457 0
6.3055296 1.6789492 -2.3749878
31.750889 8.4541874 0.76284605
7.0180779 1.8686768 -2.4540167
33.418072 8.8981028 1.6127185
7.8501744 2.0902359 -2.5349143
23.773611 6.3301086 1.7203342
8.8932629 2.367975 -2.6389523
10.256947 2.7310781 -2.7786748
22.403437 5.9652777 2.7111897
12.180603 3.2432826 -2.986665
15.835227 4.2163854 2.3030367
15.053489 4.008235 -3.3112018
15.762143 4.1969256 2.6798522
19.598326 5.2183714 -3.8211691
15.792235 4.2049384 3.0790796
27.894091 7.3387108 -4.7387829
65.682983 17.280664 -4.7492995
5.2310901 1.3762578 -2.2593496
31.452904 8.2750063 -0.75509363
5.7203689 1.5049829 -2.3097429
31.399488 8.2609529 0
6.3304753 1.6654972 -2.3825123
32.019466 8.4240637 0.76869512
7.0235901 1.84785 -2.4540167
33.204739 8.7358999 1.6011657
7.8563399 2.0669398 -2.5349143
23.747906 6.2478828 1.7171254
8.9002476 2.3415835 -2.6389523
17.270733 4.5437908 1.6661099
10.27436 2.7031014 -2.7812073
17.274435 4.544765 2.0888543
12.186406 3.2061455 -2.9857428
16.171362 4.2545552 2.3500774
15.074772 3.9660511 -3.3132811
19.592812 5.1547112 -3.8170958
15.734313 4.1395712 3.0653784
27.919563 7.2569003 -4.7394314
31.646915 8.2257204 -1.5248621
5.236937 1.3611935 -2.2601204
31.632133 8.2218781 -0.75880736
5.7302184 1.4894081 -2.3119254
31.45677 8.1762972 0
6.3353896 1.6467052 -2.3825123
31.930145 8.2993374 0.76595628
7.0382113 1.8293839 -2.4572179
23.462069 6.0983009 1.1304867
7.8716779 2.0460198 -2.5378931
23.571312 6.1266952 1.7030345
8.9146004 2.3170979 -2.6411574
22.536066 5.8576126 2.1723711
10.284207 2.6730886 -2.7817137
12.216585 3.1753554 -2.9908152
16.103405 4.1856246 2.3383865
15.092154 3.9227781 -3.3145285
19.598511 5.0940781 -3.8152442
15.752232 4.0943465 3.0664892
27.893847 7.1671095 -4.7316499
66.361145 17.050985 -4.7911539
5.237143 1.3456436 -2.2585785
31.749863 8.1578836 -0.76108199
5.7415733 1.4752532 -2.3148353
31.415558 8.0719862 0
6.341784 1.6294727 -2.3831964
39.246277 10.084029 0.94077998
7.0487981 1.8111346 -2.4591386
7.8773618 2.0240276 -2.5378931
23.6521 6.0772252 1.7076385
8.9173117 2.2912347 -2.6400547
22.452045 5.7688804 2.1627102
10.293507 2.6448376 -2.7822204
12.221635 3.1402552 -2.9898927
16.076672 4.1307769 2.3328197
15.11063 3.8825605 -3.3161917
15.947261 4.0975261 2.7051432
19.601238 5.0363874 -3.8130226
27.812922 7.0532517 -4.7141409
66.360229 16.828703 -4.7872477
5.2485003 1.3309997 -2.261662
5.7461791 1.4572093 -2.3148353
31.219753 7.9172111 0
6.3505144 1.6104665 -2.3845644
36.327957 9.2126322 0.87012637
7.0507798 1.7880511 -2.4578583
23.435873 5.9432487 1.1275053
7.8929338 2.0016181 -2.5408719
22.847225 5.7939701 1.6482059
8.9337826 2.2655735 -2.6428111
22.43145 5.6885309 2.1589944
10.307391 2.6139154 -2.7837398
17.300726 4.3873987 2.0872283
12.23144 3.1018467 -2.9898927
16.056931 4.0719767 2.3280878
15.120856 3.8345919 -3.3157759
15.91223 4.0352812 2.6970372
19.618866 4.9752703 -3.8133926
16.517342 4.188735 3.2105374
27.813366 6.9707632 -4.7108984
5.2521963 1.3163389 -2.261662
5.762876 1.4443287 -2.3199275
31.232042 7.8275733 0
6.360456 1.594098 -2.3866165
39.260815 9.8397961 0.93971229
7.0557456 1.7683558 -2.4578583
23.351606 5.8525286 1.1226606
7.8984928 1.9795706 -2.5408719
22.888475 5.7364554 1.6500196
8.940074 2.2406185 -2.6428111
22.522581 5.644753 2.1662402
10.32028 2.5865345 -2.7852592
17.166468 4.3023696 2.0695732
12.255155 3.071465 -2.9935818
16.072081 4.0280871 2.3286445
15.137197 3.7937808 -3.3170233
15.915776 3.9889133 2.69574
19.64031 4.9223795 -3.8148739
19.958689 5.0021739 3.8767149
27.864582 6.8957863 -4.7160864
5.2578707 1.3011913 -2.2624328
5.7689447 1.4276694 -2.3206549
31.208536 7.7233315 0
6.3633337 1.5747658 -2.3859324
28.306231 7.0050836 0.6770125
7.0683188 1.7492319 -2.4604192
23.25445 5.7548943 1.1171638
7.9080386 1.9570416 -2.5420632
22.721411 5.6229801 1.6367658
8.9541492 2.2159276 -2.6450162
22.514103 5.5716767 2.1638248
10.331667 2.5568287 -2.7862725
17.368132 4.2981777 2.0923388
12.266106 3.0355539 -2.9940429
16.0359 3.9684837 2.3216858
15.16168 3.7521362 -3.3199341
15.952449 3.9478319 2.6999555
19.668184 4.867383 -3.817466
19.98489 4.9457598 3.8789365
27.882538 6.8228178 -4.7160864
40.362789 9.8767176 -5.839982
5.2540884 1.285668 -2.2593496
37.485645 9.1726847 -0.89598316
5.7654238 1.410791 -2.317745
53.961937 13.20441 0
6.3710856 1.5589956 -2.3873007
7.0728736 1.7307222 -2.4604192
23.21122 5.6797528 1.1143688
7.9261155 1.9395093 -2.5462334
22.95504 5.6170659 1.6525308
8.959919 2.1924796 -2.6450162
22.685287 5.5510578 2.1788735
10.34584 2.5316126 -2.7882984
17.458435 4.2720547 2.1018631
12.27968 3.0048203 -2.9954262
15.982747 3.9109557 2.3125005
15.179052 3.7142928 -3.3215976
15.86688 3.8826032 2.6837432
19.698042 4.8200831 -3.8207991
17.370853 4.2506232 3.3693979
27.921099 6.7393613 -4.7190046
40.35511 9.7405787 -5.834415
40.392849 9.7496872 -4.8592811
5.2688651 1.2717545 -2.2639744
37.504559 9.052536 -0.89575112
5.7752604 1.393984 -2.3199275
36.729221 8.8653917 0
6.3796053 1.5398557 -2.3886685
23.331505 5.6315632 0.55724484
7.0856433 1.7102731 -2.46298
23.122133 5.581027 1.1092446
7.9247456 1.9128088 -2.5438504
23.079241 5.5706739 1.6602041
8.9723682 2.1656752 -2.6466699
22.749073 5.4909806 2.1833322
10.359385 2.5004618 -2.789818
17.577974 4.2428246 2.1146398
12.313653 2.9721663 -3.0014207
16.085443 3.8825693 2.3255827
15.198254 3.668427 -3.3232608
15.974921 3.8558927 2.6999555
19.741745 4.7650971 -3.8263533
17.359285 4.1900387 3.3645842
27.943653 6.6622715 -4.7196527
40.233814 9.5924683 -5.8129826
40.305912 9.6096573 -4.8455753
66.813576 15.929564 -4.8030124
5.2741919 1.2574626 -2.2647455
37.490791 8.9384823 -0.89482266
5.7809434 1.3782812 -2.3206549
53.916779 12.854734 0
6.3875375 1.5229043 -2.3900368
23.236279 5.5399485 0.55459875
7.0940785 1.6913564 -2.4642606
23.122084 5.5127225 1.1084993
7.9337721 1.8915546 -2.545042
19.801287 4.7209845 1.4234506
8.9858627 2.1423919 -2.6488752
23.004513 5.4846916 2.2063694
10.377621 2.4742124 -2.7928569
17.585892 4.1927943 2.1141753
12.327583 2.9391186 -3.002804
19.764351 4.7121782 2.8555541
15.231275 3.6314111 -3.3282509
15.951072 3.8030236 2.6941187
19.777916 4.7154126 -3.830797
17.319298 4.1292334 3.3545856
28.022078 6.5880065 -4.7293801
40.326233 9.4807205 -4.8444133
70.043839 16.467346 -6.7129292
37.454998 8.8056917 -1.7943006
5.2745228 1.2400433 -2.2632036
47.416103 11.147553 -1.1308764
5.7961259 1.3626726 -2.3250198
37.143311 8.7324133 0
6.3941193 1.5032611 -2.3907208
23.263302 5.4692154 0.55483091
7.1067348 1.6707973 -2.4668214
23.351273 5.4898977 1.1186546
7.9508257 1.8692437 -2.5486166
19.837385 4.6637807 1.4249853
8.9869337 2.1128333 -2.6472213
10.389109 2.4424856 -2.79387
17.54483 4.1247997 2.1076705
12.351912 2.9039416 -3.0064931
19.755922 4.6446285 2.8522139
15.257841 3.5871272 -3.3315771
20.122259 4.7307549 3.396101
19.809853 4.6573076 -3.8341296
20.171457 4.742321 3.9041173
28.084583 6.5199847 -4.7368379
70.503769 16.367823 -8.4641342
65.414719 15.186374 -6.2651901
70.638336 16.399063 -5.0708771
37.49501 8.7046652 -1.7950459
5.2869539 1.2273943 -2.2670579
5.7926497 1.3447943 -2.3221099
6.4056153 1.4870976 -2.3934569
27.81654 6.457757 0.66299319
7.1113725 1.6509428 -2.4668214
23.417112 5.4364066 1.1210769
7.954155 1.8465992 -2.5480208
23.022032 5.3446865 1.6526704
9.0021629 2.0898998 -2.6499777
18.629507 4.3249388 1.7842684
10.414738 2.4178364 -2.7989352
17.573696 4.0798268 2.1097615
12.363766 2.8703136 -3.0074153
19.683928 4.5697279 2.8399663
15.286856 3.5489247 -3.3357356
15.990662 3.7123168 2.6970372
19.832354 4.6041856 -3.8359814
17.238199 4.0019393 3.3342192
28.061483 6.42694 -4.7297044
65.469193 14.994452 -6.2661185
65.126579 14.915984 -4.6720099
37.55183 8.6005211 -1.7965366
5.2941699 1.2125273 -2.2685995
37.494812 8.5874615 -0.8930586
5.8075104 1.3300979 -2.3264749
6.4118319 1.4685061 -2.394141
7.1143928 1.6294141 -2.4661813
23.382505 5.3553104 1.1186546
7.9670434 1.8246971 -2.5504036
9.0233164 2.0666161 -2.6543877
18.752901 4.2949891 1.7948581
10.419978 2.3864944 -2.7984283
17.65737 4.0440788 2.1183565
12.381713 2.8357918 -3.009721
19.703192 4.5126348 2.8408015
15.308761 3.5061755 -3.3382306
20.430037 4.6791048 3.4434402
19.888075 4.5549788 -3.8441281
28.166756 6.3734927 -4.7446194
65.438438 14.807223 -7.8459802
70.490097 15.950297 -6.7426548
60.882404 13.776296 -4.3649416
37.531349 8.492486 -1.794487
5.3009262 1.1994784 -2.2701414
37.567867 8.5007496 -0.89426559
5.8091555 1.3144791 -2.3257475
52.650928 11.913701 0
6.4193201 1.4525453 -2.395509
39.467319 8.9305515 0.93948019
7.1223297 1.6116204 -2.4674616
28.630297 6.4783812 1.3689008
7.9736547 1.8042558 -2.5509994
19.739544 4.4666071 1.4152193
9.0286951 2.0429873 -2.6543877
18.65143 4.2203922 1.7840827
10.428078 2.3596356 -2.7989352
17.706646 4.006609 2.1230028
12.398584 2.8055162 -3.0120265
19.738117 4.4662843 2.8441417
15.329334 3.468678 -3.3407254
20.176582 4.5654993 3.3986948
19.930601 4.5098395 -3.8500528
20.185558 4.5675302 3.8993034
28.230671 6.3051271 -4.7524014
59.99958 13.400496 -8.6401453
65.522186 14.633932 -7.8510904
62.083088 13.865833 -4.4482307
61.194187 13.667302 -2.924042
5.3114591 1.1862781 -2.2732246
37.525112 8.3809776 -0.89268726
5.8091674 1.2974377 -2.3242924
52.65472 11.760071 0
6.4270201 1.4354309 -2.3968771
39.519424 8.8263931 0.94013011
7.1268029 1.5917226 -2.4674616
28.755516 6.4223475 1.3740249
7.9823895 1.782812 -2.552191
19.592274 4.3758001 1.4037793
9.0399942 2.0190208 -2.6560419
18.684521 4.1730599 1.7861263
10.444068 2.3326111 -2.8014674
19.386984 4.3299499 2.323014
12.415868 2.772999 -3.0143321
22.95915 5.127769 3.3061965
15.354237 3.4292636 -3.3440521
20.208515 4.5134335 3.4019372
19.97381 4.4610138 -3.8559775
19.826111 4.4280262 3.8274643
28.300451 6.2274399 -4.7608314
59.991089 13.200881 -8.6329079
62.260059 13.700162 -7.4550171
62.343277 13.718473 -5.9554877
62.18285 13.683172 -4.4522767
61.480713 13.528668 -2.9356878
5.3115544 1.1687936 -2.271683
37.475094 8.2462959 -0.89087677
5.824131 1.2815847 -2.3286574
6.4296622 1.4148302 -2.3961933
45.077126 9.9191027 1.071596
7.1373196 1.5705483 -2.4693823
28.83213 6.3444343 1.3767267
7.9935441 1.7589583 -2.5539782
19.607874 4.314661 1.4039189
9.0519247 1.9918522 -2.6576955
10.458902 2.3014538 -2.8034935
19.185146 4.2216411 2.2972288
12.437821 2.7369099 -3.0175598
19.669497 4.3282208 2.8305027
15.38786 3.3860581 -3.3490419
23.030857 5.0678797 3.8743563
20.00692 4.4024701 -3.8596807
19.74011 4.3437591 3.8082085
28.355446 6.1513977 -4.7669921
60.002892 13.016958 -8.6290112
62.306252 13.516646 -7.4557137
61.953621 13.440147 -5.9144301
62.254368 13.505391 -4.4545088
61.264809 13.290717 -2.9234829
5.3186064 1.1538123 -2.2732246
37.481815 8.1312618 -0.890459
5.8315492 1.2650895 -2.3301122
6.4301581 1.3949511 -2.394825
53.610207 11.630136 1.2736229
7.1530581 1.5517762 -2.4732237
28.782492 6.244041 1.3734659
8.0024586 1.7360442 -2.5551696
19.597189 4.2513914 1.4022447
9.0671892 1.9670255 -2.6604519
19.260405 4.1783299 1.8387032
10.47703 2.2728746 -2.8065326
19.25 4.1760731 2.3035007
12.455397 2.7020595 -3.0198655
15.411222 3.3432925 -3.3519528
20.021816 4.3435097 -3.8600512
19.59733 4.2514224 3.7782137
28.410246 6.0750713 -4.7731528
64.883141 13.874209 -9.3248777
67.882355 14.515542 -8.1177731
61.919575 13.240499 -4.4277225
61.460274 13.142285 -2.9309363
5.3346395 1.1407263 -2.2786205
37.374775 7.991991 -0.88734877
5.8371 1.2481693 -2.3308399
53.860386 11.517172 0
6.4342694 1.3758644 -2.394825
53.533035 11.447173 1.2709768
7.1557784 1.5301474 -2.4725835
29.256098 6.2559433 1.3951738
8.013176 1.713488 -2.556957
18.997097 4.062222 1.3584375
9.0729856 1.9401113 -2.6604519
19.16172 4.097424 1.8281134
10.487513 2.2425849 -2.8075454
19.295334 4.1259947 2.3074498
12.467166 2.6659017 -3.0207877
19.599934 4.1911287 2.8168638
15.44403 3.3024559 -3.3569422
19.939857 4.2638159 3.3500588
20.061523 4.2898321 -3.8652356
19.606016 4.1924295 3.7774732
28.437635 6.0031228 -4.7750978
57.005135 12.033659 -8.1881113
68.027016 14.360353 -8.1305494
61.574612 12.998266 -2.9347563
5.3231621 1.1237079 -2.2724538
37.348614 7.8842106 -0.88623464
5.8367009 1.2321148 -2.3293848
6.4415264 1.3597922 -2.3961933
7.1653209 1.5125836 -2.4745042
29.18441 6.1607652 1.3909812
8.0195017 1.6928993 -2.5575528
19.263391 4.0664601 1.3767138
9.0855579 1.9179415 -2.662657
19.238628 4.0612321 1.8344301
10.504704 2.2175202 -2.8105845
19.582062 4.1337304 2.3404367
12.485527 2.6356673 -3.0235543
19.63409 4.1447139 2.820204
15.46985 3.2656515 -3.3606851
19.71537 4.1618714 3.3105011
20.099606 4.2429829 -3.8704197
19.395775 4.0944057 3.7348883
28.523983 5.927814 -4.7864466
57.067867 11.859764 -8.1917295
62.805531 13.052157 -5.9846563
61.609272 12.803552 -2.9344766
5.339314 1.1096087 -2.2778497
37.594406 7.8128166 -0.89148027
5.8496633 1.2156688 -2.3330221
51.513367 10.705435 0
6.4494462 1.3403149 -2.3975611
48.780331 10.13746 1.1567333
7.1737475 1.4908381 -2.4757848
29.884321 6.2105174 1.4234034
8.0341272 1.669641 -2.5605316
19.367884 4.0250063 1.383271
9.0915384 1.8893907 -2.662657
19.202549 3.9906466 1.8297856
10.519197 2.1860847 -2.8126106
19.760269 4.1065512 2.3601823
12.514705 2.6007881 -3.0286267
19.833168 4.1217008 2.8469253
15.506848 3.2226112 -3.3665066
19.85008 4.125216 3.3309286
20.122459 4.1818213 -3.8722713
19.924253 4.1406302 3.8341296
28.59354 5.8642111 -4.7955251
52.068455 10.67865 -3.7167645
52.454029 10.757727 -2.4970584
5.3494325 1.097108 -2.2809331
37.724426 7.7368522 -0.89407986
5.8382258 1.197354 -2.3272023
51.582363 10.578959 0
6.4602976 1.3249339 -2.4002972
48.687229 9.985199 1.1539015
7.1646338 1.4693851 -2.471303
29.344664 6.0182581 1.3969439
8.047822 1.6505171 -2.5635102
19.497576 3.9987321 1.3917812
9.1058702 1.8675108 -2.6654134
19.248045 3.947556 1.8331296
10.532466 2.1600893 -2.8146365
19.414841 3.9817638 2.3176711
12.534817 2.5707488 -3.0318546
15.528647 3.1847496 -3.3694172
19.990343 4.099793 3.3526523
20.179546 4.1385965 -3.8811586
19.549959 4.0094752 3.7600689
28.685335 5.7891946 -4.8078465
51.359581 10.365248 -7.3636494
62.278454 12.568864 -5.9274349
63.012589 12.717025 -4.4951072
61.302078 12.371815 -2.9164023
5.3419986 1.0781072 -2.2763081
52.616688 10.618954 -1.2462341
5.8583941 1.1823249 -2.3337495
6.4552174 1.3027741 -2.3968771
36.11787 7.2892084 0.85545713
7.1859303 1.4502444 -2.4770653
28.766132 5.805501 1.3685281
8.052968 1.6252276 -2.5635102
19.347719 3.9047029 1.3802016
9.1173458 1.8400375 -2.6670673
23.580122 4.7588749 2.2442694
10.546786 2.1285231 -2.8166625
19.283163 3.8916745 2.3004808
12.558092 2.5344393 -3.0355434
20.064308 4.0493231 2.876708
15.546246 3.1375 -3.3710804
20.020538 4.0404892 3.3555708
20.209787 4.0786834 -3.8844912
18.628069 3.7594652 3.5804715
28.794359 5.7171178 -4.8230858
51.267563 10.179171 -7.3458352
71.66127 14.22834 -8.5438137
62.118404 12.333605 -5.9084849
52.212799 10.366847 -3.7223451
5.3507891 1.0623988 -2.2786205
5.8620791 1.1639154 -2.3337495
51.235855 10.172875 0
6.4758682 1.2857832 -2.4030335
36.40731 7.2286692 0.86177045
7.1867337 1.4269254 -2.4757848
28.827337 5.7236657 1.3705777
8.059907 1.6002939 -2.564106
9.1306238 1.8128847 -2.6692722
23.735584 4.7126985 2.2576458
10.564808 2.0976417 -2.8197017
19.262169 3.8245022 2.2965317
12.571718 2.4961138 -3.036927
23.060787 4.5787172 3.3042479
15.567536 3.0909333 -3.3735752
20.085396 3.9879537 3.3643253
20.262985 4.0232143 -3.8922677
18.703405 3.7135596 3.5926917
28.82666 5.6451192 -4.826004
51.181309 10.022826 -7.3296914
61.847572 12.111599 -5.8796883
52.186897 10.21975 -3.7185781
51.46154 10.077703 -2.4454439
5.3752851 1.0526412 -2.2878706
5.8833895 1.152143 -2.3410244
36.989414 7.2436299 0
6.4995008 1.2727959 -2.410558
39.473392 7.7300668 0.93386316
7.196023 1.4091959 -2.4777055
29.269632 5.7318668 1.3908881
8.0696898 1.5802859 -2.5658932
36.799454 7.20643 2.6221457
9.1428862 1.7904496 -2.6714773
23.562191 4.6141791 2.2399962
10.583554 2.0725753 -2.8232472
19.332548 3.7858894 2.3037331
12.593489 2.4661806 -3.0406158
19.554749 3.8294027 2.8004415
15.600535 3.0550499 -3.3789811
19.989246 3.9144902 3.3464918
20.302382 3.9758117 -3.8978224
28.904318 5.5765667 -4.8363795
51.127415 9.8641119 -7.3180003
51.865574 10.006526 -6.1771269
51.68042 9.9708042 -3.680491
51.613064 9.9578085 -2.4513133
5.3655195 1.0351802 -2.2824748
36.408585 7.0243793 -0.86088842
5.8792667 1.1342983 -2.3381145
36.854355 7.1103826 0
6.4956479 1.2532181 -2.4078219
49.491726 9.5485344 1.170242
7.2055111 1.3901733 -2.4796262
35.872757 6.9210005 1.7037424
8.0834436 1.5595546 -2.568872
36.819431 7.1036448 2.6221457
9.14785 1.7649125 -2.6714773
23.451799 4.524601 2.228292
10.5912 2.043381 -2.8237536
19.294283 3.7224834 2.2979255
12.609881 2.4328489 -3.0429215
19.557583 3.7732825 2.7993279
15.628214 3.0151818 -3.3831394
19.767563 3.8137944 3.3075829
20.361649 3.9284124 -3.9070797
18.636381 3.5955532 3.5760279
28.919758 5.4853716 -4.8360553
51.049187 9.6827831 -7.302413
51.828449 9.8305902 -6.1689963
51.545151 9.7768555 -4.8946624
62.272934 11.811655 -4.4321866
51.565578 9.7807312 -2.4475868
5.3868766 1.0217589 -2.2901833
36.04348 6.8365674 -0.8517434
5.9011045 1.1192954 -2.3453894
36.300777 6.8853707 0
6.5143242 1.2356082 -2.4132941
49.179668 9.3281813 1.1621646
7.2079816 1.367178 -2.478986
38.059326 7.2189245 1.8065054
8.0901794 1.5345093 -2.5694678
33.152512 6.2882214 2.3595824
9.1627932 1.7379582 -2.6742339
