# .PCD v0.7 - Point Cloud Data file format
VERSION 0.7
FIELDS x y z
SIZE 4 4 4
TYPE F F F
COUNT 1 1 1
WIDTH 155
HEIGHT 1
VIEWPOINT 0 0 0 1 0 0 0
POINTS 155
DATA ascii
5.9929519 11.983311 -1.8830122
5.9918337 11.981074 -1.2497681
6.3298521 12.563651 -1.6451585
5.6958632 11.305294 -0.88520962
5.9854331 11.803043 -1.8599094
6.2908449 12.405304 -1.6265745
5.9275661 11.688931 -0.91646057
5.9879947 11.721736 -1.849889
6.3990197 12.526333 -1.6449263
5.6166601 10.994834 -1.1518601
6.0218339 11.702161 -1.8496107
6.4897766 12.611508 -1.658632
5.6811414 11.040096 -1.1583625
5.9758244 11.612751 -0.91325176
6.2181325 11.990864 -1.8983212
6.5430913 12.617505 -1.6621165
5.7222223 11.034565 -1.159663
5.8919668 11.361896 -0.8949756
6.6031222 12.646729 -1.6683887
5.7944875 11.097979 -1.1680232
5.9227471 11.343631 -0.89483607
6.3057756 12.077231 0.31631672
6.0079865 11.429 -1.2046227
6.2931595 11.890735 0.62738562
6.1591153 11.637463 1.2284031
6.1279101 11.500711 -1.2157698
6.3554611 11.927774 0.63027382
6.1574206 11.469121 -1.2144692
6.3106909 11.75461 0.6221683
6.6514592 12.301625 -1.635402
6.2065754 11.47883 -1.2174418
6.5085869 12.037389 0.31770939
6.4082518 11.851823 0.62831736
6.2937121 11.639986 1.2345339
6.2653699 11.505833 -1.2222723
6.5463071 12.021749 1.2770785
6.3108749 11.512739 -1.2248732
6.3659973 11.613297 -0.92608696
6.7651262 12.341416 0
6.6143103 12.066287 1.2837666
6.3612776 11.528199 -1.2284031
6.4022555 11.602462 -0.92664498
6.8246841 12.368006 0
6.548883 11.868187 1.2646309
6.5973897 11.877551 0.9500832
6.610045 11.900334 1.2700187
6.4635983 11.636681 1.5566517
6.8303986 12.211541 0
6.5801973 11.764225 1.2575712
6.4893727 11.601847 1.554561
6.5936594 11.701859 1.2531123
6.9323387 12.222987 0
6.9008784 12.167517 0.32476547
6.9953518 12.249258 0
6.7598672 11.76053 -0.9485485
7.0454755 12.25742 0
6.6942468 11.646367 0.93934065
6.6756239 11.613968 1.2497681
6.7947903 11.735778 -0.94826955
7.060008 12.193855 -0.32713297
6.8230071 11.784514 0.63502532
6.7729506 11.698057 1.261101
6.8043642 11.686386 -0.94561875
7.0544505 12.115905 0
6.8634095 11.787794 0.31668812
6.8809266 11.817881 0.63772714
6.7964969 11.672873 1.2601721
6.6084847 11.268408 -1.2187424
6.8289309 11.6443 -0.94394457
7.0382872 12.001282 -0.64881402
7.1350718 12.166314 -0.32745793
7.1582417 12.205822 0
6.9985204 11.933475 0.32119098
6.9008365 11.766909 0.63614339
6.6418357 11.244157 -1.2183707
6.8472228 11.591863 -0.94143337
7.1783524 12.152441 -0.32769004
7.1874065 12.167769 0
6.9570827 11.777848 0.63791347
6.6540289 11.202217 -1.2155839
6.8469901 11.527072 -0.937527
7.3276258 12.336234 -0.66912436
7.2253757 12.164093 -0.3284792
7.2120023 12.141579 0
7.0732303 11.907952 0.32156238
6.9103327 11.633711 0.63101918
6.8726773 11.570317 1.2555275
6.8821893 11.508416 -0.93766648
7.2808466 12.175052 0
6.9202671 11.57209 1.2579427
6.9705653 11.656199 1.5882448
6.7337408 11.184712 -1.2179991
6.903954 11.467436 -0.93599236
7.0565329 11.720868 -0.63800669
7.3241572 12.165391 0
7.0592041 11.725306 0.31775582
7.0230346 11.665228 1.9136304
6.7659831 11.167565 -1.2181849
6.8542809 11.313305 -0.92497081
7.0706048 11.670358 -0.63632965
7.0960674 11.712384 0.31794149
7.0157375 11.579797 0.63139182
7.0473752 11.632016 1.9114034
6.8855209 11.280297 -0.92413378
7.0957327 11.62468 0.63511848
6.8340764 11.126025 -1.2181849
6.9587674 11.329025 -0.92971432
7.1229429 11.596306 -0.63465267
7.0478125 11.473992 1.892476
6.9884014 11.310769 -0.92971432
7.0640168 11.433154 -0.62673348
7.20368 11.6592 0.63912463
7.0601287 11.426861 1.8877442
7.0354924 11.307394 -0.9312489
7.5408931 12.11967 -0.33140376
7.5344729 12.109351 0
7.1158695 11.436575 1.8930327
7.074595 11.304159 -0.93250459
7.3046246 11.671712 -0.642106
7.5725131 12.099758 0
7.1342263 11.399441 1.8899709
7.1059804 11.279739 -0.93222553
7.3179288 11.616177 -0.6402427
7.5264025 11.9471 -0.3278293
7.6563563 12.153383 0
7.1764665 11.391626 1.8921976
7.5778193 11.945347 -0.32843277
7.6880684 12.119139 0
7.1697788 11.30213 1.8810638
7.6326013 11.953141 -0.32926837
7.7326074 12.109757 0
7.1968894 11.270789 1.8793937
7.5485697 11.753596 -0.65142268
7.6833153 11.963403 -0.33010396
7.7653632 12.091156 0
7.5769062 11.721078 -0.65086371
7.7198668 11.94223 -0.33015037
7.8098936 12.081497 0
7.2317715 11.187173 1.8721567
5.9026618 12.032876 -1.5673376
5.9467969 12.037718 -1.5701252
5.9505157 11.955789 -1.8768886
5.5374236 11.125804 -0.86902612
6.3676867 12.710445 -1.9979693
5.5611691 11.100568 -0.8681891
6.2052612 12.294992 -1.6105458
5.9343162 11.758147 -1.2287747
5.63903 11.173073 -0.87516469
6.3254385 12.441207 -1.6321497
5.9809074 11.763565 -1.2311898
6.0112376 11.82322 1.5510765
6.0442286 11.806388 -1.5510765
6.0119171 11.743273 -1.2308183
5.7069216 11.147515 -0.87572277
5.9835777 11.687917 1.5355123
