# .PCD v0.7 - Point Cloud Data file format
VERSION 0.7
FIELDS x y z
SIZE 4 4 4
TYPE F F F
COUNT 1 1 1
WIDTH 141
HEIGHT 1
VIEWPOINT 0 0 0 1 0 0 0
POINTS 141
DATA ascii
-8.1976347 2.8210709 1.6334119
-8.1590281 2.8364842 1.6274869
-8.1510754 2.8592582 1.6274869
-8.5256977 3.0174317 0.63241214
-8.1597357 2.8879097 1.6308198
-8.0542183 2.8790698 1.4052607
-8.1931887 2.9287462 1.6393367
-7.8976736 2.8480091 0.58707047
-8.085041 2.9155765 0.80184323
-8.1942225 2.9549489 1.6411883
-7.861567 2.8598208 0.58497781
-8.0581551 2.931334 0.79998541
-8.0215702 2.9180253 0.99819922
-8.3291922 3.0299299 1.4561666
-8.1637754 2.9697559 1.6367446
-8.6237774 3.1643894 0.4283812
-7.8835173 2.8927598 0.58721
-8.0301723 2.9465733 1.0002899
-8.3688698 3.0708539 1.4645969
-8.1794357 3.0013435 1.6415585
-7.9791579 2.956332 0.59502274
-8.0387506 2.9784114 0.79979968
-7.9892087 2.9600558 0.99634069
-8.0173731 2.9704909 1.2016207
-8.6127138 3.1910686 1.5090179
-8.1570654 3.0222478 1.6389664
-8.0904818 3.0232954 0.60395151
-8.0285368 3.0001478 0.79961389
-8.0013819 2.99 0.99889606
-8.0238886 2.9984105 1.2038474
-8.4262953 3.1487842 1.4778907
-8.0933628 3.0243723 1.6278574
-8.1294765 3.0670102 0.60757887
-8.0023031 3.0190313 0.79794174
-7.9736605 3.0082254 1.1977237
-8.0249023 3.0275574 1.4091517
-8.0525589 3.0379915 1.6215621
-7.9261374 3.012439 0.59293002
-8.0526066 3.0605056 0.8037011
-7.986414 3.0353482 0.99912834
-7.9644361 3.0269952 1.1974454
-7.9918342 3.0374081 1.6108234
-7.9240847 3.0401838 0.5934881
-8.0299377 3.0807958 0.80240059
-7.9363961 3.0449073 1.194662
-8.1110535 3.111917 1.4273092
-8.0354662 3.082917 1.6215621
-7.9275184 3.0701075 0.59446466
-8.0517883 3.1182337 0.80555898
-7.9393988 3.0747082 0.99564385
-7.96137 3.0832171 1.4026668
-8.1008854 3.1372478 1.6367446
-7.8716664 3.0706179 0.5908373
-8.1628771 3.1842146 0.81744909
-7.9411159 3.0977089 0.99680537
-7.9377174 3.0963833 1.1974454
-7.9207172 3.089752 1.3968304
-8.2762995 3.2284591 1.673775
-7.908392 3.1136031 0.59432518
-8.0713053 3.1777437 0.80927467
-8.0237627 3.1590257 1.0084203
-7.9187374 3.117676 1.1960537
-7.9330082 3.1232946 1.4007213
-7.9751434 3.1672447 0.6000452
-7.9341407 3.1509609 0.7964555
-7.9829707 3.1703532 1.0044713
-7.9352221 3.1513903 1.1999506
-7.9163699 3.1439033 1.3994243
-7.9964614 3.1999757 0.6022774
-8.0220022 3.2101965 0.80611628
-7.9396 3.1772213 1.0000576
-7.8975229 3.160383 1.195497
-7.928266 3.1726859 1.4029911
-8.1182547 3.2487144 1.6474835
-8.3707905 3.3820195 0.42102104
-7.9932041 3.2294648 0.60283542
-7.8931456 3.1890383 0.79422611
-8.0432129 3.2496696 1.0144602
-7.892508 3.1887808 1.1963321
-7.8994031 3.1915665 1.3997487
-8.4737206 3.4236057 1.7219145
-8.2262449 3.3503699 0.41421986
-7.9490476 3.2374735 0.60018468
-8.0926104 3.2959435 0.81521964
-7.9513192 3.2383988 1.0040066
-7.8450546 3.1951194 1.1904869
-7.9617434 3.2426443 1.4123942
-8.2493391 3.3597755 1.6782186
-7.8833265 3.2347951 0.59585983
-7.9667044 3.2690077 1.0070266
-7.8329973 3.2141433 1.1899301
-7.991569 3.2792106 1.4192032
-8.2623348 3.3903148 1.6826624
-8.0148401 3.3182149 0.4045305
-7.9468608 3.2900708 0.60144031
-8.2170067 3.4019134 0.82971084
-7.8756399 3.2605846 0.99680537
-7.9684639 3.2990146 1.4169334
-8.1063671 3.356108 1.653038
-7.9618726 3.3207321 0.40229452
-7.8498321 3.2740023 0.59474367
-7.9636307 3.3214653 0.80500156
-7.8835759 3.2880762 0.99889606
-7.9816566 3.3289835 1.4208244
-8.4112654 3.5392246 0.21186815
-8.1778994 3.4410312 0.41375402
-7.8505425 3.3032885 0.59558076
-7.9917021 3.3626845 0.80890304
-7.9134889 3.3297744 1.0040066
-8.0457411 3.3854227 1.4341183
-8.0941496 3.4057913 1.6545193
-8.0321512 3.4061375 0.40685967
-7.9863939 3.3867333 0.60660225
-7.9786139 3.3834341 0.80853146
-7.9261055 3.3611674 1.0067943
-8.6630936 3.6736968 1.5459813
-8.4700193 3.5918207 1.733394
-8.351511 3.5725605 0.2108933
-7.9903908 3.4180827 0.60771841
-7.936821 3.3951669 0.80537313
-8.520133 3.6446927 1.7459843
-7.9942412 3.4445171 0.60869503
-7.8840132 3.3970227 0.80091435
-7.9157376 3.410692 1.0079558
-8.1573973 3.5723598 0.83082551
-8.4706478 3.7095416 1.7422814
-8.5112581 3.7539127 1.7526499
-8.4581203 3.7622592 1.7441328
-8.4935493 3.8082461 1.7537607
-8.4999514 3.8396614 1.5323633
-8.4613876 3.8222413 1.7493172
-8.5010958 3.8705873 1.5346329
-8.5000944 3.8701317 1.7596856
-8.4687271 3.8844388 1.530742
-8.4767485 3.888118 1.7570935
-8.4499989 3.9062366 1.5294451
-8.5472403 3.9511893 1.7741276
-8.5224504 3.9704633 1.5446844
-8.4962835 3.9582722 1.7659807
-8.4418049 3.9634156 1.7570935
-8.4548807 4.0002141 1.7622778
