# .PCD v0.7 - Point Cloud Data file format
VERSION 0.7
FIELDS x y z
SIZE 4 4 4
TYPE F F F
COUNT 1 1 1
WIDTH 91
HEIGHT 1
VIEWPOINT 0 0 0 1 0 0 0
POINTS 91
DATA ascii
22.305763 -12.68689 1.7944155
22.216572 -12.718403 1.7900906
22.117744 -12.754249 1.7853472
22.109909 -12.914812 1.7905092
22.125973 -13.017594 1.7951131
22.154198 -13.107175 1.799996
22.172897 -13.212455 1.804879
22.191769 -13.313082 1.8096224
22.222826 -13.416247 1.815203
22.256887 -13.521761 1.8210624
22.26195 -13.62077 1.8249688
22.161648 -13.639268 1.8196673
22.157694 -13.732998 1.8228762
22.177067 -13.841627 1.8280382
22.204964 -13.939949 1.8333397
22.233418 -14.044523 1.8389202
22.279198 -14.166097 1.8461748
22.289968 -14.260512 1.8503602
22.306271 -14.364391 1.8552431
22.338037 -14.484328 1.8616608
22.377707 -14.598977 1.8683573
22.410242 -14.70958 1.874496
22.44141 -14.825499 1.8807741
22.464724 -14.93118 1.886215
22.51153 -15.058778 1.8938882
22.530304 -15.174006 1.8994688
22.553909 -15.281629 1.9050493
22.595222 -15.40186 1.9121644
22.607594 -15.51454 1.9173265
22.663223 -15.63431 1.9252787
22.676266 -15.748678 1.9305801
22.70957 -15.871896 1.9374163
22.739077 -15.993152 1.9439734
22.782276 -16.118814 1.9515071
22.804239 -16.236097 1.9575062
22.833033 -16.346844 1.9636447
22.852783 -16.469822 1.9697833
22.895876 -16.604321 1.9777355
22.93676 -16.738041 1.9855483
22.966854 -16.852325 1.9919659
22.987621 -16.978922 1.9983834
23.010365 -17.089005 2.0042431
23.045864 -17.221695 2.0117767
23.069771 -17.352777 2.0186129
23.113375 -17.480509 2.0264256
23.154984 -17.613834 2.0343778
23.185074 -17.751989 2.0419116
23.20496 -17.870226 2.0480499
23.129757 -17.92189 2.0460968
23.029291 -17.96011 2.0421906
22.93038 -17.979713 2.0375867
22.920815 -18.0758 2.041214
22.868601 -18.151438 2.0416324
22.688408 -18.111916 2.0300529
22.555237 -18.11544 2.0229378
22.569746 -18.23101 2.0287974
22.275627 -18.096457 2.0068936
22.122902 -18.088053 1.9982439
22.146181 -18.216984 2.0052197
22.17977 -18.348701 2.0128927
22.198841 -18.475693 2.0195894
22.196117 -18.57859 2.0240538
22.093779 -18.598099 2.0194499
21.948471 -18.59391 2.0114977
21.838541 -18.612362 2.0064752
21.748833 -18.63442 2.0027084
21.717627 -18.719709 2.0049405
21.613754 -18.742241 2.0004761
21.511709 -18.759251 1.9958723
21.463167 -18.835951 1.9968488
21.244722 -18.742926 1.9810839
21.281532 -18.887985 1.9897337
21.089966 -18.830128 1.9770379
20.930103 -18.799299 1.967272
20.587864 -18.713821 1.945508
20.499357 -18.725048 1.9414622
20.402239 -18.75425 1.9378349
20.303677 -18.781673 1.9340681
20.215347 -18.791836 1.9300221
20.121613 -18.816301 1.9263948
19.917469 -18.736485 1.9121644
19.805647 -18.735817 1.9064444
19.710176 -18.769745 1.9032356
19.623102 -18.791595 1.8998873
19.64283 -18.909323 1.9065839
19.560398 -18.948729 1.9043517
19.474993 -18.965073 1.900864
19.387281 -18.992058 1.8977946
19.293898 -19.013088 1.8941673
19.203394 -19.036539 1.890819
19.119072 -19.059103 1.8877498
