# .PCD v0.7 - Point Cloud Data file format
VERSION 0.7
FIELDS x y z
SIZE 4 4 4
TYPE F F F
COUNT 1 1 1
WIDTH 106
HEIGHT 1
VIEWPOINT 0 0 0 1 0 0 0
POINTS 106
DATA ascii
21.882292 -12.694928 -2.3601985
21.798105 -12.732682 -2.3551824
21.692776 -12.762728 -2.3481226
21.625534 -12.7944 -2.3442211
21.657082 -12.905088 -2.3520241
21.680172 -13.006169 -2.3587122
21.700024 -13.100624 -2.3648431
21.724623 -13.198394 -2.3715312
21.744204 -13.303992 -2.3782196
21.775438 -13.401578 -2.3854649
21.795856 -13.508737 -2.3923392
21.802301 -13.607721 -2.3977268
21.829004 -13.703928 -2.4046009
21.856308 -13.806309 -2.4118464
21.879105 -13.911699 -2.4189062
21.902235 -14.012451 -2.4257801
21.929209 -14.121577 -2.4333973
21.944885 -14.229403 -2.4400856
21.970108 -14.333064 -2.4473312
21.998253 -14.439159 -2.4549482
22.028421 -14.552665 -2.4631226
22.019207 -14.635068 -2.4666526
21.987272 -14.708083 -2.4679532
22.008678 -14.822695 -2.4755702
22.03644 -14.931011 -2.4833732
22.060474 -15.037354 -2.4908044
22.087011 -15.157289 -2.4991648
22.118753 -15.258706 -2.5069678
22.1394 -15.375826 -2.5147705
22.170397 -15.495064 -2.5235023
22.197622 -15.612329 -2.5318627
22.223841 -15.723712 -2.5398514
22.253332 -15.843866 -2.5485833
22.281401 -15.951916 -2.556572
22.308723 -16.077723 -2.5654898
22.336687 -16.198792 -2.5742216
22.364128 -16.320166 -2.5829535
22.399996 -16.436382 -2.5920568
22.425138 -16.563465 -2.6009746
22.456837 -16.677917 -2.6097064
22.482225 -16.800501 -2.6184382
22.510494 -16.932096 -2.627913
22.542328 -17.04863 -2.6368308
22.577047 -17.174204 -2.6464915
22.600456 -17.304367 -2.6555948
22.629353 -17.426947 -2.6646981
22.659401 -17.557438 -2.6743591
22.688925 -17.694666 -2.6843913
22.727144 -17.820356 -2.6944237
22.710129 -17.909649 -2.6983252
22.602282 -17.940052 -2.6921945
22.505405 -17.965828 -2.6866207
22.410082 -17.998857 -2.6816046
22.420145 -18.110168 -2.6888502
22.358667 -18.163916 -2.6875496
22.250616 -18.192472 -2.6814189
22.033525 -18.124317 -2.6617258
22.053408 -18.244165 -2.6702719
21.950199 -18.268753 -2.6643267
21.709747 -18.17149 -2.6412895
21.602549 -18.184593 -2.6344154
21.502769 -18.216328 -2.6292136
21.410738 -18.247757 -2.6245689
21.316013 -18.26358 -2.6188097
21.211956 -18.28384 -2.6126788
21.115486 -18.310171 -2.6074769
21.028252 -18.337652 -2.603018
20.931625 -18.369473 -2.5981877
20.850609 -18.395224 -2.5941002
20.769131 -18.433214 -2.5907564
20.687611 -18.470886 -2.5874124
20.617899 -18.518879 -2.5855544
20.545414 -18.557693 -2.5829535
20.463436 -18.600719 -2.5799809
20.388519 -18.623802 -2.5762651
20.302055 -18.662159 -2.5727353
20.212627 -18.697449 -2.5688338
20.131876 -18.714243 -2.5643749
20.042809 -18.742609 -2.560102
19.945047 -18.762426 -2.5547142
19.856409 -18.783838 -2.5500696
19.759401 -18.816622 -2.5456109
19.670824 -18.837294 -2.5409663
19.485149 -18.757528 -2.5233169
19.351749 -18.746603 -2.5136559
19.272646 -18.768024 -2.5097547
19.185577 -18.794466 -2.5056672
19.145332 -18.866686 -2.5077109
19.050453 -18.990698 -2.5095687
18.956957 -19.016605 -2.5051098
18.870651 -19.029406 -2.5002794
18.778625 -19.055973 -2.4960065
18.691889 -19.074203 -2.4915476
18.592974 -19.092886 -2.4863458
18.519936 -19.11109 -2.4828157
18.429417 -19.137621 -2.4787288
18.344223 -19.15593 -2.4744556
18.254951 -19.169588 -2.4696252
18.171371 -19.202255 -2.4664669
18.085665 -19.225628 -2.4625654
18.000618 -19.242609 -2.4582922
17.91361 -19.263851 -2.4542053
17.832706 -19.284557 -2.4504895
17.750479 -19.303497 -2.446588
17.667597 -19.328154 -2.443058
17.573317 -19.346712 -2.4384136
