# .PCD v0.7 - Point Cloud Data file format
VERSION 0.7
FIELDS x y z
SIZE 4 4 4
TYPE F F F
COUNT 1 1 1
WIDTH 85
HEIGHT 1
VIEWPOINT 0 0 0 1 0 0 0
POINTS 85
DATA ascii
11.975636 -20.784275 0.55691987
11.910253 -20.796471 0.55640924
11.840586 -20.817812 0.55603784
11.76795 -20.833702 0.55552721
11.698962 -20.847301 0.55501658
11.630241 -20.869696 0.55469161
11.558586 -20.886618 0.55422741
11.490584 -20.901293 0.55376321
11.421811 -20.92301 0.55343825
11.348248 -20.935711 0.55288118
11.28121 -20.951477 0.55246341
11.209568 -20.967224 0.55199915
11.137935 -20.982729 0.55153495
11.075499 -20.997667 0.55116355
11.003915 -21.021732 0.55088502
10.934118 -21.040094 0.55051368
10.860651 -21.033115 0.54958522
10.787225 -21.052896 0.54921389
10.715698 -21.057989 0.54856396
10.652268 -21.087906 0.54851758
10.530504 -21.001455 0.54545373
10.46201 -21.011091 0.54494309
10.4609 -21.156725 0.54796052
10.385576 -21.171534 0.54749626
10.256194 -21.06563 0.5439682
10.2132 -21.117605 0.54461813
10.177075 -21.212683 0.54624289
10.075665 -21.152569 0.5439682
10.037076 -21.224003 0.54508233
9.9151554 -21.137768 0.54206496
9.8484907 -21.149061 0.54164714
9.7424116 -21.074844 0.53904754
9.711154 -21.181684 0.54099721
9.6531811 -21.201578 0.54085803
9.649497 -21.36132 0.54420036
9.5758018 -21.376932 0.54382896
9.5120058 -21.394455 0.54359686
9.4481888 -21.411787 0.54336476
9.3790035 -21.426905 0.5430398
9.3135567 -21.440174 0.54271489
9.2496891 -21.456921 0.54248273
9.1775208 -21.47484 0.5422042
9.118144 -21.491432 0.54201853
9.0474863 -21.512598 0.54183286
8.9744701 -21.527998 0.5415079
8.9157839 -21.545876 0.5413686
8.8480225 -21.562984 0.5411365
8.7824945 -21.574646 0.54081154
8.7192163 -21.591673 0.54062587
8.6513996 -21.608164 0.54039377
8.5805225 -21.627804 0.54020804
8.5164366 -21.642378 0.539976
8.4478235 -21.656376 0.53969741
8.3882122 -21.670958 0.53951174
8.3217239 -21.690151 0.5393725
8.2544899 -21.707272 0.53918684
8.1827316 -21.72374 0.53895468
8.1209297 -21.731977 0.53862977
8.0536385 -21.748476 0.5384441
7.9876947 -21.768522 0.53835118
7.9286275 -21.783724 0.53821194
7.8567619 -21.799118 0.53797984
7.7913761 -21.82045 0.53793341
7.7257404 -21.828928 0.53760844
7.6577907 -21.85498 0.53765488
7.5985775 -21.869287 0.53751564
7.5272336 -21.885489 0.53732997
7.4635072 -21.898851 0.53714424
7.3959427 -21.913321 0.53695858
7.3379159 -21.930716 0.53691214
7.2658381 -21.944168 0.53668004
7.203908 -21.962471 0.53663361
7.1330252 -21.979288 0.53649431
7.0326023 -21.864649 0.53324485
6.9723635 -21.913309 0.53389472
6.9450345 -22.026834 0.53621584
6.874609 -22.044725 0.53612298
6.8130231 -22.063837 0.53612298
6.7375946 -22.051449 0.53533381
6.62852 -21.913244 0.53152728
6.562511 -21.943539 0.53175938
6.503335 -21.954893 0.53162009
6.442564 -21.974884 0.53166646
6.3723841 -21.991175 0.53157365
6.3423467 -22.147562 0.53486961
