# .PCD v0.7 - Point Cloud Data file format
VERSION 0.7
FIELDS x y z
SIZE 4 4 4
TYPE F F F
COUNT 1 1 1
WIDTH 69
HEIGHT 1
VIEWPOINT 0 0 0 1 0 0 0
POINTS 69
DATA ascii
-5.7848053 15.317121 -2.3010881
-5.7476592 15.356477 -2.3044283
-5.5535579 15.665385 -2.3358815
-5.5222673 15.716333 -2.3411701
-5.4887815 15.76162 -2.3456235
-5.4495611 15.808747 -2.3500774
-5.4141521 15.858582 -2.3550875
-5.3810339 15.915853 -2.3612111
-5.352828 15.960875 -2.3659427
-5.3138914 16.011448 -2.3709531
-5.2784395 16.054443 -2.3751283
-5.2424245 16.10582 -2.3804169
-5.2055435 16.155237 -2.3854272
-5.171258 16.203669 -2.3904374
-5.1362777 16.260492 -2.3965611
-5.0946212 16.306793 -2.4010146
-5.0647926 16.3617 -2.4071383
-5.0260491 16.3985 -2.4104784
-4.9877143 16.457808 -2.4168804
-4.9582806 16.516333 -2.4235606
-4.9176335 16.569803 -2.4291275
-4.8814011 16.617672 -2.4341378
-4.8391061 16.667162 -2.4391479
-4.8029299 16.716778 -2.4444366
-4.7659807 16.764416 -2.4494467
-4.7280121 16.820429 -2.4555705
-4.6951046 16.87282 -2.4614158
-4.6499515 16.916132 -2.465591
-4.6146483 16.973005 -2.4719927
-4.5710568 17.023764 -2.4772813
-4.5317044 17.079367 -2.4834051
-4.4940181 17.11799 -2.4873021
-4.4521389 17.178036 -2.4939821
-4.4149675 17.232609 -2.5001059
-4.3731518 17.269831 -2.5037243
-4.3265529 17.31423 -2.508178
-4.2923183 17.357433 -2.5129099
-4.2471499 17.409313 -2.5184767
-4.2005806 17.443018 -2.5215383
-4.1640768 17.492491 -2.5271053
-4.1110244 17.527411 -2.5301671
-4.0741229 17.590921 -2.5376825
-4.0342445 17.628555 -2.5415795
-3.9849381 17.66819 -2.5454762
-3.947717 17.719158 -2.5513215
-3.9009514 17.772095 -2.5571668
-3.8588479 17.817764 -2.5621772
-3.8127706 17.876284 -2.5688572
-3.7704494 17.907524 -2.5719192
-3.7237315 17.949659 -2.5763726
-3.6831503 18.022722 -2.5852797
-3.6418209 18.061428 -2.5894549
-3.5931571 18.113573 -2.5953002
-3.5466132 18.161089 -2.6005888
-3.5076635 18.215042 -2.6069906
-3.4574249 18.262943 -2.6122792
-3.4097531 18.308168 -2.6172895
-3.3650377 18.352686 -2.6222997
-3.3172493 18.399622 -2.6275883
-3.2717307 18.441965 -2.6323204
-3.2253287 18.480295 -2.6364954
-3.1333683 18.604572 -2.651526
-3.0820346 18.637236 -2.6548662
-3.0379231 18.694643 -2.6618249
-2.9863458 18.749079 -2.668227
-2.9436703 18.797926 -2.674072
-2.899905 18.862839 -2.6821442
-2.8019302 18.951719 -2.6924429
-2.7477682 18.997669 -2.6977315
