# .PCD v0.7 - Point Cloud Data file format
VERSION 0.7
FIELDS x y z
SIZE 4 4 4
TYPE F F F
COUNT 1 1 1
WIDTH 147
HEIGHT 1
VIEWPOINT 0 0 0 1 0 0 0
POINTS 147
DATA ascii
38.34454 -9.8024149 7.4568162
38.376007 -9.9247103 7.4682956
38.363354 -10.035816 7.4712577
38.240311 -10.124949 7.4531131
37.978489 -10.176306 7.4079361
37.724289 -10.228255 7.3642402
37.528973 -10.301975 7.3323936
37.318253 -10.35628 7.296845
37.046883 -10.385508 7.2490749
36.836338 -10.451414 7.2142663
36.591572 -10.485554 7.1716814
36.371574 -10.54627 7.1350217
36.191124 -10.610456 7.1057677
35.9277 -10.649092 7.0602198
35.767895 -10.70367 7.0342984
35.566666 -10.758533 7.0009713
35.34288 -10.805402 6.9632006
35.137905 -10.85684 6.9291329
34.951694 -10.913014 6.8987675
34.739258 -10.953246 6.8628478
34.523132 -10.991186 6.8261876
34.314438 -11.043592 6.79175
34.139599 -11.08604 6.7628655
33.934669 -11.137466 6.7291684
33.718727 -11.170992 6.6925077
33.566246 -11.224595 6.6684384
33.391167 -11.282802 6.6406655
33.210712 -11.325256 6.6110411
33.037708 -11.369347 6.5828977
32.842175 -11.417578 6.5510516
32.667648 -11.446449 6.5217981
32.507389 -11.505086 6.4969873
32.30822 -11.548936 6.4644008
32.135674 -11.575891 6.4355173
31.943998 -11.620352 6.4044113
31.797031 -11.667534 6.381453
31.627924 -11.7058 6.3540497
31.451283 -11.74664 6.3255367
31.276297 -11.793382 6.2977633
31.116707 -11.826344 6.2718425
30.956457 -11.876871 6.2470322
30.770784 -11.910493 6.2166667
30.629635 -11.948153 6.1944489
30.455051 -11.984284 6.1663055
30.304544 -12.022898 6.1426063
30.146481 -12.063835 6.1177955
29.977221 -12.105496 6.0911341
29.842873 -12.154354 6.0711374
29.691254 -12.17727 6.0463271
29.547518 -12.2269 6.0248494
29.38991 -12.257918 5.9996691
29.217529 -12.287919 5.9718962
29.108564 -12.343863 5.9570837
28.936275 -12.372224 5.9293113
28.768044 -12.395429 5.9019084
28.644608 -12.443142 5.8841338
28.496319 -12.473433 5.8608046
28.343719 -12.51289 5.8374758
28.213882 -12.543934 5.8174791
28.06673 -12.584261 5.7952609
27.928003 -12.609977 5.7734127
27.799234 -12.651266 5.7545276
27.645452 -12.680429 5.7304578
27.506454 -12.709766 5.7089801
27.374193 -12.74735 5.6893539
27.227716 -12.777582 5.6667652
27.070185 -12.80758 5.6423254
26.951857 -12.832287 5.6241803
26.828131 -12.876923 5.6067762
26.698284 -12.906454 5.5871496
26.585659 -12.949465 5.5715971
26.446047 -12.984414 5.5508604
26.313295 -13.004839 5.5301232
26.195936 -13.037986 5.5130892
26.061739 -13.07351 5.493463
25.953735 -13.10449 5.4779105
25.810841 -13.134261 5.4564323
25.658072 -13.15251 5.432363
25.536217 -13.17458 5.4138474
25.423206 -13.217568 5.398665
25.332216 -13.260255 5.3871856
25.231909 -13.303276 5.3742251
25.09165 -13.324618 5.3527474
24.960745 -13.344597 5.3327513
24.848963 -13.374194 5.3168278
24.738329 -13.409463 5.3016453
24.608107 -13.43907 5.2827601
24.503942 -13.465587 5.2679477
24.372103 -13.492999 5.248692
24.248486 -13.513168 5.2301764
24.147232 -13.545254 5.2164755
24.034403 -13.581404 5.201293
23.93659 -13.614458 5.1883326
23.813192 -13.632425 5.169817
23.688522 -13.660042 5.1520429
23.579576 -13.679602 5.1361194
23.472698 -13.710842 5.1216774
23.371912 -13.750631 5.1090875
23.263815 -13.763663 5.0927939
23.159681 -13.800462 5.079463
23.046158 -13.82564 5.06354
22.879585 -13.812742 5.0353966
22.533533 -13.689833 4.9676313
22.549093 -13.796456 4.9805918
22.578173 -13.895617 4.9950333
22.591209 -14.001684 5.0076241
22.633812 -14.126701 5.0268798
22.65501 -14.222483 5.0398402
22.691643 -14.333977 5.0568748
22.697109 -14.431823 5.0676131
22.75771 -14.55976 5.0902014
22.778858 -14.668719 5.1046438
22.811815 -14.791534 5.1224179
22.832973 -14.895988 5.1364894
22.860296 -15.004986 5.1520429
22.874712 -15.111751 5.1653733
22.927361 -15.238671 5.186851
22.942488 -15.347061 5.2005525
22.967518 -15.468467 5.217216
23.002335 -15.585464 5.2349906
23.0383 -15.703879 5.2531357
23.081221 -15.839568 5.2742429
23.115252 -15.946143 5.2909069
23.147367 -16.075859 5.309792
23.170448 -16.194008 5.3260856
23.197857 -16.315826 5.3434896
23.229218 -16.435032 5.3612642
23.258804 -16.559738 5.3794093
23.296875 -16.678923 5.3982949
23.335245 -16.817528 5.4194021
23.35207 -16.935158 5.4349551
23.368401 -17.05303 5.4505076
23.40132 -17.171122 5.4686527
23.443697 -17.315784 5.491241
23.494534 -17.44858 5.5138297
23.532402 -17.585276 5.5349369
23.566566 -17.72646 5.5560446
23.570242 -17.826035 5.567894
23.493782 -17.871557 5.5615993
23.373537 -17.896288 5.5464163
23.292324 -17.937506 5.5390105
23.280949 -18.03904 5.5490088
23.208664 -18.1 5.5453057
23.032827 -18.060043 5.5145707
22.925203 -18.079262 5.5008688
22.90678 -18.18174 5.5101271
22.796013 -18.197815 5.4956846
