# .PCD v0.7 - Point Cloud Data file format
VERSION 0.7
FIELDS x y z
SIZE 4 4 4
TYPE F F F
COUNT 1 1 1
WIDTH 107
HEIGHT 1
VIEWPOINT 0 0 0 1 0 0 0
POINTS 107
DATA ascii
21.755684 -17.997868 -1.3167273
21.757469 -18.108347 -1.3200812
21.791077 -18.239563 -1.3252054
21.837875 -18.382685 -1.3311682
21.844038 -18.505438 -1.3350811
21.752542 -18.539068 -1.3328451
21.659937 -18.558254 -1.3301432
21.553329 -18.578091 -1.3269757
21.455849 -18.605314 -1.324367
21.3752 -18.640209 -1.3225968
21.288006 -18.68223 -1.3208266
21.201569 -18.704853 -1.3184974
21.108622 -18.734524 -1.3161683
20.957567 -18.711916 -1.3102056
20.857365 -18.733965 -1.3074106
20.806452 -18.793476 -1.3075037
20.713305 -18.827843 -1.3053609
20.645111 -18.858187 -1.3039634
20.351904 -18.707981 -1.2891499
20.257832 -18.739264 -1.2869139
20.172474 -18.751982 -1.2843983
20.07589 -18.773544 -1.2817897
19.98081 -18.79607 -1.2792742
19.89196 -18.817469 -1.276945
19.800516 -18.855774 -1.2750818
19.57896 -18.749325 -1.2641811
19.477993 -18.750641 -1.2608272
19.391727 -18.78533 -1.259057
19.303837 -18.798399 -1.2565415
19.315052 -18.921301 -1.2609203
19.254557 -18.974319 -1.2606409
19.151354 -18.984951 -1.2575663
19.077038 -19.0172 -1.2561688
18.981939 -19.041666 -1.2538396
18.901075 -19.060085 -1.2517899
18.807447 -19.08522 -1.2495539
18.719122 -19.101994 -1.2472248
18.632536 -19.133512 -1.2454547
18.570435 -19.1632 -1.2444297
18.59606 -19.310669 -1.2502061
18.602859 -19.42601 -1.2543055
18.544405 -19.473543 -1.2540261
18.448807 -19.495428 -1.2516968
18.358028 -19.515158 -1.2494607
18.220207 -19.47735 -1.2437776
18.141932 -19.50938 -1.2423801
18.11993 -19.595167 -1.244616
18.027277 -19.604513 -1.2420074
17.925898 -19.610731 -1.2390261
17.821213 -19.619625 -1.2360448
17.680653 -19.574432 -1.2300822
17.605312 -19.593903 -1.2284051
17.510973 -19.619387 -1.2263554
17.440977 -19.644245 -1.225051
17.365431 -19.676437 -1.2238399
17.022516 -19.520155 -1.2078152
16.941246 -19.529942 -1.2056724
16.852415 -19.551289 -1.2037159
16.782152 -19.580072 -1.2025979
16.694181 -19.594799 -1.200455
16.610149 -19.613756 -1.1985917
16.533434 -19.634083 -1.1970079
16.413132 -19.602057 -1.1922563
16.272247 -19.558306 -1.18648
16.19169 -19.565439 -1.1843371
16.114918 -19.597691 -1.1832192
16.037365 -19.614777 -1.1815422
16.054363 -19.747845 -1.1868526
15.983143 -19.779854 -1.1859211
15.900615 -19.797594 -1.1841508
15.743039 -19.713905 -1.176511
15.676062 -19.757008 -1.1761385
15.666614 -19.85874 -1.1795856
15.590136 -19.87569 -1.1780019
15.506741 -19.897781 -1.1764179
15.426641 -19.90942 -1.1745546
15.356352 -19.933432 -1.1734366
15.293653 -19.981575 -1.1734366
15.315224 -20.125957 -1.1793993
15.31682 -20.245121 -1.1838714
15.241077 -20.269718 -1.1826601
15.182064 -20.316452 -1.1827533
15.05855 -20.268963 -1.177536
14.992394 -20.298079 -1.1767906
14.86234 -20.240026 -1.1710143
14.838714 -20.341496 -1.1741819
14.755978 -20.362129 -1.1726913
14.688653 -20.373814 -1.1712937
14.622249 -20.416611 -1.1711074
14.531574 -20.410168 -1.1684057
14.422585 -20.377287 -1.1642131
14.359763 -20.416721 -1.1640267
14.293262 -20.458456 -1.1638404
14.212295 -20.45643 -1.1616044
14.117321 -20.456583 -1.159089
14.033196 -20.448994 -1.1565734
13.774886 -20.33013 -1.145207
13.69087 -20.34347 -1.14353
13.623121 -20.357658 -1.142319
13.549384 -20.378027 -1.1412009
13.474289 -20.403818 -1.1402692
13.40794 -20.411636 -1.1388718
13.332832 -20.436928 -1.13794
13.178116 -20.456274 -1.1347723
13.026901 -20.353937 -1.1269463
12.89985 -20.413429 -1.1261079
12.810543 -20.40593 -1.1235924
