# .PCD v0.7 - Point Cloud Data file format
VERSION 0.7
FIELDS x y z
SIZE 4 4 4
TYPE F F F
COUNT 1 1 1
WIDTH 62
HEIGHT 1
VIEWPOINT 0 0 0 1 0 0 0
POINTS 62
DATA ascii
-26.10663 -54.245564 11.342418
-26.318911 -54.273975 11.364636
-26.547983 -54.3111 11.389817
-26.75256 -54.368378 11.416479
-26.966124 -54.394421 11.438697
-27.186251 -54.431969 11.463508
-27.418972 -54.469189 11.489429
-27.606153 -54.50898 11.512017
-27.847853 -54.56028 11.541271
-28.065323 -54.585793 11.564231
-28.271364 -54.634315 11.590152
-28.516018 -54.662239 11.616073
-28.725712 -54.714436 11.643106
-28.948198 -54.766064 11.671248
-29.184784 -54.796276 11.697169
-29.411348 -54.828945 11.72272
-29.640915 -54.888416 11.753086
-29.878019 -54.914146 11.778636
-30.085869 -54.952965 11.803817
-30.323742 -54.999432 11.833072
-30.543098 -55.01059 11.854918
-30.753162 -55.026314 11.876767
-30.983772 -55.054722 11.902688
-31.271917 -55.160576 11.946754
-31.498022 -55.221924 11.977859
-31.733191 -55.25264 12.004892
-31.98732 -55.292175 12.035258
-32.207092 -55.337341 12.063399
-32.463284 -55.376621 12.094135
-32.710365 -55.420536 12.12487
-32.940285 -55.455708 12.152643
-33.191425 -55.502808 12.18449
-33.422295 -55.536194 12.212262
-33.682667 -55.594795 12.247071
-33.93446 -55.63723 12.278547
-34.176064 -55.682961 12.309652
-34.417137 -55.726097 12.340387
-34.641479 -55.718876 12.361495
-34.914051 -55.787445 12.399636
-35.205444 -55.862061 12.44074
-35.451828 -55.906277 12.472587
-35.701092 -55.931717 12.501841
-35.954628 -56.005116 12.539242
-36.224297 -56.037132 12.571828
-36.489017 -56.080963 12.605895
-36.737957 -56.141476 12.641075
-37.020107 -56.186626 12.677364
-37.287678 -56.22887 12.711803
-37.532906 -56.25695 12.741797
-37.807034 -56.305248 12.778087
-38.08947 -56.363819 12.81697
-38.33633 -56.410206 12.850298
-38.62767 -56.456558 12.888437
-38.913174 -56.513298 12.927691
-39.181618 -56.564362 12.964351
-39.465046 -56.61393 13.002492
-39.75787 -56.653759 13.040262
-40.010597 -56.718658 13.077663
-40.31377 -56.768959 13.118398
-40.579163 -56.785007 13.149873
-40.806412 -56.767223 13.172091
-41.182495 -56.558208 13.181719
