# .PCD v0.7 - Point Cloud Data file format
VERSION 0.7
FIELDS x y z
SIZE 4 4 4
TYPE F F F
COUNT 1 1 1
WIDTH 250
HEIGHT 1
VIEWPOINT 0 0 0 1 0 0 0
POINTS 250
DATA ascii
-8.7968054 16.6283 -2.1998944
-8.8023672 16.758936 -2.6604333
-8.7537041 16.779938 -2.6598766
-8.4887619 16.27207 -1.2833796
-8.7929602 16.855186 -0.44137651
-8.7396069 16.867626 -2.6698968
-8.5344896 16.471745 -1.7307626
-8.4331884 16.276232 -1.281845
-8.7716074 16.929388 -0.44267631
-8.7808056 16.94714 0.44314054
-8.6822767 16.879391 -2.6676702
-8.6046772 16.728527 -2.1998944
-8.5001564 16.525328 -1.7337353
-8.7635851 17.037464 -1.3397429
-8.7123938 16.937941 -0.88825285
-8.6337118 16.915403 -2.6690619
-8.5286036 16.709473 -2.1938546
-8.3966007 16.45085 -1.7231456
-8.6746464 16.995604 -1.3343018
-8.6119137 16.872698 -0.88340819
-8.6916685 17.028954 0.44388327
-8.5936079 16.953577 -2.6712887
-8.382143 16.536398 -1.729648
-8.5889397 16.944368 -0.44105154
-8.648222 17.061321 0
-8.456955 16.683987 0.43427402
-8.1531963 16.210827 -2.5502081
-8.1758108 16.255791 -2.1278811
-8.3748846 16.651604 -1.7389373
-8.4104843 16.722387 -1.3089104
-8.3374891 16.577251 -0.8653338
-8.5990677 17.097342 0
-8.4009008 16.703331 0.43408835
-8.3236656 16.672815 -1.7385657
-8.2628069 16.550913 -1.2935641
-8.2820234 16.589401 -0.8646816
-8.1762609 16.377554 -0.4249897
-8.4464645 16.918789 0
-8.3638105 16.753227 0.43473825
-8.0768089 16.277765 -2.5538266
-8.167201 16.459936 -2.148788
-8.2935171 16.71451 -1.7407951
-8.2077141 16.541586 -0.86114126
-8.121994 16.368828 -0.42424697
-8.3739796 16.876673 0
-8.3290644 16.786154 0.43506318
-8.0090141 16.269297 -2.548538
-8.102293 16.45878 -2.1453035
-8.1609335 16.5779 -1.7238886
-8.1385164 16.532362 -1.2885416
-8.1301222 16.51531 -0.85843951
-8.0696497 16.392469 -0.42420053
-8.2696886 16.798822 0
-8.3990412 17.061584 0.44151577
-8.0172253 16.408655 -2.5666306
-8.0447054 16.464897 -2.1429806
-8.1117134 16.602039 -1.7238886
-8.0833006 16.543888 -1.287565
-8.1170454 16.612953 -0.86225927
-8.1952286 16.772968 0
-8.3387289 17.066666 0.44100511
-8.5010843 17.398956 1.3541126
-7.9892478 16.475138 -2.5733109
-8.0036221 16.50478 -2.1450713
-8.0719795 16.645744 -1.7259324
-8.0376644 16.57498 -1.2881231
-8.0868988 16.67651 -0.86430895
-8.1262302 16.757618 0
-8.2880573 17.091331 0.44100511
-8.3693352 17.25894 0.89449507
-7.9672613 16.54735 -2.5811045
-8.0107727 16.63772 -1.722774
-8.0411596 16.700832 -0.86440217
-8.0733242 16.767633 0
-8.2689161 17.173862 0.44253704
-8.3245678 17.289446 0.89486772
-8.2934074 17.22473 1.3368131
-7.9852252 16.718847 -2.603929
-7.950736 16.646637 -1.721102
-7.9757323 16.698973 -0.86300462
-7.9357147 16.615187 -0.42749646
-8.0361185 16.825403 0
-8.1761398 17.118568 0.44044811
-8.1686029 17.102791 0.883874
-8.2426872 17.257902 1.3373711
-7.9495406 16.764341 -2.6075473
-8.397191 17.708366 -2.2918856
-7.9458313 16.756519 0.43056029
-8.1995945 17.291666 1.3382081
-8.1678667 17.224758 1.7785093
-7.8689547 16.7148 -2.5964134
-7.8535833 16.682148 -2.1562216
-7.8419495 16.657436 -0.42745003
-7.8777184 16.733416 0.42939973
-8.0738144 17.14995 0.88396722
-8.1572275 17.327133 1.3391849
-8.2054043 17.429468 1.7972734
-7.7879105 16.678429 -2.5869498
-7.7301812 16.554796 -1.7045671
-7.6798406 16.446987 -1.2692888
-7.7853451 16.672934 -0.4272179
-7.8124161 16.730909 0.42870343
-8.115406 17.379786 0.89449507
-8.0689812 17.280365 1.3336042
-8.1480742 17.449747 1.796716
-7.7920442 16.809563 -2.1666753
-7.678062 16.563671 -1.7032666
-7.5373917 16.260206 -1.2532449
-7.7471666 16.712749 -0.42768213
-7.780376 16.784391 0
-7.8018255 16.830664 0.43069956
-8.0634823 17.395128 0.89412236
-8.004755 17.268438 1.3309536
-8.0867548 17.445333 1.7939291
-7.4992566 16.297052 -2.52126
-8.1129389 17.630678 -2.2695849
-7.8868585 17.13937 -0.43803418
-7.7217731 16.780615 0
-7.9211273 17.213842 0.43993744
-8.0115499 17.410345 1.3401614
-7.9630904 17.305035 1.7772086
-7.545043 16.533142 -2.554105
-7.5812879 16.612564 -1.7036382
-7.4333119 16.288311 -1.2519891
-7.6299982 16.719301 -0.85704195
-7.6881108 16.846642 0
-7.8670044 17.238644 0.43993744
-7.9617734 17.446306 0.89430875
-7.9634347 17.449947 1.3412775
-7.9053736 17.322721 1.7764655
-7.502933 16.563168 -2.5554967
-7.5537696 16.675392 -1.7079114
-7.3886242 16.310823 -1.2521287
-7.5692677 16.709604 -0.85545808
-7.697156 16.991926 0
-7.8303876 17.286043 0.44058734
-7.9163232 17.475752 1.3415564
-7.4582777 16.587666 -2.5560534
-7.7942247 17.334831 -2.2226601
-7.4671617 16.607424 -1.6988078
-7.336504 16.316833 -1.2510126
-7.5487967 16.788986 -0.85843951
-7.7103705 17.148335 0
-7.8198061 17.391727 0.44272274
-7.8715906 17.506899 0.89514726
-7.8748579 17.514164 1.3428121
-7.4278998 16.659857 -2.5635686
-7.4420404 16.691572 -2.1371729
-7.3452086 16.47439 -1.6828305
-7.4992638 16.819918 -0.85881215
-7.6540112 17.166998 0
-7.7594252 17.403427 0.4423978
-7.8295636 17.56074 0.89663792
-7.8319783 17.566154 1.3449048
-7.4094028 16.743925 -2.5733109
-7.3921871 16.705019 -2.1362436
-7.2500219 16.383753 -1.6714977
-7.4336739 16.798773 -0.85666931
-7.5566769 17.076738 0
-7.7043257 17.410397 0.44202641
-7.3602285 16.759108 -2.5724759
-7.3590913 16.756517 -2.1401927
-7.1810231 16.351059 -1.6661099
-7.3795061 16.803001 -0.85583085
-7.5065503 17.092278 0
-7.6572866 17.435503 0.44211924
-7.3992577 16.99279 -2.604764
-7.4142623 17.02725 -2.1717858
-7.1343846 16.384495 -1.6672245
-7.5250397 17.281654 -0.43761635
-7.4496174 17.108444 0
-7.5585661 17.35865 0.43956608
-7.3354592 16.983757 -2.6000321
-7.0881109 16.411074 -1.6677819
-7.217659 16.711016 -0.42262217
-7.5923214 17.578468 0
-7.5149593 17.399353 0.44003028
-7.2925348 17.006544 -2.6005888
-7.4083028 17.27652 -2.1982682
-7.0702395 16.48814 -1.6737272
-7.5439134 17.59277 0
-7.4394417 17.349136 0.43826625
-7.1840544 16.89996 -2.580826
-7.319015 17.217445 -2.1878147
-7.3798766 17.360617 -1.7599307
-7.3827753 17.367437 -0.88005418
-7.1009517 16.704466 -0.42141521
-7.4901671 17.620068 0
-7.3911543 17.387148 0.43863764
-7.1553087 16.963751 -2.5875065
-7.2987018 17.303705 -2.1961775
-7.3313704 17.381157 -1.7599307
-7.0783687 16.781342 -0.42285427
-7.423058 17.598528 0
-7.3464589 17.416929 0.43886974
-7.1186085 17.009245 -2.5914032
-7.4313369 17.756481 -2.2510006
-7.3066325 17.458511 -1.7656901
-7.2242045 17.261559 -1.3084919
-7.3954992 17.670849 0
-7.0529995 17.002256 -2.5869498
-7.3656259 17.755886 -2.2479806
-7.2517524 17.481379 -1.7656901
-7.1791172 17.30628 -1.3101661
-7.1199403 17.163626 -0.86654502
-7.3529797 17.725401 0
-7.0596228 17.161934 -3.0488389
-7.0251188 17.078056 -2.5953002
-7.3098822 17.770315 -2.2470515
-7.2452998 17.613316 -1.776837
-7.069737 17.186522 -0.86663812
-7.3189201 17.792288 -0.4466686
-7.0004978 17.145643 -3.0426781
-7.1727901 17.567621 -2.6668351
-7.2062697 17.64962 -2.2293966
-7.2149734 17.670937 -1.7807385
-7.0239673 17.203123 -0.86654502
-7.254179 17.76696 -0.44555447
-6.8962636 17.043144 -3.0206296
-6.7646985 16.718 -2.5346208
-7.2074184 17.81212 -2.2470515
-7.1616678 17.699055 -1.7812959
-6.9766345 17.24177 -0.86738348
-7.19908 17.791513 -0.4456009
-6.8486462 17.062336 -3.0206296
-6.7179899 16.736826 -2.5346208
-6.9541636 17.325216 -2.1831686
-7.0958986 17.678328 -1.7772086
-6.8529525 17.073065 -1.286449
-7.1486273 17.809692 -0.44555447
-6.8417692 17.192606 -3.0400841
-6.6792803 16.784288 -2.5387959
-6.8961129 17.329165 -2.181078
-7.0375195 17.684504 -1.7757224
-6.809638 17.111862 -1.2878441
-6.7552414 17.122871 -3.0241964
-6.6425366 16.837194 -2.5438063
-7.0298367 17.818903 -2.2400825
-6.6339579 16.962719 -2.9924207
-6.9387999 17.742186 -2.6774123
-7.0015302 17.902584 -2.2479806
-6.5888162 16.978188 -2.9920967
-6.8901806 17.754751 -2.6765773
-6.6527948 17.143051 -2.150414
-6.8343639 17.776312 -2.6765773
-6.7731304 17.7743 -2.6732371
-6.7528758 17.87096 -2.6849277
-6.8692803 18.179016 -2.2726047
-6.8394232 18.26372 -2.7408752
-6.8250599 18.225365 -2.275857
