# .PCD v0.7 - Point Cloud Data file format
VERSION 0.7
FIELDS x y z
SIZE 4 4 4
TYPE F F F
COUNT 1 1 1
WIDTH 60
HEIGHT 1
VIEWPOINT 0 0 0 1 0 0 0
POINTS 60
DATA ascii
-8.2807159 5.046639 -3.2767172
-8.1269484 5.2837524 -3.2754369
-8.1105766 5.3053908 -3.2747967
-8.0938692 5.3308449 -3.2747967
-8.0868473 5.3586602 -3.277998
-8.0702753 5.3801718 -3.2773578
-8.0552216 5.4026837 -3.2773578
-8.0397778 5.4290261 -3.277998
-8.0245848 5.4514565 -3.277998
-8.0089846 5.4777079 -3.2786381
-7.9895744 5.4992986 -3.2773578
-7.9695125 5.5183525 -3.2754369
-7.953105 5.5419726 -3.2754369
-7.942832 5.5698981 -3.277998
-7.9328675 5.5939498 -3.2799184
-7.9106212 5.6155519 -3.277998
-7.8939242 5.6389985 -3.277998
-7.8719902 5.6565981 -3.2754369
-7.8623061 5.6830001 -3.277998
-7.8474789 5.7098994 -3.2792783
-7.8345613 5.7340302 -3.2805588
-7.8144617 5.7550039 -3.2792783
-7.7948227 5.7783961 -3.2786381
-7.781693 5.8024063 -3.2799184
-7.7639427 5.8229775 -3.2792783
-7.7456121 5.8473387 -3.2792783
-7.7302756 5.8675985 -3.2792783
-7.7178278 5.8964558 -3.2818394
-7.7048044 5.9227934 -3.2837601
-7.6877728 5.9417858 -3.2831197
-7.6750522 5.970561 -3.2856808
-7.6598406 5.9931383 -3.2863209
-7.6424632 6.0183454 -3.2869613
-7.6300836 6.0431914 -3.2888818
-7.6150832 6.0681658 -3.2901626
-7.6029563 6.0954762 -3.2927232
-7.5873804 6.1178718 -3.2933633
-7.5710664 6.1440673 -3.2946441
-7.5549564 6.163866 -3.2946441
-7.5380983 6.1874566 -3.2952843
-7.5215445 6.213522 -3.2965646
-7.5110826 6.2380333 -3.2991257
-7.4987154 6.2676768 -3.3023269
-7.4855356 6.2922487 -3.3042474
-7.4668331 6.3144317 -3.3042474
-7.4440732 6.335403 -3.3029671
-7.428122 6.3599248 -3.3042474
-7.4146399 6.3843527 -3.3061681
-7.3996472 6.407515 -3.3074486
-7.3848886 6.433176 -3.3093693
-7.3671942 6.4563055 -3.3100095
-7.3505583 6.4781079 -3.3106499
-7.3244991 6.496139 -3.308089
-7.3091578 6.5190907 -3.3093693
-7.2965665 6.5445375 -3.3119304
-7.2787843 6.5699654 -3.3132107
-7.2632141 6.5928135 -3.314491
-7.2475739 6.6156263 -3.3157718
-7.2309422 6.6422062 -3.3176923
-7.2095819 6.6598024 -3.316412
