# .PCD v0.7 - Point Cloud Data file format
VERSION 0.7
FIELDS x y z
SIZE 4 4 4
TYPE F F F
COUNT 1 1 1
WIDTH 332
HEIGHT 1
VIEWPOINT 0 0 0 1 0 0 0
POINTS 332
DATA ascii
-1.7939848 8.4255629 1.6230434
-1.7471231 8.3267031 0.9949469
-1.7520778 8.350317 1.1991155
-1.6896634 8.2901373 1.3900214
-1.6925224 8.3041639 1.5967518
-1.6582519 8.2612162 0
-1.6522577 8.2313528 0.78326482
-1.6517196 8.228672 0.98147351
-1.6565354 8.2526646 1.1829714
-1.6603955 8.2718945 1.3861305
-1.6647792 8.2937336 1.5937895
-1.6252602 8.2156839 -0.3905555
-1.6248724 8.2137241 0.39046231
-1.624999 8.2143641 0.58553582
-1.6230832 8.2046795 0.78029233
-1.6244951 8.2118168 0.97891814
-1.6284878 8.2320004 1.1793529
-1.6338439 8.2590742 1.3832123
-1.6366551 8.2732859 1.5889754
-1.6036823 8.234869 -0.78270751
-1.5933748 8.1819401 -0.58288509
-1.5933957 8.1820469 0.19353162
-1.5940042 8.1851721 0.38887849
-1.5956631 8.1936903 0.58372217
-1.594166 8.1860027 0.77806294
-1.598226 8.206851 0.97775662
-1.6021649 8.2270765 1.1779612
-1.6063153 8.2483883 1.3806185
-1.6109751 8.2723169 1.5878644
-1.5601602 8.1477375 -0.19260319
-1.5635444 8.165411 0.19302097
-1.566401 8.1803293 0.38841265
-1.5665348 8.1810274 0.58246654
-1.5676898 8.1870594 0.77769136
-1.5664558 8.1806154 0.97403985
-1.573701 8.2184525 1.1760129
-1.5777937 8.2398262 1.3783488
-1.5820196 8.2618952 1.584902
-1.5337975 8.1173868 -0.38524497
-1.5354218 8.1259832 -0.1919997
-1.5380638 8.1399651 0
-1.5406191 8.1534891 0.1926496
-1.5445545 8.1743155 0.38794681
-1.5443188 8.173068 0.58162946
-1.5152476 8.0192137 -2.3401613
-1.5454631 8.1791248 0.77657664
-1.547201 8.1883221 0.97450441
-1.5514098 8.210597 1.1743428
-1.5569237 8.2397785 1.3777002
-1.5603687 8.2580099 1.5834208
-1.5066005 8.1130667 -0.96498007
-1.5058867 8.1092234 -0.57674652
-1.5053718 8.106451 -0.38449964
-1.5069669 8.1150408 -0.19162834
-1.509564 8.1290255 0
-1.5124427 8.1445274 0.19232465
-1.5148557 8.1575212 0.386922
-1.517179 8.1700325 0.58107138
-1.4858364 8.0012512 -2.3335459
-1.5186709 8.1780663 0.77601928
-1.4939121 8.0447397 -2.1420007
-1.5203825 8.1872835 0.97380757
-1.4973192 8.0630875 -1.9431536
-1.5238013 8.2056932 1.172951
-1.4969355 8.0610209 -1.7427158
-1.5303109 8.2407475 1.3770518
-1.5344192 8.2628708 1.5834208
-1.4763168 8.0835381 -1.1548585
-1.4771661 8.0881891 -0.96149558
-1.4772241 8.0885067 -0.76710165
-1.4782329 8.0940294 -0.57535136
-1.4780802 8.093194 -0.38366112
-1.4800063 8.1037407 -0.19125697
-1.4829204 8.1196966 0
-1.4868315 8.1411123 0.19213898
-1.489207 8.1541185 0.38654932
-1.4914954 8.1666489 0.58051336
-1.4544883 7.9640174 -2.3214178
-1.4922503 8.1707821 0.77490455
-1.4623866 8.0072641 -2.1308577
-1.4953675 8.18785 0.9733429
-1.4667436 8.0311213 -1.9343925
-1.4998012 8.2121267 1.1732293
-1.4670342 8.032712 -1.735647
-1.505142 8.2413702 1.3764033
-1.4721111 8.0605106 -1.5437982
-1.5088345 8.2615881 1.58231
-1.4531441 8.0843201 -1.3494912
-1.450936 8.0720358 -1.1526318
-1.4507096 8.070776 -0.95894021
-1.4521662 8.0788803 -0.76580119
-1.4542137 8.090271 -0.57479334
-1.4544151 8.0913916 -0.38338163
-1.4556034 8.0980024 -0.19102485
-1.4588262 8.1159315 0
-1.4633855 8.1412964 0.19204612
-1.4646648 8.1484137 0.38608345
-1.4679794 8.1668539 0.58023435
-1.4278228 7.9434495 -2.3142514
-1.4694288 8.1749172 0.77490455
-1.4331759 7.9732308 -2.1207275
-1.4728495 8.1939478 0.97357517
-1.439492 8.0083694 -1.9279368
-1.4782659 8.224081 1.1743428
-1.4397531 8.0098209 -1.7298255
-1.4824723 8.2474833 1.3767276
-1.4464681 8.0471802 -1.5404656
-1.4864545 8.2696371 1.5830505
-1.4243453 8.061388 -1.3449519
-1.4231901 8.0548506 -1.1495699
-1.4253755 8.0672188 -0.95801097
-1.4264585 8.073348 -0.76487225
-1.4281218 8.0827618 -0.57395631
-1.4293597 8.0897684 -0.38310212
-1.4301796 8.094408 -0.19083917
-1.434045 8.1162853 0
-1.4385291 8.1416645 0.19195329
-1.4408306 8.1546898 0.38617662
-1.4430486 8.167243 0.57995528
-1.4019077 7.9343977 -2.3103924
-1.4458615 8.1831636 0.77527618
-1.408504 7.9717312 -2.1192081
-1.4488784 8.2002382 0.97380757
-1.4126784 7.9953566 -1.9237868
-1.4514474 8.2147779 1.1723944
-1.415642 8.0121307 -1.7294097
-1.4579966 8.2518444 1.3767276
-1.4198511 8.0359526 -1.5375032
-1.4619131 8.2740107 1.5830505
-1.3976612 8.0580444 -1.3436549
-1.3965222 8.0514774 -1.1484566
-1.3979855 8.0599146 -0.95661718
-1.3993844 8.0679798 -0.76394331
-1.4023788 8.0852432 -0.57381678
-1.4035941 8.0922508 -0.38300896
-1.4043993 8.0968924 -0.19079274
-1.4088793 8.1227217 0
-1.4126002 8.1441736 0.19190687
-1.4158856 8.1631145 0.386363
-1.418063 8.1756697 0.58023435
-1.3733579 7.9179268 -2.3043284
-1.4201438 8.1876659 0.77527618
-1.380475 7.9589601 -2.1146495
-1.4227675 8.2027922 0.97357517
-1.3855555 7.9882507 -1.92102
-1.4266456 8.2251511 1.1732293
-1.3881217 8.003046 -1.726499
-1.433075 8.2622185 1.3777002
-1.3935884 8.034564 -1.5363922
-1.4379253 8.2901831 1.5852723
-1.3748192 8.0599718 -1.3433306
-1.3726981 8.0475368 -1.1473432
-1.376472 8.0696621 -0.95731413
-1.3768463 8.0718565 -0.76394331
-1.3794569 8.0871611 -0.57367724
-1.3819962 8.102047 -0.38328847
-1.381108 8.0968409 -0.19069991
-1.3858521 8.1246529 0
-1.3901855 8.1500578 0.19195329
-1.3927457 8.1650677 0.38626984
-1.3948885 8.1776304 0.58009481
-1.3509157 7.919836 -2.3037772
-1.3976063 8.1935625 0.77546197
-1.3575909 7.9589705 -2.1136367
-1.3985169 8.1989021 0.972646
-1.3629129 7.9901705 -1.9205587
-1.4043347 8.2330084 1.1737859
-1.3651072 8.0030346 -1.7256671
-1.4116534 8.2759151 1.3793215
-1.3708134 8.0364876 -1.5360219
-1.416419 8.303854 1.5871239
-1.3513321 8.0579395 -1.342358
-1.3515353 8.0591516 -1.1484566
-1.3539371 8.0734739 -0.95731413
-1.353976 8.0737047 -0.76375753
-1.3565432 8.0890131 -0.57353771
-1.3603621 8.1117849 -0.38356796
-1.3601508 8.1105251 -0.19093202
-1.3628329 8.1265182 0
-1.3677567 8.155879 0.1919997
-1.3712661 8.1768055 0.38664246
-1.3723824 8.1834612 0.58023435
-1.3284812 7.9216809 -2.3032258
-1.3743961 8.1954689 0.77527618
-1.3347251 7.9589133 -2.1126235
-1.3769352 8.2106104 0.97357517
-1.3396343 7.9881864 -1.9191755
-1.383309 8.2486162 1.175456
-1.3421112 8.0029554 -1.7248355
-1.3901746 8.2895565 1.3809427
-1.3496714 8.0480366 -1.5375032
-1.3942053 8.313591 1.5882347
-1.3278593 8.0558395 -1.3413852
-1.3286998 8.0609388 -1.1481781
-1.3313841 8.0772238 -0.95731413
-1.3327178 8.0853148 -0.76450068
-1.3345958 8.0967083 -0.57381678
-1.3367271 8.1096392 -0.38328847
-1.3378195 8.1162653 -0.19097844
-1.3404568 8.132266 0
-1.3456237 8.1636124 0.19209254
-1.3490741 8.1845455 0.38682884
-1.3508197 8.1951351 0.58079237
-1.3076029 7.9329481 -2.3054309
-1.3524737 8.2051697 0.77583349
-1.312492 7.9626098 -2.1126235
-1.3562607 8.2281446 0.97520137
-1.3192185 8.003418 -1.9219422
-1.3615551 8.2602654 1.1765695
-1.3200732 8.008604 -1.7252513
-1.3686229 8.3031435 1.3825639
-1.3265499 8.0478964 -1.5367625
-1.3744975 8.3387842 1.5923082
-1.3038018 8.0677652 -1.3426822
-1.3039989 8.0689859 -1.1487349
-1.3069504 8.0872488 -0.95801097
-1.3076259 8.0914278 -0.76468647
-1.3101051 8.1067696 -0.57423532
-1.3128347 8.1236601 -0.38375428
-1.3135883 8.1283226 -0.19116412
-1.3168141 8.148284 0
-1.321563 8.1776695 0.19232465
-1.325265 8.2005768 0.38738778
-1.3266566 8.2091875 0.58148998
-1.2820587 7.9332213 -2.3043284
-1.3279582 8.2172422 0.77657664
-1.2880855 7.9705143 -2.1136367
-1.3319867 8.2421694 0.97636282
-1.2949978 8.0132866 -1.9233254
-1.3400192 8.2918739 1.1804663
-1.2967774 8.0242987 -1.7277464
-1.345992 8.3288326 1.3861305
-1.3031392 8.0636654 -1.5389843
-1.3511134 8.3605232 1.5956408
-1.2810962 8.0793943 -1.3439791
-1.2812941 8.0806417 -1.1498482
-1.2841954 8.0989399 -0.95894021
-1.2845492 8.1011715 -0.76524377
-1.2863599 8.1125908 -0.57437479
-1.2896657 8.1334391 -0.3840338
-1.2907194 8.1400843 -0.1913498
-1.2948258 8.1659822 0
-1.2998002 8.1973534 0.19269602
-1.3031192 8.2182846 0.38803995
-1.3054194 8.2327919 0.58288509
-1.2597203 7.9445848 -2.3065333
-1.3066914 8.2408133 0.77843446
-1.2662503 7.9857669 -2.1166756
-1.3125049 8.2774773 0.98007971
-1.2715224 8.0190163 -1.9237868
-1.3178936 8.3114624 1.1826931
-1.2744964 8.0377722 -1.7298255
-1.3252933 8.3581285 1.3903456
-1.2792096 8.0674963 -1.5389843
-1.3312275 8.3955536 1.6015657
-1.2612635 8.1004915 -1.3468974
-1.2611629 8.0998449 -1.1520751
-1.2621864 8.1064186 -0.95940483
-1.2646804 8.1224365 -0.76691592
-1.2655436 8.1279802 -0.57521188
-1.2697154 8.1547737 -0.38487229
-1.2713683 8.1653891 -0.19186045
-1.2750953 8.1893272 0
-1.2799814 8.2207069 0.19316025
-1.2832395 8.2416325 0.38897166
-1.2851882 8.2541485 0.58414072
-1.2387146 7.9556699 -2.3087387
-1.2873515 8.2680416 0.78066391
-1.2457323 8.000742 -2.1197147
-1.2930536 8.3046637 0.9828673
-1.2515208 8.037919 -1.9274757
-1.3004694 8.3522921 1.1879816
-1.254154 8.0548306 -1.7327362
-1.307111 8.394948 1.3958578
-1.2593987 8.0885143 -1.5423169
-1.3147337 8.4439049 1.6100826
-1.2416168 8.1234903 -1.3501397
-1.2415285 8.1229124 -1.1548585
-1.2422428 8.1275854 -0.96149558
-1.2443976 8.1416836 -0.76840216
-1.2461543 8.1531763 -0.57674652
-1.249954 8.1780376 -0.385804
-1.2512774 8.1866961 -0.19227824
-1.2552408 8.2126265 0
-1.2603403 8.2459917 0.1936709
-1.2656502 8.2807322 0.39064866
-1.2660494 8.2833433 0.58595437
-1.219105 7.9762025 -2.3137
-1.2690692 8.3031015 0.78363645
-1.2263058 8.0233154 -2.1247797
-1.2746569 8.3396606 0.98658407
-1.2320076 8.0606194 -1.9320867
-1.2858156 8.4126682 1.1960537
-1.2346089 8.0776386 -1.7368944
-1.2926055 8.4570923 1.4055849
-1.2418522 8.1250296 -1.5486122
-1.2221923 8.1583662 -1.3553276
-1.2209486 8.1500654 -1.1581986
-1.221365 8.1528444 -0.96405083
-1.2243711 8.1729107 -0.77100313
-1.227875 8.1963005 -0.5795368
-1.231313 8.2192497 -0.38757417
-1.2308378 8.2160778 -0.19288172
-1.2353179 8.2459831 0
-1.2417986 8.2892427 0.19459933
-1.2467046 8.321991 0.39241883
-1.2482706 8.3324442 0.58916318
-1.1965784 7.9873896 -2.3159051
-1.2515138 8.3540936 0.78809524
-1.2050799 8.0441389 -2.129338
-1.2590361 8.4043064 0.99378544
-1.2129929 8.0969591 -1.9399259
-1.2164387 8.1199608 -1.7452108
-1.2250243 8.1772709 -1.5578699
-1.2034198 8.2090302 -1.3631094
-1.2025139 8.2028503 -1.1651573
-1.2012144 8.1939869 -0.96846455
-1.2038821 8.212184 -0.77434725
-1.2061648 8.2277546 -0.58148998
-1.2109851 8.2606363 -0.38934433
-1.2116843 8.2654057 -0.1939494
-1.2166525 8.2992964 0
-1.2247351 8.3544312 0.19603838
-1.2295308 8.3871441 0.39530697
-1.230184 8.3915997 0.59306955
-1.1742619 8.0101318 -2.3214178
-1.2347879 8.4230051 0.79422611
-1.1868125 8.0957451 -2.1420007
-1.1909181 8.2643747 -0.77899188
-1.2000451 8.3277121 -0.19534206
-1.1571589 8.0301037 -2.3263795
-1.1386293 8.0812922 -2.3401613
