# .PCD v0.7 - Point Cloud Data file format
VERSION 0.7
FIELDS x y z
SIZE 4 4 4
TYPE F F F
COUNT 1 1 1
WIDTH 155
HEIGHT 1
VIEWPOINT 0 0 0 1 0 0 0
POINTS 155
DATA ascii
27.874022 -31.672544 5.9296098
27.724165 -31.680208 5.9165273
27.592686 -31.708202 5.907342
27.453489 -31.726725 5.8964868
27.319572 -31.750721 5.886744
27.17593 -31.78521 5.8772807
27.044729 -31.811176 5.8680949
26.913597 -31.836666 5.8589101
26.77268 -31.872528 5.8500023
26.652805 -31.887707 5.840817
26.509476 -31.919477 5.8313532
26.381142 -31.946043 5.8227243
26.252865 -31.972137 5.814096
26.108475 -32.000744 5.8043537
25.975336 -32.019695 5.7946115
25.849758 -32.047401 5.7865396
25.713034 -32.083633 5.7784672
25.582611 -32.104202 5.7692823
25.459646 -32.133602 5.7617669
25.327436 -32.162319 5.7534161
25.192837 -32.187416 5.7445092
25.071983 -32.206383 5.7361593
24.941946 -32.224583 5.7269735
24.832134 -32.291794 5.7250252
24.737049 -32.354713 5.7239118
24.637348 -32.423241 5.7230768
24.520746 -32.469326 5.7183447
24.40711 -32.495407 5.7116642
24.270555 -32.525894 5.7035923
24.140688 -32.54105 5.694407
24.019161 -32.566895 5.68717
23.888636 -32.603851 5.6804895
23.766012 -32.627209 5.6729741
23.645769 -32.653347 5.6660156
23.5187 -32.681564 5.6587791
23.392775 -32.698788 5.6504283
23.27038 -32.720406 5.6429129
22.964058 -32.505421 5.5933676
22.854969 -32.531403 5.587522
22.719801 -32.543854 5.5780582
22.591532 -32.565559 5.5702648
22.474709 -32.578941 5.5624709
22.355455 -32.624882 5.5582962
22.226231 -32.643593 5.5502238
22.107386 -32.652466 5.5418735
21.972643 -32.674095 5.5338011
21.860403 -32.704044 5.528513
21.738304 -32.718773 5.5207191
21.62258 -32.755032 5.5159874
21.495972 -32.774326 5.508472
21.377325 -32.792747 5.501513
21.26701 -32.836082 5.4981728
21.135201 -32.845741 5.4892659
21.037394 -32.88261 5.4862041
20.910622 -32.911762 5.4800806
20.781168 -32.923416 5.4717302
20.677002 -32.949188 5.4669981
20.548769 -32.961655 5.4589262
20.44149 -33.007324 5.4564209
20.32225 -33.020424 5.4491844
20.201885 -33.057068 5.4447303
20.094311 -33.062328 5.4374938
19.974989 -33.099854 5.4333181
19.863131 -33.123238 5.42803
19.742464 -33.144588 5.421906
19.632683 -33.17062 5.4171743
19.507301 -33.196274 5.4113288
19.39336 -33.201057 5.4038138
19.281845 -33.236179 5.4001951
19.170162 -33.25729 5.394906
19.047884 -33.286407 5.3898959
18.932343 -33.299877 5.3834944
18.820799 -33.333481 5.3798757
18.713114 -33.346371 5.3740306
18.596735 -33.370605 5.3690205
18.477501 -33.389248 5.3631754
18.356308 -33.417618 5.3584433
18.248825 -33.429058 5.3525982
18.142956 -33.470867 5.3506498
18.037422 -33.485119 5.3453608
17.912525 -33.50494 5.3395157
17.803097 -33.525093 5.3347836
17.690619 -33.553242 5.3308868
17.579964 -33.58453 5.3275466
17.475147 -33.6124 5.3242064
17.380308 -33.659309 5.3239284
17.296154 -33.75605 5.3306084
17.217093 -33.834225 5.3353405
17.130579 -33.898083 5.3378453
17.026377 -33.941677 5.3367319
16.925594 -33.99205 5.3367319
16.807993 -34.008385 5.3314438
16.704058 -34.022045 5.3267117
16.599443 -34.048981 5.3236499
16.482046 -34.079559 5.3203096
16.356859 -34.07832 5.3125157
16.267584 -34.121029 5.3125157
16.146769 -34.143318 5.3080626
16.048904 -34.167545 5.3052793
15.934903 -34.188087 5.3011036
15.82508 -34.217243 5.2983208
15.704297 -34.237988 5.2938666
15.606396 -34.26096 5.2910833
15.493255 -34.281845 5.2871866
15.386114 -34.299679 5.2832899
15.267821 -34.324318 5.2796712
15.163503 -34.331566 5.2746611
15.050008 -34.366329 5.2727127
14.947664 -34.393696 5.2704859
14.846591 -34.407253 5.2665892
14.721508 -34.430801 5.2626925
14.621254 -34.445522 5.2590737
14.512074 -34.472324 5.2565684
14.400575 -34.493298 5.2532282
14.299605 -34.505268 5.2493315
14.188131 -34.525558 5.2459912
14.078852 -34.568127 5.2457128
13.978652 -34.580997 5.242094
13.861105 -34.60268 5.2387543
13.75857 -34.62653 5.2365279
13.658195 -34.655602 5.2351356
13.551988 -34.669624 5.2315168
13.43585 -34.693562 5.228734
13.330397 -34.708759 5.2253938
13.220311 -34.729649 5.22261
13.102525 -34.729805 5.2167649
12.939358 -34.571083 5.1878166
12.750282 -34.67292 5.1919923
12.571486 -34.521126 5.1633224
12.352717 -34.235973 5.1151686
12.237689 -34.197338 5.1045914
12.118949 -34.20388 5.0998592
12.026733 -34.228016 5.0987463
11.913408 -34.229881 5.0937362
11.809215 -34.257587 5.0926228
11.703896 -34.262314 5.0884471
11.597747 -34.28376 5.0864987
11.489056 -34.297363 5.083437
11.39136 -34.323673 5.082602
11.289281 -34.336533 5.0798182
11.182444 -34.354813 5.0775919
11.073856 -34.38789 5.0773134
10.97777 -34.397896 5.0745301
10.878685 -34.418976 5.0731387
10.761532 -34.445408 5.0717463
10.668982 -34.465897 5.0706334
10.566091 -34.49551 5.0703549
10.459095 -34.511543 5.0681276
10.364154 -34.523628 5.0659013
10.252826 -34.546528 5.0645099
10.154081 -34.567421 5.063396
10.053638 -34.582329 5.0614476
9.9449472 -34.613743 5.0614476
9.8444605 -34.628044 5.0594993
9.7399092 -34.674057 5.0617261
