# .PCD v0.7 - Point Cloud Data file format
VERSION 0.7
FIELDS x y z
SIZE 4 4 4
TYPE F F F
COUNT 1 1 1
WIDTH 108
HEIGHT 1
VIEWPOINT 0 0 0 1 0 0 0
POINTS 108
DATA ascii
17.755962 -33.436337 6.2199159
17.633669 -33.445229 6.2118101
17.522457 -33.47467 6.2075949
17.414347 -33.495457 6.2024074
17.305351 -33.514145 6.1968951
17.184677 -33.538486 6.1913829
17.079317 -33.563477 6.1871676
16.972172 -33.584621 6.1823044
16.860062 -33.610134 6.1777649
16.746187 -33.631744 6.1725769
16.633213 -33.654743 6.1677136
16.532867 -33.673374 6.1631742
16.425798 -33.692799 6.1583099
16.304403 -33.712254 6.1524739
16.193203 -33.737354 6.1482592
16.094627 -33.758255 6.1443682
15.975 -33.780102 6.1391797
15.874761 -33.796803 6.1346407
15.765242 -33.824081 6.131074
15.651558 -33.842052 6.1258864
15.537759 -33.874905 6.1229682
15.434294 -33.883141 6.1171317
15.322315 -33.90361 6.1125927
15.22031 -33.930058 6.109674
15.100007 -33.947048 6.1041617
15.00231 -33.96661 6.1005955
14.8884 -33.997303 6.0976777
14.782389 -34.013409 6.0931382
14.683131 -34.028431 6.088923
14.564002 -34.062424 6.086329
14.465519 -34.078632 6.082438
14.355156 -34.099575 6.0785475
14.244796 -34.120163 6.074656
14.148618 -34.140934 6.0717382
14.039007 -34.162678 6.068171
13.922683 -34.184681 6.0642805
13.82648 -34.204544 6.0613623
13.709414 -34.224003 6.0571475
13.609414 -34.251148 6.055202
13.505035 -34.266983 6.0513105
13.401385 -34.284344 6.0477443
13.288622 -34.313396 6.0454745
13.183553 -34.326416 6.0412593
13.074628 -34.346939 6.0380173
12.969872 -34.378193 6.0367198
12.868758 -34.382458 6.0315323
12.752449 -34.400509 6.0276408
12.658257 -34.422668 6.0256958
12.545998 -34.451134 6.0237503
12.441717 -34.482639 6.0227776
12.348077 -34.505806 6.0211568
12.233019 -34.525826 6.0179143
12.206048 -34.738346 6.0493655
12.103575 -34.776268 6.0496898
12.001626 -34.815762 6.0503383
11.899887 -34.836063 6.0480685
11.79774 -34.874954 6.048717
11.696096 -34.915424 6.0496898
11.598546 -34.947948 6.0496898
11.496593 -34.967075 6.04742
11.386068 -34.980392 6.0438533
11.275516 -35.014107 6.0435286
11.179012 -35.028469 6.040935
11.07877 -35.052025 6.039638
10.959527 -35.079151 6.0380173
10.862407 -35.090755 6.035099
10.754194 -35.109619 6.0328293
10.648255 -35.135708 6.0318565
10.554533 -35.157791 6.0308833
10.438974 -35.173752 6.0279655
10.340155 -35.200871 6.0276408
10.237957 -35.216343 6.0253716
10.125093 -35.240746 6.0240746
10.025566 -35.265087 6.0234265
9.9125919 -35.288807 6.0221291
9.8242207 -35.305317 6.0208321
9.71064 -35.326496 6.0192113
9.6093645 -35.343948 6.0175896
9.5070429 -35.357304 6.0153198
9.3969297 -35.390816 6.0159688
9.2950535 -35.405464 6.0140228
9.1936693 -35.42173 6.0124021
9.0870628 -35.443119 6.0114293
8.9813747 -35.46801 6.0111051
8.8694239 -35.494137 6.0107803
8.7798281 -35.504211 6.0088353
8.6668396 -35.525864 6.0078626
8.5666761 -35.546089 6.0072141
8.4660101 -35.564114 6.0062413
8.3604488 -35.589077 6.0062413
8.2552662 -35.61565 6.0065656
8.1553335 -35.636639 6.0062413
8.0486946 -35.65683 6.0055928
7.9424376 -35.678631 6.0052691
7.8410764 -35.692959 6.0039716
7.7347183 -35.714134 6.0036473
7.6291332 -35.738857 6.0039716
7.5284863 -35.756161 6.0033231
7.4211617 -35.772545 6.0023503
7.3220291 -35.796989 6.0029988
7.2224245 -35.819237 6.0033231
7.1083269 -35.834007 6.0020266
7.002728 -35.85881 6.0026746
6.9092002 -35.87896 6.0029988
6.8016152 -35.89349 6.0020266
6.6899009 -35.920494 6.0029988
6.5944109 -35.930122 6.0017018
6.5021257 -35.993069 6.0091596
