# .PCD v0.7 - Point Cloud Data file format
VERSION 0.7
FIELDS x y z
SIZE 4 4 4
TYPE F F F
COUNT 1 1 1
WIDTH 96
HEIGHT 1
VIEWPOINT 0 0 0 1 0 0 0
POINTS 96
DATA ascii
4.9139109 -31.415445 0.73824263
4.8097749 -31.285913 0.73490024
4.7100711 -31.254572 0.73383254
4.6195588 -31.245844 0.73332191
4.5196595 -31.248329 0.73304337
4.4273257 -31.225195 0.73220778
4.3370857 -31.215652 0.73169714
4.2336178 -31.189499 0.73076874
4.1472917 -31.207146 0.73090798
4.0557466 -31.184898 0.73011881
3.9663727 -31.178249 0.72970104
3.8632383 -31.14889 0.72872621
3.7747974 -31.147644 0.72844762
3.6718061 -31.069355 0.72635865
3.5866315 -31.09339 0.72668362
3.4891527 -31.106491 0.72673005
3.3985803 -31.082323 0.72594088
3.3131664 -31.053341 0.72505885
3.2108564 -31.017853 0.72399116
3.1198165 -30.982931 0.72296989
3.0267103 -30.98011 0.72269136
2.9317629 -30.957108 0.72194862
2.840627 -30.973633 0.72213429
2.7558045 -30.93914 0.72115946
2.661077 -30.913315 0.72037029
2.5670242 -30.893179 0.71972036
2.4793057 -30.88229 0.71930259
2.3875093 -30.887516 0.71925616
2.2954113 -30.888485 0.71911693
2.2007675 -30.853275 0.71814203
2.1141884 -30.853317 0.7180028
2.0223722 -30.855463 0.71790993
1.9360797 -30.858992 0.7178635
1.8397342 -30.784767 0.71600664
1.7544435 -30.80176 0.71628517
1.6698292 -30.832495 0.71688867
1.5713269 -30.805641 0.71614593
1.4797279 -30.806171 0.71605307
1.3997049 -30.823923 0.71637803
1.3028605 -30.828167 0.71637803
1.2115448 -30.835894 0.7164709
1.1313266 -30.852947 0.71679586
1.0386999 -30.824194 0.71605307
0.94742429 -30.833136 0.71619231
0.86187446 -30.855648 0.71665657
0.7761597 -30.875923 0.71707433
0.6788069 -30.862217 0.716703
0.59330952 -30.899977 0.7175386
0.50114006 -30.871614 0.71684223
0.41463438 -30.850901 0.7163316
0.32353041 -30.893982 0.71730644
0.23206174 -30.920799 0.71790993
0.14032792 -30.923349 0.71795636
0.059410125 -30.945606 0.718467
-0.03782098 -30.957634 0.71874553
-0.12431738 -30.969404 0.71902406
-0.22145399 -30.946867 0.71851343
-0.30791494 -30.950129 0.71860623
-0.39436296 -30.951149 0.71865267
-0.48635757 -30.959837 0.71888483
-0.5782131 -30.95826 0.71888483
-0.66431761 -30.940529 0.71851343
-0.7562654 -30.944422 0.71865267
-0.84725231 -30.91206 0.71795636
-0.93975741 -30.93539 0.71855986
-1.0208735 -30.936821 0.71865267
-1.1189995 -30.959436 0.71925616
-1.2052931 -30.952196 0.7191633
-1.2967916 -30.940495 0.71897763
-1.3889447 -30.944498 0.7191633
-1.476113 -30.956476 0.7195347
-1.5610437 -30.922277 0.71883839
-1.6610739 -30.971132 0.72009176
-1.7357371 -30.949015 0.71967399
-1.839901 -30.969034 0.72027743
-1.9300348 -30.935501 0.71962756
-2.0177145 -30.949944 0.72009176
-2.1034591 -30.934214 0.71985966
-2.197072 -30.953764 0.7204631
-2.2880657 -31.009321 0.72190219
-2.3860879 -31.009954 0.72208786
-2.4752166 -31.035063 0.72283065
-2.5564563 -31.028477 0.72283065
-2.6530719 -31.01033 0.72259855
-2.7513618 -31.011801 0.72283065
-2.8276732 -31.010958 0.72296989
-2.9247088 -30.99794 0.72287703
-3.0108716 -30.985672 0.72278422
-3.0989819 -30.993059 0.72315562
-3.1872373 -30.947927 0.72231996
-3.2937365 -31.025248 0.72436255
-3.375813 -31.024469 0.72454822
-3.4663651 -30.95211 0.72310913
-3.5659513 -31.009228 0.72468752
-3.64996 -30.977304 0.72417682
-3.7409999 -31.004709 0.72505885
