# .PCD v0.7 - Point Cloud Data file format
VERSION 0.7
FIELDS x y z
SIZE 4 4 4
TYPE F F F
COUNT 1 1 1
WIDTH 1515
HEIGHT 1
VIEWPOINT 0 0 0 1 0 0 0
POINTS 1515
DATA ascii
-8.2064877 -18.243227 3.7689562
-5.9350433 -13.095883 0
-5.9012561 -13.021331 0.3319144
-9.3023529 -20.525972 1.0509223
-14.306092 -31.5669 2.4234793
-22.907589 -50.546406 5.1774254
-18.703039 -41.268921 5.298563
-4.1923375 -9.2505407 1.4273595
-4.2166352 -9.3041553 1.6782717
-8.3588104 -18.444012 3.8152442
-5.9686751 -13.060802 0
-5.9338241 -12.98454 0.33145016
-9.5552902 -20.909121 1.0720711
-14.403537 -31.518173 2.4232004
-23.00585 -50.341969 5.1638632
-22.990648 -50.308704 6.4684329
-4.249126 -9.2980423 1.6795686
-8.3693314 -18.313978 3.7937667
-5.9961591 -13.030597 0
-5.9661255 -12.965329 0.33135733
-9.6943464 -21.067339 1.081481
-14.499343 -31.509354 2.4254324
-23.13257 -50.270714 5.1627483
-23.054184 -50.100368 6.4493837
-4.2668538 -9.2725439 1.6769748
-8.4180698 -18.293789 3.794137
-6.0328579 -13.002623 0
-5.9967299 -12.924756 0.33080027
-9.8428869 -21.21438 1.0906112
-23.35638 -50.340023 3.8805525
-23.294579 -50.206821 5.1636772
-23.24909 -50.10878 6.4598374
-4.3720384 -9.4230576 1.459926
-4.2926407 -9.2519321 1.6756778
-8.684782 -18.718317 3.8878241
-6.0688701 -12.979231 0
-6.0257363 -12.886983 0.33028963
-9.9946413 -21.375107 1.1003939
-14.705919 -31.450916 2.4278042
-23.420673 -50.088783 5.1586614
-9.1917181 -19.65793 3.0498397
-4.2749333 -9.1426153 1.6581688
-4.367228 -9.3400021 1.9426159
-6.0886426 -12.939029 0
-6.0520973 -12.861366 0.3300111
-10.142108 -21.553085 1.1108285
-14.809055 -31.470856 2.4321291
-23.515005 -49.971947 5.1525302
-8.9738817 -19.070477 2.4647181
-4.2460012 -9.0232153 1.6383902
-6.1206899 -12.901767 0
-6.0856175 -12.827838 0.32963973
-10.296258 -21.703421 1.1202383
-14.056978 -29.630623 2.293314
-23.493494 -49.521801 5.1137013
-9.0320473 -19.038601 2.4642534
-9.254673 -19.507872 3.0345304
-4.361196 -9.1929398 1.9170648
-6.1515217 -12.873796 0
-6.1153822 -12.798164 0.3293148
-10.436069 -21.840424 1.1288097
-14.141389 -29.594849 2.2935929
-23.639423 -49.472168 5.1153731
-9.0877485 -19.018679 2.4649501
-4.4807081 -9.3771477 1.7074534
-4.4037991 -9.2161922 1.9244709
-6.1822448 -12.845754 0
-6.1450291 -12.768425 0.32898983
-10.495288 -21.807592 1.1286234
-14.205811 -29.517488 2.290663
-23.976971 -49.820457 5.1582894
-9.1322098 -18.975328 2.4626274
-4.3844914 -9.1102991 1.6610869
-4.588903 -9.5350351 1.9937179
-6.2111154 -12.814042 0
-6.1728134 -12.735023 0.32857203
-10.771383 -22.222252 1.1516356
-14.299499 -29.501043 2.2924769
-9.1565723 -18.890762 2.4549613
-4.8626566 -10.032062 1.5668108
-4.3238354 -8.9204283 1.6286628
-4.5460744 -9.3789263 1.9637233
-6.2469482 -12.785481 0
-6.2066436 -12.702991 0.32824707
-10.942875 -22.396524 1.1624429
-14.377213 -29.425503 2.2901051
-4.5194135 -9.2497768 1.4468437
-4.3622332 -8.9280796 1.6325537
-4.4995871 -9.209198 1.9311365
-6.2777901 -12.752535 0
-6.2390094 -12.673757 0.32796857
-11.119576 -22.588009 1.1740887
-24.106255 -48.968803 3.8166556
-9.1987495 -18.686094 1.9431137
-4.8797998 -9.9126949 1.2920605
-4.5083504 -9.1581421 1.4345964
-4.384346 -8.9062433 1.6309326
-4.5381765 -9.2187309 1.9359504
-6.3080454 -12.724205 0
-6.2717104 -12.650912 0.3278293
-11.289091 -22.771667 1.1852689
-24.337719 -49.092564 3.8315835
-9.2102041 -18.578262 1.9345676
-4.9136372 -9.9114885 1.2936865
-4.497839 -9.0727663 1.4231843
-4.4109516 -8.8975029 1.6315809
-4.5420761 -9.1619997 1.9266927
-6.3181562 -12.650133 -0.3282935
-6.3430939 -12.700063 0
-6.3020749 -12.617935 0.32745793
-11.463734 -22.952543 1.1964489
-14.652174 -29.336397 2.2930348
-9.2332611 -18.486719 1.9278795
-4.8968711 -9.8044529 1.2816069
-4.5406694 -9.0912714 1.4281944
-4.4470344 -8.9037962 1.6351477
-4.7009721 -9.4122276 1.9822384
-6.3458629 -12.622831 -0.328015
-6.3718276 -12.674479 0
-6.3279009 -12.587103 0.32708657
-11.634154 -23.142004 1.2079083
-14.700246 -29.2409 2.2885704
-9.2458467 -18.391317 1.9204481
-4.941258 -9.8288708 1.2864852
-4.5866933 -9.1235914 1.4351531
-4.4703279 -8.8921242 1.6351477
-6.3765731 -12.596142 -0.32778287
-6.4044871 -12.651283 0
-6.3594141 -12.562247 0.32690087
-9.1776199 -18.129269 0.94760019
-9.1778288 -18.129683 1.4209393
-9.1046963 -17.985218 1.8806902
-4.5396976 -8.9676189 1.4126071
-4.4835548 -8.8567152 1.6309326
-4.6293259 -9.1446686 1.9311365
-6.409905 -12.574724 -0.32769004
-6.4279809 -12.610186 0
-6.3899274 -12.535533 0.32666874
-9.2000809 -18.048393 0.94471198
-9.191268 -18.031105 1.4152193
-9.1214209 -17.894081 1.8738163
-4.840003 -9.4949465 1.2462971
-4.8804283 -9.5742521 1.5103066
-4.4652472 -8.7597637 1.615369
-4.6334209 -9.0896807 1.9222493
-6.4484649 -12.552746 -0.3276436
-6.4602551 -12.575697 0
-6.4219689 -12.501169 0.32629737
-9.2393913 -17.985636 0.94294178
-9.2214327 -17.950676 1.4111735
-9.1630344 -17.836996 1.8708438
-4.8080854 -9.3595419 1.2305006
-5.0598068 -9.8495483 1.5562336
-4.4747095 -8.7105827 1.6088842
-4.6601582 -9.0715828 1.9215086
-6.4795957 -12.516444 -0.3272258
-6.491456 -12.539354 0
-6.4584537 -12.475605 0.32615814
-9.2967691 -17.958296 0.94303501
-9.270443 -17.90744 1.4100573
-9.2126169 -17.795742 1.8695433
-4.8602972 -9.3884926 1.2363081
-4.9213681 -9.5064621 1.5044613
-4.530179 -8.7508125 1.6189356
-4.6805029 -9.0411892 1.9181758
-6.5083108 -12.497028 -0.32713297
-6.5266933 -12.532326 0
-6.482451 -12.447373 0.32583317
-9.3480005 -17.949701 0.9437803
-9.3114033 -17.879429 1.4096388
-9.2579098 -17.776711 1.8699149
-4.8364263 -9.2867346 1.2244607
-4.5743356 -8.7834778 1.6270416
-6.5493979 -12.480061 -0.3272258
-6.5530214 -12.486966 0
-6.517808 -12.419866 0.32564747
-9.4192009 -17.948551 0.94527102
-9.3758736 -17.865988 1.4108945
-9.3155622 -17.751064 1.8702863
-4.7031155 -8.9619179 1.1835757
-4.8427773 -9.2280474 1.4646578
-4.5422978 -8.6554756 1.6059659
-5.1473913 -9.8084984 2.0870345
-6.5888944 -12.470562 -0.32745793
-6.5841303 -12.461545 0
-6.5459275 -12.38924 0.32532254
-9.4963522 -17.973402 0.94797277
-9.4480982 -17.882072 1.4142427
-9.3883553 -17.768999 1.8749309
-4.8264909 -9.1349249 1.2081996
-4.9527245 -9.3738422 1.4899873
-4.5922661 -8.6916161 1.6150447
-5.0985551 -9.6498508 2.0562994
-6.6236939 -12.452113 -0.32745793
-6.6076331 -12.421921 0
-6.581439 -12.372677 0.32536894
-9.5737171 -17.997965 0.95067465
-9.5542154 -17.961304 1.4226135
-9.5024681 -17.864021 1.88775
-4.9629965 -9.3301105 1.2358435
-4.7500749 -8.9298315 1.4215142
-4.635057 -8.7136049 1.6215296
-6.659668 -12.430643 -0.3274115
-6.6416283 -12.396971 0
-6.6115117 -12.340757 0.32504401
-13.453754 -25.112186 1.3285594
-5.0525727 -9.4309092 1.2511754
-4.7625198 -8.8895102 1.4173388
-4.6730065 -8.7224283 1.6257447
-4.9118018 -9.1681538 1.9596499
-6.6877084 -12.399679 -0.32708657
-6.6743197 -12.374856 0
-6.6497426 -12.329288 0.3252297
-13.651855 -25.311903 1.3411369
-15.913999 -29.506144 2.3442361
-4.8023672 -8.9040689 1.4217925
-4.7095237 -8.7319279 1.6299598
-4.6612186 -8.6423645 1.8500398
-6.7165852 -12.370412 -0.32680804
-6.7012177 -12.342109 0
-6.6841474 -12.31067 0.3252297
-13.757759 -25.338644 1.3445842
-15.974441 -29.421263 2.3410273
-4.8338289 -8.9028063 1.423741
-4.7536654 -8.7551632 1.6367689
-4.9263539 -9.0732164 1.9452081
-6.743433 -12.337571 -0.32643667
-6.7308617 -12.314571 0
-6.7204175 -12.295463 0.32532254
-13.355124 -24.434113 1.2985598
-13.331329 -24.390577 1.9436945
-13.307055 -24.346167 2.588527
-4.8539224 -8.8805828 1.4223492
-4.7724175 -8.7314634 1.6348234
-4.8451548 -8.864542 1.9033637
-6.7773347 -12.30757 -0.32620454
-6.7579365 -12.272343 0
-6.7609382 -12.277794 0.32541537
-13.446271 -24.418289 1.2999573
-13.424244 -24.378288 1.946066
-13.376746 -24.292032 2.5872264
-13.344862 -24.234131 3.2352619
-4.8989925 -8.8965197 1.4273595
-4.8845472 -8.8702879 1.6636808
-4.9023676 -8.9026489 1.9148432
-6.8126473 -12.290343 -0.32625097
-6.7950912 -12.258671 0
-6.7932601 -12.255367 0.32532254
-13.886338 -25.051622 1.3357333
-13.88401 -25.047422 2.002569
-40.861687 -73.716446 7.8633027
-28.6933 -51.764091 6.9211879
-4.9007735 -8.8412304 1.4206791
-4.8997321 -8.8393526 1.6604384
-6.8403134 -12.254363 -0.32583317
-6.8216853 -12.220991 0
-6.8373895 -12.249125 0.32569391
-13.970346 -25.027756 1.336665
-13.948544 -24.988695 2.0011737
-31.001623 -55.539143 5.934123
-28.895176 -51.765461 6.9328032
-4.9298806 -8.8318386 1.4215142
-4.9345946 -8.8402843 1.6633565
-4.7150326 -8.4469404 1.8226374
-6.8696084 -12.226499 -0.32560107
-6.8499064 -12.191433 0
-6.8725462 -12.231728 0.32574031
-14.099874 -25.094893 1.3423482
-14.138474 -25.163593 2.0183339
-29.075611 -51.748646 6.9413981
-4.9467626 -8.8042259 1.4192874
-5.0066304 -8.910779 1.6792445
-4.8926396 -8.7078981 1.881886
-6.902741 -12.205527 -0.32555464
-6.8849101 -12.173998 0
-6.9165211 -12.229893 0.32620454
-14.111873 -24.952818 1.3368514
-14.092796 -24.919088 2.0018713
-29.282597 -51.777912 6.9562659
-5.0054526 -8.8507147 1.4290296
-4.9634886 -8.7765121 1.6565475
-4.8898478 -8.6462994 1.8715175
-6.9298754 -12.174039 -0.3252297
-6.9099755 -12.13908 0
-6.947679 -12.205316 0.32606527
-8.9740076 -15.765062 0.84595513
-14.181084 -24.912579 2.0045221
-29.483089 -51.794338 6.9695067
-5.0497451 -8.8711262 1.4345964
-4.9363365 -8.671895 1.8800344
-6.9600005 -12.143015 -0.32495117
-6.9429798 -12.113319 0
-6.9788918 -12.175975 0.32583317
-9.0078297 -15.715834 0.84474397
-14.247003 -24.856544 2.0034058
-29.688009 -51.796249 6.9815865
-5.0681658 -8.8423576 1.4323697
-5.2710819 -9.1963825 1.7414987
-4.9698644 -8.6708517 1.8829968
-6.9878864 -12.113141 -0.32467264
-6.9747787 -12.09042 0
-9.3478222 -16.203968 0.43432045
-16.176617 -28.041334 1.5096759
-29.880173 -51.795742 6.9927368
-5.1027336 -8.8453255 1.4351531
-5.1182437 -8.8722124 1.682811
-4.983254 -8.6382151 1.8789237
-7.0218892 -12.084213 -0.32448694
-6.9996653 -12.045968 0
-9.4569483 -16.27479 0.43701288
-16.52059 -28.430857 1.5334334
-42.143562 -72.526321 7.8257747
-30.09864 -51.797794 7.0057459
-5.0926852 -8.7641792 1.4245759
-5.1312189 -8.830493 1.6779474
-5.0044427 -8.6123199 1.8767018
-7.0464387 -12.053704 -0.32416198
-7.0422812 -12.046593 0
-12.442016 -21.283428 0.57237828
-15.718788 -26.888708 1.4524714
-34.783791 -59.50148 6.4301658
-8.3760958 -14.328229 1.9408783
-5.2395554 -8.9628325 1.4590908
-5.2011323 -8.8971062 1.6931868
-5.0448279 -8.6297302 1.8833673
-7.0771008 -12.024128 -0.32392988
-7.0597334 -11.99462 0
-9.3296432 -15.85124 0.42703223
-15.835996 -26.905655 1.4559186
-34.910694 -59.313927 6.4210625
-30.498306 -51.817196 7.0312991
-5.2058501 -8.8448372 1.4423901
-5.2495313 -8.9190521 1.7003201
-5.0674195 -8.609642 1.8822563
-7.0995445 -11.976038 -0.32323354
-7.0871792 -11.955179 0
-8.8808022 -14.980796 0.40433207
-15.883761 -26.793907 1.4525645
-32.959274 -55.598145 6.0299873
-30.710567 -51.804863 7.0426817
-5.286581 -8.9177971 1.7032382
-5.0804095 -8.5700111 1.8770721
-7.124692 -11.951783 -0.32304785
-7.1071548 -11.922364 0
-15.982945 -26.811642 1.455639
-30.907249 -51.847397 7.0587106
-5.2673359 -8.8360395 1.4457303
-5.3154297 -8.9167175 1.705508
-5.2140503 -8.7466516 1.9185461
-7.1549788 -11.92202 -0.32281578
-7.1394105 -11.896079 0
-8.9545259 -14.920525 0.40400711
-17.495546 -29.15204 1.5855137
-31.115126 -51.845737 7.0710225
-8.6139622 -14.353058 2.3525825
-5.3479571 -8.9110603 1.7074534
-5.1722169 -8.6182327 1.8937358
-7.1944571 -11.907583 -0.32300144
-7.1746764 -11.874844 0
-12.997172 -21.511686 0.58351946
-17.824751 -29.501839 1.6074078
-34.990211 -57.912479 6.3125648
-5.1969175 -8.6014452 1.1752127
-5.2889519 -8.7537718 1.4373798
-5.407032 -8.9492064 1.7178291
-5.2424865 -8.6768665 1.9100292
-7.2266402 -11.885737 -0.32295501
-7.2088461 -11.856472 0
-13.084199 -21.51973 0.58472639
-18.20598 -29.943584 1.6342399
-33.849297 -55.672325 6.0786629
-5.3843713 -8.8557367 1.4565858
-5.397141 -8.8767395 1.706805
-5.215641 -8.5782242 1.8915139
-7.2493696 -11.848456 -0.32249081
-7.2367096 -11.827765 0
-13.174505 -21.532568 0.58607262
-18.32081 -29.943752 1.637035
-35.020023 -57.237144 6.2601743
-5.2313972 -8.5502577 1.1721928
-8.5234623 -13.930848 2.295243
-5.3755589 -8.7858772 1.6922141
-5.3657446 -8.7698374 1.9370614
-7.2823958 -11.823489 -0.32239795
-7.2696743 -11.802835 0
-9.5127277 -15.444592 0.42113671
-17.122971 -27.800364 1.522626
-35.017384 -56.853218 6.2295194
-5.2452846 -8.5160933 1.1696376
-5.4616332 -8.8673515 1.7110201
-5.6535468 -9.178937 2.0311186
-7.3090653 -11.792908 -0.32211941
-7.2983923 -11.775687 0
-9.6127014 -15.50974 0.42364347
-18.504551 -29.856413 1.6380597
-35.038589 -56.533474 6.2051816
-5.2784648 -8.5166082 1.1717283
-5.45678 -8.8043137 1.4557507
-5.4177566 -8.7413502 1.6896203
-5.6263528 -9.0779133 2.0122333
-7.3418417 -11.763105 -0.32193375
-7.3268766 -11.739128 0
-17.415628 -27.903337 1.5338992
-34.873966 -55.875099 4.605741
-35.052582 -56.161282 6.1763854
-5.2894158 -8.4747066 1.1682438
-5.4623899 -8.7518463 1.4499054
-5.4650431 -8.7560978 1.6957806
-5.6173797 -9.0001707 1.9989022
-7.3714719 -11.737476 -0.32179448
-7.3575034 -11.715235 0
-18.702644 -29.779921 1.6399231
-35.000156 -55.730186 4.6018343
-34.94239 -55.63821 6.1295676
-5.3014402 -8.4413986 1.1656884
-5.4899688 -8.7415895 1.4507406
-5.4558868 -8.6873217 1.6854051
-8.5233183 -13.571544 3.0194604
-7.3988805 -11.708395 -0.32156238
-7.3966007 -11.704787 0
-9.7519531 -15.432026 0.42382914
-17.578672 -27.817457 1.5345514
-35.079975 -55.512482 4.591929
-9.8307562 -15.556729 2.1520405
-5.5725493 -8.8183079 1.4660496
-5.4611483 -8.6420212 1.6795686
-5.4796205 -8.6712523 1.9326178
-7.4293995 -11.684314 -0.32146952
-9.7907152 -15.397985 0.42364347
-10.673523 -16.786388 0.92766249
-35.09568 -55.195438 4.5737925
-10.368594 -16.306824 1.8028468
-5.6014023 -8.8093987 1.467163
-5.4354887 -8.5484648 1.6643294
-7.4555354 -11.653416 -0.32119098
-7.440299 -11.629601 0
-9.8088942 -15.331846 0.42257577
-5.4790254 -8.5640211 1.1889186
-5.6355877 -8.8087358 1.469668
-5.5550618 -8.6828699 1.693511
-5.4358134 -8.4964781 1.9004014
-7.4975233 -11.63834 -0.32142311
-7.4778814 -11.60785 0
-9.8526812 -15.294231 0.42239004
-10.67449 -16.569918 0.91918421
-10.6579 -16.544165 1.3761557
-10.258119 -15.923589 1.7671763
-5.4596448 -8.4749584 1.1789297
-5.6825399 -8.8209572 1.4746783
-5.3824487 -8.3551283 1.6328779
-5.4539633 -8.4661398 1.8974388
-7.4995432 -11.574806 0
-10.0362 -15.489886 0.42851776
-10.687414 -16.49497 0.91657555
-10.61547 -16.383932 1.3651342
-10.26079 -15.836518 1.7604882
-5.4872131 -8.4689732 1.1800911
-5.699151 -8.7960787 1.4730083
-5.3849859 -8.3111954 1.6270416
-5.3168693 -8.2060633 1.8422636
-7.5493016 -11.576185 -0.32086605
-7.5305786 -11.547475 0
-10.075565 -15.449987 0.4282392
-10.722127 -16.441431 0.91536444
-10.577941 -16.220335 1.3541126
-10.289244 -15.777644 1.7573298
-5.4927869 -8.4227018 1.1759098
-5.7901387 -8.878664 1.489709
-5.4484344 -8.3546915 1.6387143
-5.3293858 -8.1721411 1.8381901
-7.5792251 -11.547051 -0.32068038
-7.5615129 -11.520067 0
-10.155372 -15.471845 0.42967826
-10.764281 -16.399527 0.91480541
-10.600839 -16.15052 1.3509039
-10.341472 -15.755372 1.7582587
-5.6234851 -8.5674553 1.1984431
-10.020126 -15.265797 2.5663521
-5.4136348 -8.2477455 1.620881
-5.3352737 -8.1283617 1.8318949
-7.610147 -11.519506 -0.32054108
-7.5967641 -11.499249 0
-10.808488 -16.360847 0.91443276
-10.641015 -16.107342 1.3499273
-10.413422 -15.762833 1.7625318
-5.8066969 -8.7896175 1.4805236
-5.6589141 -8.5659189 1.6867019
-5.3702021 -8.1288939 1.835598
-7.6378593 -11.491549 -0.32035542
-7.6255255 -11.472992 0
-10.905062 -16.407221 0.45739198
-10.865194 -16.347239 0.91536444
-10.691476 -16.085871 1.3506249
-10.484955 -15.77515 1.7671763
-5.6386504 -8.4836369 1.1912416
-5.8619714 -8.8196344 1.7398775
-5.3700352 -8.0794916 1.8278216
-7.6688061 -11.468513 -0.32030898
-7.6519737 -11.443342 0
-10.965281 -16.398314 0.45799541
-10.925235 -16.338425 0.91657555
-10.770731 -16.107368 1.3549498
-10.53782 -15.759055 1.7686626
-5.672255 -8.4827204 1.1933323
-9.4897718 -14.191725 2.3993447
-5.3980374 -8.0726347 1.8296732
-7.6949863 -11.434097 -0.31998405
-7.6814275 -11.41395 0
-11.039565 -16.403858 0.45906314
-11.006013 -16.354002 0.91927743
-10.878629 -16.164721 1.3624835
-10.596763 -15.745892 1.7707062
-10.413256 -15.473215 2.181078
-6.066318 -9.0140343 1.5270073
-5.8641872 -8.713685 1.7256109
-5.4153824 -8.0467997 1.8274513
-7.722404 -11.405942 -0.31979835
-7.7031808 -11.377549 0
-11.14138 -16.455748 0.46138421
-11.080763 -16.366217 0.92169976
-10.989721 -16.23175 1.3707148
-10.664138 -15.750866 1.7746077
-10.474244 -15.470392 2.1847949
-6.0537148 -8.9412985 1.5175436
-5.5775876 -8.2380619 1.6344992
-10.974834 -16.209763 3.6882298
-7.7553482 -11.385986 -0.31984478
-7.7315426 -11.351036 0
-11.327986 -16.631142 0.4671869
-11.182653 -16.417772 0.92635816
-11.075438 -16.260363 1.3757371
-10.852692 -15.93334 1.7985739
-10.533058 -15.46407 2.1880469
-6.0541296 -8.8883486 1.51142
-5.6050129 -8.2289791 1.6357961
-7.7913585 -11.366223 -0.31993762
-7.7708426 -11.336293 0
-21.043894 -30.699345 1.7356987
-11.185677 -16.317936 1.3834103
-5.5717883 -8.1282597 1.8567054
-7.8128543 -11.329607 -0.31951982
-7.7979288 -11.307963 0
-14.995731 -21.745668 0.61327565
-21.137484 -30.65197 1.7363508
-35.654556 -51.703522 5.8594379
-5.9950371 -8.6935463 1.4841421
-5.6747241 -8.2290535 1.6422809
-5.9849849 -8.6789694 1.9863118
-7.8449883 -11.300078 -0.31938055
-7.8265724 -11.273552 0
-35.901791 -51.713657 4.4021916
-35.815678 -51.589619 5.8592525
-5.8795004 -8.4689503 1.6938354
-7.8753691 -11.276486 -0.31933415
-7.8637495 -11.25985 0
-30.015543 -42.978287 3.6657028
-6.0521908 -8.6659365 1.4855338
-5.8748779 -8.4120483 1.6857293
-5.6616406 -8.10672 1.8630005
-7.9010797 -11.246273 -0.31910205
-7.8790646 -11.214936 0
-15.189521 -21.620525 0.61346132
-22.845499 -32.517921 1.8532752
-30.08153 -42.817577 3.6591456
-30.022312 -42.733288 4.8723683
-6.2190218 -8.8520575 1.2651135
-6.0627031 -8.6295567 1.4821937
-5.9221692 -8.4295225 1.6925384
-7.9255319 -11.214368 -0.31882352
-7.9103527 -11.192889 0
-22.973118 -32.50621 1.8562566
-30.195227 -42.725258 3.658448
-30.111649 -42.606995 4.867538
-6.2437177 -8.8346558 1.2651135
-6.092494 -8.6206789 1.4835854
-6.0913668 -8.6190844 1.9885336
-7.9718757 -11.213377 -0.31942698
-7.9369411 -11.164237 0
-23.011705 -32.36866 1.8520641
-30.403427 -42.76598 3.6691904
-30.25589 -42.558453 4.8716254
-6.3293657 -8.9029942 1.2774254
-5.9627676 -8.387331 1.4462869
-6.0343356 -8.4879999 1.7110201
-6.2976193 -8.8583393 2.0477822
-7.9911513 -11.17016 -0.31886992
-7.9700313 -11.140638 0
-24.12476 -33.721977 1.9335852
-24.803743 -34.67107 2.980973
-6.2609787 -8.7516966 1.2583767
-5.9254003 -8.2826195 1.4312563
-6.2305875 -8.7092152 1.7593319
-6.2598367 -8.7501001 2.0270452
-8.0156889 -11.130397 -0.31845212
-8.0014858 -11.110675 0
-20.265707 -28.140484 1.6171905
-20.651051 -28.675564 2.4710531
-36.645828 -50.885536 5.8503346
-6.3650603 -8.8383732 1.2737086
-5.9606519 -8.2768211 1.433483
-6.2163992 -8.6319456 1.7476593
-11.203194 -15.556491 3.6119473
-8.041687 -11.109159 -0.31840572
-8.0215721 -11.081371 0
-20.325027 -28.077934 1.6164451
-20.289362 -28.028666 2.4195731
-20.242792 -27.964331 3.2207494
-6.3505268 -8.772912 1.2665073
-5.9669204 -8.24298 1.4301429
-6.1587787 -8.5080223 1.7256109
-8.068306 -11.072529 -0.31808075
-8.0551682 -11.0545 0
-20.40255 -27.999413 1.6156067
-20.369095 -27.953501 2.4185965
-20.318819 -27.884504 3.2188916
-6.3183937 -8.6710396 1.2546599
-6.0674343 -8.3266363 1.447957
-6.1819911 -8.4838476 1.7246382
-6.3718371 -8.7443829 2.0385246
-8.1046715 -11.053378 -0.31822002
-8.0891151 -11.032163 0
-20.478451 -27.929087 1.6150476
-20.450768 -27.891331 2.418457
-20.394402 -27.814459 3.217777
-6.0574884 -8.2613735 1.1979784
-6.0089655 -8.1951952 1.4281944
-6.1931334 -8.4463692 1.7207472
-6.367538 -8.684227 2.0288968
-8.126462 -11.022466 -0.31794149
-8.113224 -11.004509 0
-20.546759 -27.868944 1.6146749
-20.516615 -27.828058 2.4176199
-20.462423 -27.754555 3.2170336
-5.9998426 -8.137989 1.4209574
-6.1508121 -8.3427582 1.7029141
-5.4886889 -7.4446764 1.7426517
-8.1579409 -10.996699 -0.31789508
-8.1482229 -10.9836 0
-20.623405 -27.799833 1.6142091
-20.589584 -27.754242 2.4165039
-20.53994 -27.687321 3.2162905
-6.0703959 -8.1827412 1.191474
-6.0275035 -8.1249228 1.4217925
-6.1731882 -8.3213024 1.7022656
-5.4920182 -7.4031024 1.7367268
-8.1874189 -10.972273 -0.31784865
-8.1692924 -10.947981 0
-20.691393 -27.729328 1.6134638
-20.66581 -27.695042 2.4163644
-20.618364 -27.631458 3.2164767
-6.174005 -8.2740202 1.2072704
-6.0596433 -8.12076 1.4240192
-6.19876 -8.3071957 1.7029141
-5.5067921 -7.3798628 1.7348753
-8.2127361 -10.938339 -0.31757012
-8.1981373 -10.918895 0
-20.771177 -27.664614 1.6132773
-20.739508 -27.622435 2.4153879
-20.691889 -27.559013 3.2151761
-6.1758666 -8.2254829 1.2028568
-6.093224 -8.1154137 1.426246
-6.224566 -8.2903452 1.7032382
-5.5215836 -7.3540602 1.7326535
-8.2637348 -10.942486 -0.31835929
-8.2273922 -10.894362 0
-20.841133 -27.596939 1.6127185
-20.810555 -27.55645 2.41469
-20.76157 -27.491589 3.2140613
-6.1425467 -8.1336985 1.1919385
-6.1015415 -8.079401 1.4229059
-6.2583976 -8.2871037 1.7061564
-8.2811317 -10.894185 -0.31770939
-8.2615776 -10.868462 0
-20.918053 -27.5186 1.6119729
-20.890987 -27.482992 2.4139926
-20.844219 -27.421467 3.2135038
-6.2426014 -8.2124109 1.2063413
-6.1472683 -8.0869961 1.4276378
-6.2724586 -8.251689 1.7029141
-8.3158464 -10.872745 -0.31780222
-8.2889271 -10.837548 0
-20.997181 -27.453247 1.6117867
-20.963949 -27.409798 2.4130161
-20.919436 -27.351599 3.2125752
-6.283834 -8.2159433 1.2095934
-6.2386141 -8.1568193 1.4432253
-6.2981119 -8.2346115 1.7032382
-5.5868235 -7.3046207 1.7326535
-8.3449583 -10.847895 -0.31775582
-8.3179398 -10.812773 0
-21.070108 -27.389751 1.6115072
-21.03676 -27.346403 2.4125974
-20.988449 -27.2836 3.2114604
-6.2885852 -8.1747456 1.2061089
-6.3024263 -8.1927385 1.4526889
-6.355979 -8.2623539 1.7126412
-5.596415 -7.2749705 1.7293206
-8.3813372 -10.832456 -0.31798792
-8.3517752 -10.794248 0
-12.26833 -15.856196 0.93492949
-21.108164 -27.281237 2.4120395
-21.060905 -27.220156 3.2109029
-6.3259764 -8.1760054 1.2088966
-6.3071022 -8.1516113 1.4485139
-5.613102 -7.2546506 1.7282099
-8.3757448 -10.762991 0
-12.223156 -15.706987 0.46208054
-12.259802 -15.754078 0.93092328
-21.179365 -27.215887 2.4114814
-21.131945 -27.154951 3.2101598
-6.3792834 -8.1975002 1.214704
-6.3943071 -8.2168064 1.4632661
-19.101845 -24.546234 5.1100392
-5.6466169 -7.2560096 1.7322832
-8.4195251 -10.757133 -0.31715232
-8.402071 -10.734834 0
-12.269436 -15.67594 0.46217337
-12.292666 -15.70562 0.93008482
-12.31294 -15.731522 1.3969431
-19.008251 -24.28573 2.8772349
-6.3952556 -8.1708431 1.4582559
-5.6426296 -7.2092571 1.724877
-8.4421062 -10.724156 -0.31687379
-8.4320107 -10.711332 0
-12.332945 -15.666758 0.46291611
-12.326584 -15.658677 0.92933947
-12.362988 -15.704921 1.3976407
-19.009472 -24.148067 2.8672028
-19.05864 -24.210526 3.6032271
-6.3972182 -8.1264992 1.453524
-19.244734 -24.446924 5.11166
-5.7198753 -7.2660584 1.7422814
-8.471406 -10.695926 -0.31678095
-8.4525795 -10.672155 0
-12.416619 -15.677118 0.4643088
-12.372991 -15.622034 0.92933947
-12.394666 -15.649401 1.3959665
-19.074856 -24.083752 2.8662736
-6.3844137 -8.0609064 1.4451736
-21.237263 -26.81399 5.6197462
-5.7487307 -7.2582989 1.7445033
-8.5037212 -10.667696 -0.31673452
-8.4910526 -10.651804 0
-12.485751 -15.663049 0.46505153
-12.430726 -15.594021 0.9299916
-12.447501 -15.615066 1.3963852
-19.175251 -24.054852 2.8699896
-6.4195824 -8.0531979 1.4474003
-19.282999 -24.190018 5.0824785
-8.5303707 -10.643837 -0.31668812
-8.5151587 -10.624855 0
-12.554226 -15.664632 0.46607283
-12.507743 -15.606633 0.93269348
-12.490834 -15.585536 1.3966641
-12.534445 -15.639951 1.8699149
-6.5518484 -8.1751194 1.2251576
-6.4530296 -8.0518179 1.4501837
-10.938817 -13.648993 2.8737485
-6.1296816 -7.6483574 1.8467072
-8.5637674 -10.616984 -0.31668812
-8.5522633 -10.602721 0
-18.761957 -23.260254 0.69381714
-19.361242 -24.003222 1.4381237
-12.547252 -15.555534 1.3975011
-6.6161613 -8.2024279 1.2323591
-6.436017 -7.9790926 1.44072
-6.26967 -7.7728629 1.8815157
-8.5971613 -10.597686 -0.31682739
-8.5868788 -10.585011 0
-18.823061 -23.20311 0.6936779
-19.518818 -24.060766 1.4448316
-12.603213 -15.53593 1.3988963
-12.603198 -15.53591 1.866385
-6.6202698 -8.160779 1.2288744
-6.4408059 -7.9395552 1.4368232
-11.124059 -13.712582 2.9009848
-6.1019058 -7.5217943 1.8248593
-8.6223478 -10.572045 -0.31673452
-8.6031818 -10.548546 0
-18.879946 -23.149105 0.69353861
-20.136057 -24.689251 1.485732
-12.661494 -15.524529 1.4008495
-12.629981 -15.485889 1.8643414
-6.6240325 -8.1218681 1.2256222
-6.4515543 -7.9103885 1.4345964
-8.6574831 -10.551051 -0.31687379
-8.6344433 -10.522972 0
-18.957426 -23.103804 0.69386357
-20.220631 -24.643295 1.4865704
-12.72775 -15.511569 1.4030817
-12.665768 -15.436029 1.8628551
-6.6203814 -8.0683937 1.2205116
-6.5076609 -7.9310193 1.4418335
-10.997667 -13.403081 2.8484578
-6.0453286 -7.3675652 1.7956052
-8.6823835 -10.51761 -0.31664169
-8.6656256 -10.497309 0
-19.037346 -23.061335 0.69428134
-20.431015 -24.74959 1.4966325
-12.813089 -15.521437 1.4074066
-12.708975 -15.395314 1.8624835
-6.5203576 -7.8985882 1.197746
-6.5172935 -7.894876 1.4387716
-11.127843 -13.479974 2.871803
-6.0571504 -7.337471 1.7926426
-8.7117214 -10.493322 -0.31664169
-8.700017 -10.479224 0
-19.118277 -23.028082 0.69488484
-22.009737 -26.510864 1.606849
-21.977434 -26.471954 2.4059007
-12.763366 -15.373552 1.8641555
-6.5715742 -7.9155016 1.203089
-6.5481706 -7.8873119 1.44072
-7.0671196 -8.5123892 1.8176954
-8.7371473 -10.464349 -0.31650242
-8.7228374 -10.447211 0
-19.197887 -22.993021 0.6954419
-22.083685 -26.449295 1.606849
-22.048716 -26.407413 2.4056218
-12.827945 -15.363836 1.8673139
-6.7553439 -8.0907726 1.2325913
-6.5980973 -7.9024415 1.4468437
-11.310472 -13.546381 2.8993635
-6.1547222 -7.371418 1.8093064
-8.7764101 -10.444502 -0.31673452
-8.7517567 -10.415162 0
-19.309904 -22.980047 0.696881
-22.165382 -26.378252 1.6067556
-22.121302 -26.325794 2.4045057
-12.910737 -15.364621 1.87233
-12.776803 -15.205231 2.3225493
-6.6916938 -7.963553 1.4618744
-11.345356 -13.501715 2.8974183
-6.4282007 -7.6499786 1.8826265
-8.7978001 -10.410789 -0.31645602
-8.787262 -10.398318 0
-19.410139 -22.968794 0.69818079
-22.235092 -26.311674 1.6064762
-22.203747 -26.274582 2.4054823
-22.15016 -26.21117 3.2016139
-6.6237326 -7.8381276 1.2000691
-6.7139072 -7.9448347 1.4618744
-8.8234692 -10.378549 -0.31627032
-8.8154831 -10.369155 0
-19.514462 -22.95376 0.69948059
-22.298822 -26.228848 1.6054513
-22.275143 -26.200993 2.4047847
-22.227827 -26.14534 3.2016139
-6.7022843 -7.8835187 1.210058
-6.933722 -8.1557465 1.5044613
-6.5704861 -7.7284923 1.666599
-6.435236 -7.5694051 1.8718878
-8.8706083 -10.375144 -0.31692022
-8.8431063 -10.342977 0
-19.626562 -22.955404 0.70119816
-22.379774 -26.175585 1.6060104
-22.328773 -26.115936 2.4026918
-22.295576 -26.077106 3.2008705
-6.6610203 -7.7907896 1.1986753
-6.9719152 -8.1544151 1.5078015
-6.6176929 -7.7401133 1.6730839
-6.4486856 -7.5424409 1.869666
-8.8865108 -10.335171 -0.31645602
-8.8641319 -10.309142 0
-19.762287 -22.983891 0.70375139
-22.452784 -26.112986 1.6060104
-22.40032 -26.05197 2.4025524
-22.368311 -26.014744 3.2008705
-6.7293744 -7.8263817 1.207038
-6.9791651 -8.1168928 1.5044613
-6.6264148 -7.7066379 1.6698414
-6.9925294 -8.1324358 2.02075
-8.8923779 -10.283765 -0.63400048
-8.9101057 -10.304266 -0.31627032
-8.8902674 -10.281324 0
-19.904858 -23.019363 0.70653665
-22.524305 -26.048676 1.6059172
-22.486029 -26.00441 2.4039476
-22.420031 -25.928083 3.1978981
-6.7382097 -7.7925348 1.2047151
-7.0834165 -8.1917562 1.5219972
-6.6466179 -7.6866121 1.6695172
-6.4919949 -7.5077949 1.8700362
-8.9210606 -10.258891 -0.63400048
-8.9401579 -10.280851 -0.31631672
-8.9189444 -10.256457 0
-20.064844 -23.07383 0.70992547
-22.590405 -25.978134 1.6054513
-22.549397 -25.930973 2.402971
-22.506721 -25.881901 3.1999416
-6.7338748 -7.7437077 1.2000691
-13.424967 -15.438216 2.8753166
-6.6952524 -7.6992936 1.6763262
-6.5193844 -7.4970517 1.8718878
-8.9514608 -10.232376 -0.63400048
-8.970623 -10.25428 -0.31631672
-8.950654 -10.231454 0
-12.325062 -14.088724 0.43459895
-22.672647 -25.917006 1.605824
-22.639372 -25.878969 2.4043663
-22.587351 -25.819502 3.2004991
-6.7777481 -7.7476144 1.2037859
-13.494185 -15.425145 2.8803267
-6.7284636 -7.6912775 1.6789203
-8.9822426 -10.202704 -0.63390732
-9.0054369 -10.22905 -0.31640959
-8.9787884 -10.19878 0
-12.312449 -13.985402 0.43260282
-22.75264 -25.844152 1.6057309
-22.71397 -25.800228 2.4036684
-22.66704 -25.74692 3.2003133
-6.8059931 -7.7307563 1.2044828
-12.210308 -13.869382 2.5969703
-6.7812839 -7.7026901 1.6860535
-6.5793462 -7.4733143 1.8759612
-9.0031748 -10.176236 -0.63362783
-9.0251045 -10.201023 -0.31622389
-9.0050087 -10.178308 0
-12.324063 -13.929817 0.43181366
-22.913681 -25.8992 1.6126251
-22.796778 -25.767065 2.4057612
-22.71669 -25.676542 3.1984556
-6.8116999 -7.6992249 1.2021598
-12.216602 -13.808354 2.5911248
-12.16823 -13.753679 3.0170629
-6.5897732 -7.4483824 1.8737394
-9.0350981 -10.147903 -0.63362783
-9.0597649 -10.175608 -0.31631672
-9.0462475 -10.160426 0
-12.346489 -13.867141 0.43107089
-22.990944 -25.822617 1.6123458
-22.974459 -25.804102 2.4159458
-22.802534 -25.611002 3.1991987
-6.8226438 -7.6629524 1.1998369
-6.7047734 -7.5305648 1.6565475
-6.5922284 -7.4041581 1.8678144
-9.067832 -10.124029 -0.63381416
-9.0885811 -10.147195 -0.31627032
-9.075017 -10.132051 0
-12.492963 -13.948111 0.43473825
-23.071451 -25.758753 1.6126251
-23.459566 -26.192074 2.4587762
-22.875759 -25.540266 3.1988268
-6.846674 -7.6441565 1.2000691
-11.758953 -13.128604 2.4770029
-7.2278514 -8.0697327 2.0411167
-9.0902987 -10.095798 -0.63353467
-9.117795 -10.126336 -0.31636316
-9.0908098 -10.096366 0
-23.142832 -25.702715 1.6129047
-23.534744 -26.137978 2.4594738
-22.945221 -25.483248 3.1991987
-6.8453979 -7.6025839 1.1963522
-11.712449 -13.007991 2.4600239
-6.7018294 -7.4431348 1.6455234
-7.2686834 -8.07269 2.0466714
-9.1242352 -10.073226 -0.63381416
-9.1424284 -10.093311 -0.31617749
-9.124752 -10.073797 0
-23.286045 -25.707973 1.6175631
-23.578699 -26.031065 2.4559858
-23.020725 -25.415058 3.1991987
-6.890595 -7.6072698 1.2003014
-11.743013 -12.964376 2.458354
-6.7185831 -7.4173675 1.6442263
-7.3216295 -8.0831356 2.0548182
-9.1509848 -10.046229 -0.63372099
-9.1665401 -10.063306 -0.31603819
-9.1649704 -10.061583 0
-12.542058 -13.769052 0.43241715
-23.485554 -25.783154 1.6264139
-23.674143 -25.990192 2.4583576
-23.088926 -25.347723 3.1988268
-6.9679942 -7.6496754 1.210058
-11.783173 -12.935925 2.4591887
-6.7326264 -7.3912816 1.6426053
-9.1821022 -10.020506 -0.63381416
-9.2004108 -10.040486 -0.31617749
-9.1812716 -10.0196 0
-23.721218 -25.887165 1.6374075
-23.724197 -25.890417 2.4555676
-23.16538 -25.280577 3.199013
-23.493666 -25.638838 4.0666685
-11.845588 -12.927191 2.4641991
-6.7798595 -7.3989182 1.6487657
-11.135086 -12.151814 3.1053712
-9.2073421 -9.9918861 -0.63362783
-9.2297688 -10.016225 -0.31622389
-9.2092171 -9.9939213 0
-23.835386 -25.866365 1.6402957
-23.238588 -25.218716 3.1993842
-23.558445 -25.565826 4.0655069
-11.860168 -12.870756 2.4597456
-6.8111949 -7.3915668 1.6513598
-11.14234 -12.091762 3.097965
-9.238307 -9.9659891 -0.63372099
-9.2689619 -9.9990597 -0.31654885
-9.2388287 -9.9665527 0
-23.878077 -25.758904 1.6379666
-23.917683 -25.801628 2.4601712
-23.314663 -25.151112 3.1995699
-23.538315 -25.39238 4.0490136
-11.936004 -12.876179 2.4675393
-6.8465123 -7.385798 1.6546021
-11.126059 -12.002435 3.0835233
-9.2651081 -9.9356127 -0.63353467
-9.2876787 -9.9598169 -0.31617749
-9.2669935 -9.9376345 0
-23.942131 -25.674793 1.6371281
-24.007732 -25.745144 2.4615664
-23.390541 -25.083286 3.1997559
-23.671803 -25.384901 4.0590029
-11.878253 -12.737867 2.4477768
-6.8778162 -7.3755555 1.6568718
-11.145535 -11.952124 3.0790796
-0.979204 -1.043841 -0.84879422
-9.2959156 -9.9095364 -0.63362783
-9.3212938 -9.9365902 -0.31631672
-9.3019123 -9.9159298 0
-23.594612 -25.152086 0.80067968
-24.027775 -25.613842 1.6377802
-24.081287 -25.670889 2.4612873
-23.474401 -25.023941 3.2010565
-23.66004 -25.221832 4.0441351
-9.3218241 -9.8851671 -0.63362783
-9.3390427 -9.9034262 -0.31603819
-9.3264666 -9.89009 0
-23.712332 -25.145332 1.6117867
-24.147038 -25.606306 2.4611478
-23.558954 -24.982683 3.2036574
-23.660564 -25.090435 4.0329847
-11.905725 -12.62522 2.4388695
-14.218274 -15.077522 3.4048553
-11.204021 -11.88111 3.0768576
-0.97909886 -1.0321158 -0.84369332
-9.3497391 -9.8560152 -0.63353467
-9.3711386 -9.8785744 -0.31613106
-9.3516407 -9.8580208 0
-13.162253 -13.874973 0.44402254
-23.696089 -24.979202 1.6056378
-23.709368 -24.9932 2.4089699
-23.641199 -24.921341 3.204772
-23.764986 -25.05183 4.0380955
-11.963579 -12.611392 2.4430449
-14.302339 -15.076792 3.4142585
-6.6347818 -6.9940467 1.8163421
-0.97960263 -1.0268883 -0.84165299
-0.98930985 -1.0370641 -0.80529535
-9.3744688 -9.8269768 -0.63334835
-9.4042091 -9.8581533 -0.31631672
-9.3805151 -9.8333149 0
-23.79759 -24.946304 0.80044752
-23.761616 -24.908594 1.6053582
-23.728119 -24.87348 2.4038081
-23.7272 -24.872517 3.2070014
-23.948658 -25.104666 4.0573764
-12.013789 -12.593698 2.4461064
-11.495941 -12.050853 2.7362702
-0.97770303 -1.019183 -0.83757222
-9.4074068 -9.8065252 -0.63372099
-9.4261665 -9.8260813 -0.31613106
-9.4093237 -9.8085232 0
-23.95437 -24.970657 0.80337214
-23.835234 -24.846466 1.6056378
-23.79887 -24.808559 2.4039476
-23.80208 -24.811907 3.2077446
-23.943039 -24.958845 4.0446
-12.099643 -12.612982 2.4564056
-7.3735027 -7.6863303 1.749929
-0.98072249 -1.0162778 -0.83757222
-0.98921245 -1.0250756 -0.80039698
-9.4378481 -9.7800093 -0.63381416
-9.4580545 -9.8009481 -0.31622389
-9.435605 -9.7776852 0
-24.045008 -24.91674 0.80392915
-24.369429 -25.252922 1.636569
-23.902847 -24.769424 2.4070168
-23.883886 -24.749777 3.2088594
-23.90387 -24.770485 4.0255508
-12.238781 -12.682487 2.4770029
-6.7639565 -7.0091782 1.8352277
-0.97911692 -1.008255 -0.83349144
-0.98878407 -1.0182099 -0.79745793
-9.4671364 -9.7488747 -0.63372099
-9.484623 -9.7668819 -0.31608462
-9.4648848 -9.7465563 0
-24.127352 -24.845373 0.80406845
-24.466745 -25.194866 1.6377802
-23.978176 -24.691757 3.2110887
-24.225145 -24.946075 4.0664363
-12.215099 -12.578615 2.4641991
-11.353898 -11.691786 2.6775827
-6.7270684 -6.9272633 1.8193046
-0.98295468 -1.0069194 -0.83451164
-0.98779219 -1.0118748 -0.79451895
-9.4954166 -9.7269173 -0.63390732
-9.5157452 -9.7477417 -0.31627032
-9.491765 -9.723176 0
-24.185328 -24.774971 0.80383629
-24.587044 -25.186483 1.6414137
-24.546839 -25.145296 2.4572415
-24.141497 -24.730074 3.2242794
-24.338934 -24.932323 4.0745668
-11.517507 -11.798306 2.3172324
-11.417553 -11.695915 2.6853645
-6.7644005 -6.929318 1.8244888
-0.98473239 -1.0027713 -0.83349144
-0.98834652 -1.0064516 -0.79255956
-1.0096306 -1.0281255 -0.76617765
-9.5214329 -9.6958523 -0.63372099
-9.5460234 -9.7208929 -0.31631672
-9.5247746 -9.699254 0
-24.26713 -24.711668 0.80411482
-24.654659 -25.106297 1.6409479
-24.350101 -24.79616 3.2423005
-24.322325 -24.767876 4.0594668
-23.61281 -24.045362 4.7363391
-11.272441 -11.478936 2.643213
-6.7766662 -6.900805 1.8222669
-0.98770338 -0.99984497 -0.83349144
-0.99010301 -1.0022742 -0.7915799
-1.0114356 -1.0238689 -0.7652387
-9.552968 -9.6704006 -0.63390732
-9.5748243 -9.6925259 -0.31631672
-9.5478888 -9.6652584 0
-24.347374 -24.646671 0.80434698
-24.727642 -25.031612 1.6408548
-24.508934 -24.810217 3.2536333
-24.384542 -24.684296 4.0576086
-11.530246 -11.671985 2.3058202
-6.8053989 -6.8890562 1.8244888
-0.98668128 -0.99359387 -0.83043087
-0.98903787 -0.99596697 -0.78864086
-1.0066469 -1.0136993 -0.75960505
-9.5796614 -9.6467752 -0.63400048
-9.5987597 -9.666007 -0.31627032
-9.5745697 -9.6416473 0
-24.407589 -24.578587 0.80420768
-24.743822 -24.917173 1.637594
-24.753954 -24.927376 2.4565442
-24.659399 -24.832159 3.264966
-24.489676 -24.661247 4.0643454
-11.490988 -11.571492 2.2919028
-11.258502 -11.337378 2.6250558
-6.8954268 -6.9437351 1.8437446
-0.98597777 -0.98701084 -0.82737035
-0.98952401 -0.99056077 -0.78668147
-1.0034101 -1.0044614 -0.75491029
-9.601182 -9.6112413 -0.63353467
-9.633049 -9.6431417 -0.31645602
-9.5974817 -9.6075373 0
-24.486059 -24.511715 0.80439335
-24.792227 -24.818203 1.6359168
-24.724525 -24.750429 3.2638514
-24.571163 -24.596909 4.0657392
-23.813387 -23.838337 4.7355042
-6.8340464 -6.8412066 1.8218967
-0.99256009 -0.98772115 -0.83043087
-0.99493074 -0.99008024 -0.78864086
-1.0101413 -1.0052166 -0.75772715
-1.0375377 -1.0324795 -0.73521829
-9.6324892 -9.5855293 -0.63372099
-9.6573668 -9.6102858 -0.31631672
-9.6188574 -9.5719633 0
-24.568602 -24.448826 0.80471832
-24.640596 -24.520468 1.6211035
-24.786562 -24.665722 3.2623651
-24.556738 -24.437017 4.0513363
-7.9528084 -7.9140368 1.8433105
-6.8584948 -6.825058 1.8230077
-0.99269736 -0.98269898 -0.82839054
-0.99628001 -0.98624563 -0.78766114
-1.0052395 -0.99511474 -0.75209349
-1.0237254 -1.0134145 -0.72354811
-9.6575508 -9.5602808 -0.63372099
-9.6810722 -9.5835648 -0.31627032
-9.6424618 -9.5453434 0
-24.636787 -24.388647 0.80485761
-24.829645 -24.579563 1.6293021
-24.905256 -24.654413 2.4505448
-24.504324 -24.257519 3.2168479
-24.51757 -24.270632 4.0343785
-11.512115 -11.396165 2.2765939
-6.9810967 -6.9107838 1.8507805
-0.9968347 -0.98095608 -0.82941073
-1.0029302 -0.98695439 -0.79060024
-1.0044113 -0.98841202 -0.74927664
-1.0229059 -1.0066121 -0.720855
-9.6872959 -9.5329866 -0.63381416
-9.7222891 -9.5674229 -0.31668812
-9.6650372 -9.5110817 0
-17.247015 -16.972286 0.5617941
-24.913851 -24.516996 1.6300473
-24.993935 -24.595806 2.4520795
-24.776316 -24.381651 3.2430437
-24.535664 -24.144835 4.0255508
-7.6522489 -7.5303559 1.7638713
-7.0407934 -6.9286404 1.861149
-0.99991179 -0.97781932 -0.82941073
-1.0047795 -0.98257941 -0.78962058
-1.0087744 -0.98648614 -0.75021559
-1.0183969 -0.99589592 -0.71546882
-9.7186279 -9.5039005 -0.63390732
-9.7580175 -9.5424204 -0.31687379
-9.697732 -9.4834661 0
-17.311691 -16.929199 0.5621655
-24.915052 -24.364569 1.6251096
-25.091059 -24.536684 2.4540327
-24.841404 -24.292547 3.2415571
-24.723604 -24.177349 4.0439029
-7.9098105 -7.7350473 1.5548421
-7.7210226 -7.5504308 1.7742471
-7.1060886 -6.9490838 1.8726283
-1.0024681 -0.97519839 -0.82941073
-1.0073482 -0.97994572 -0.78962058
-1.0126191 -0.98507327 -0.75115454
-1.0158762 -0.98824167 -0.711878
-9.7492018 -9.4839983 -0.63427997
-9.7901306 -9.5238132 -0.31710592
-9.7225246 -9.458046 0
-17.345917 -16.874063 0.56184053
-24.858461 -24.182245 1.6172836
-25.070831 -24.38884 2.4458015
-24.910624 -24.23299 3.2423005
-24.856581 -24.180416 4.0552859
-7.7454805 -7.5347834 1.518657
-7.7082257 -7.4985418 1.7667896
-7.1791987 -6.9839058 1.8870703
-1.0067637 -0.97323978 -0.83043087
-1.0104219 -0.97677618 -0.78962058
-1.0106305 -0.97697777 -0.74739879
-1.013836 -0.98007661 -0.70828718
-1.063159 -1.0277572 -0.69993186
-9.780386 -9.4547119 -0.63437319
-9.8027525 -9.4763336 -0.31654885
-9.7536287 -9.4288454 0
-17.395969 -16.816706 0.56174773
-24.885473 -24.056818 1.6141158
-24.88339 -24.054806 2.420131
-24.833439 -24.006517 3.2224216
-24.932425 -24.102207 4.0552859
-7.773386 -7.5145421 1.519492
-7.9374905 -7.673182 1.8138045
-7.2717595 -7.0296192 1.9055855
-1.0117881 -0.97298545 -0.83247131
-1.0117189 -0.97291887 -0.78864086
-1.0119119 -0.97310442 -0.74645984
-1.0099574 -0.97122496 -0.70379865
-1.0593311 -1.0187051 -0.69565356
-9.8079853 -9.4318438 -0.63455951
-9.827528 -9.4506369 -0.31654885
-9.7811632 -9.4060497 0
-25.016315 -24.056925 0.80578607
-24.95557 -23.998508 1.6145816
-24.914644 -23.959154 2.4170618
-24.848833 -23.895866 3.2162905
-24.819326 -23.867491 4.0267129
-8.0798883 -7.7700195 1.8416892
-7.2788043 -6.9996581 1.9026229
-1.0159138 -0.97116792 -0.83349144
-1.008299 -0.96388847 -0.78374243
-1.0096886 -0.96521688 -0.74270403
-1.0154182 -0.97069412 -0.70559406
-1.0532019 -1.0068136 -0.68966395
-9.8359261 -9.4027023 -0.63455951
-9.8540792 -9.4200563 -0.31650242
-9.8075809 -9.3756065 0
-25.089024 -23.983978 0.80583245
-25.023773 -23.921602 1.6143954
-24.994272 -23.8934 2.4178989
-24.921062 -23.823414 3.2164767
-24.868488 -23.773157 4.0232282
-7.8452978 -7.4997516 1.5253373
-8.1656752 -7.8060179 1.8559558
-7.302382 -6.9807487 1.9033637
-1.0173752 -0.96714193 -0.83247131
-1.0109868 -0.96106893 -0.78374243
-1.0136601 -0.96361017 -0.74364305
-1.0142391 -0.96416062 -0.70290101
-1.038977 -0.98767716 -0.67854035
-9.8693857 -9.382081 -0.63502532
-9.8817959 -9.393878 -0.31654885
-9.8380737 -9.3523149 0
-25.22401 -23.978565 0.80801421
-25.133921 -23.892923 1.6171905
-25.06813 -23.830381 2.4185965
-24.994711 -23.760588 3.2174053
-24.94054 -23.709091 4.024157
-11.790704 -11.208533 2.2863359
-8.163125 -7.7600679 1.8504437
-7.3603086 -6.9968905 1.9133619
-1.0188221 -0.96311533 -0.83145112
-1.0149339 -0.95943987 -0.78472215
-1.0137805 -0.95834947 -0.74176508
-1.0065376 -0.95150256 -0.69571936
-1.0377902 -0.98104638 -0.6759733
-9.8999023 -9.3585997 -0.63530481
-9.9079905 -9.3662462 -0.31654885
-9.8612461 -9.3220568 0
-25.293783 -23.910782 0.80810708
-25.582369 -24.183588 1.6416932
-25.071096 -23.70027 3.2187059
-25.015312 -23.647537 4.0255508
-7.861156 -7.4313273 1.5203271
-8.2751169 -7.8226533 1.8708709
-1.0205886 -0.95873225 -0.83043087
-1.0217553 -0.95982826 -0.78766114
-1.016786 -0.95516008 -0.74176508
-1.0095216 -0.94833595 -0.69571936
-1.0329615 -0.97035521 -0.67083937
-9.9379892 -9.3356619 -0.63586384
-9.9548521 -9.3515034 -0.31710592
-9.8919392 -9.2924023 0
-25.376055 -23.838049 0.80833918
-25.674231 -24.118153 1.6427181
-25.649702 -24.09511 2.4608688
-25.309433 -23.775465 3.2396996
-25.138704 -23.615084 4.0334492
-7.8945661 -7.4160876 1.5222756
-8.1342316 -7.6412277 1.8335831
-1.0270333 -0.95940131 -0.83349144
-1.0206094 -0.95340043 -0.78472215
-1.0220304 -0.95472783 -0.74364305
-1.012166 -0.94551307 -0.69571936
-1.0330254 -0.96499878 -0.66912806
-1.0801457 -1.0090162 -0.65809989
-9.9742403 -9.3174191 -0.63651597
-9.9207735 -9.2674723 0
-25.443991 -23.768457 0.80838567
-25.763382 -24.066816 1.6441157
-25.607103 -23.920828 3.2692389
-25.367134 -23.696661 4.0594668
-24.638718 -23.016212 4.7385659
-8.2391863 -7.6966209 1.8523892
-8.3977337 -7.844728 2.1651688
-1.0358423 -0.96256417 -0.83859241
-1.0269337 -0.9542858 -0.78766114
-1.0284072 -0.95565504 -0.74645984
-1.0185657 -0.94650972 -0.69841248
-1.0302514 -0.95736873 -0.66570538
-1.0693995 -0.99374747 -0.64996517
-9.9986 -9.2912741 -0.63651597
-9.9450026 -9.2414675 0
-25.541285 -23.73443 0.8094998
-25.750202 -23.928568 1.639271
-25.660892 -23.845575 3.2681246
-9.2330503 -8.5798817 1.4739524
-24.710499 -22.962416 4.7407932
-8.386529 -7.7932448 1.8809223
-8.4211235 -7.8253913 2.1659095
-1.0439166 -0.96397334 -0.84267312
-1.0286456 -0.94987196 -0.78668147
-1.0275124 -0.94882542 -0.74364305
-1.0189081 -0.94088012 -0.69661701
-1.0292697 -0.95044816 -0.66313839
-1.0644624 -0.9829458 -0.64508432
-10.046822 -9.2774363 -0.63772714
-10.043279 -9.2741642 -0.31738442
-9.9798641 -9.2156057 0
-25.703859 -23.735456 0.81228507
-25.797361 -23.821798 1.6375008
-25.511841 -23.558144 3.2396996
-25.449203 -23.500303 4.0508723
-24.791245 -22.892729 4.7424626
-8.5849628 -7.927526 1.9198314
-8.6218281 -7.9615684 2.2110865
-1.0440704 -0.95872736 -0.8406328
-1.0312942 -0.94699562 -0.78668147
-1.0249552 -0.94117469 -0.73988724
-1.0175825 -0.93440461 -0.69392395
-1.0292569 -0.94512475 -0.66142708
-1.0604743 -0.97379041 -0.64101696
-10.078577 -9.2547474 -0.63809985
-10.06472 -9.2420235 -0.31724516
-10.007034 -9.1890526 0
-25.668425 -23.570271 0.80908197
-25.852013 -23.738853 1.6367555
-25.466055 -23.384443 3.22558
-9.2018661 -8.4496994 1.4609436
-24.87842 -22.844843 4.7469163
-1.0480137 -0.95696819 -0.84165299
-1.0313596 -0.94176078 -0.78472215
-1.0314914 -0.94188124 -0.74270403
-1.0241469 -0.93517488 -0.69661701
-1.030557 -0.94102806 -0.6605714
-1.0523955 -0.96096933 -0.63450921
-10.111756 -9.233304 -0.63856566
-10.094917 -9.2179279 -0.31738442
-10.031178 -9.1597252 0
-26.107698 -23.839607 0.82082665
-25.679197 -23.448334 1.6216624
-25.892004 -23.642653 2.4518006
-25.581249 -23.358894 3.2318964
-8.5372887 -7.7956171 1.8994042
-8.5921383 -7.8457017 2.1922009
-1.0546699 -0.95732266 -0.84471357
-1.0315672 -0.93635237 -0.78276277
-1.0264363 -0.93169504 -0.73707038
-1.0136839 -0.92011976 -0.68764001
-1.0279907 -0.93310595 -0.65714872
-1.0525366 -0.95538628 -0.63288224
-10.145027 -9.2086296 -0.63893837
-10.122226 -9.187932 -0.31738442
-10.061274 -9.1326065 0
-24.04047 -21.821507 0.75379384
-26.001625 -23.601646 1.637594
-25.879314 -23.490623 2.4439878
-25.734497 -23.359173 3.2424862
-8.4887781 -7.7052546 1.8835164
-8.6430311 -7.8452697 2.1992366
-1.0563947 -0.95285261 -0.84369332
-1.0357983 -0.93427503 -0.78374243
-1.0214905 -0.92136955 -0.73143673
-1.0205508 -0.92052197 -0.69033313
-1.0295745 -0.92866129 -0.65629309
-1.0528193 -0.94962764 -0.63125527
-10.18429 -9.1860809 -0.6395905
-10.158463 -9.1627855 -0.31761655
-10.09437 -9.1049747 0
-26.085066 -23.528349 0.81558096
-26.100861 -23.542597 1.6391779
-26.112984 -23.553532 2.4590552
-25.744167 -23.220865 3.2344975
-9.3489895 -8.4326525 1.4723263
-8.257802 -7.4484172 1.562914
-12.028616 -10.849637 2.6613705
-8.6661749 -7.8167634 2.1988664
-1.0627267 -0.95353043 -0.8467539
-1.0304538 -0.9245736 -0.7778644
-1.0265276 -0.92105085 -0.73331463
-1.0216268 -0.91665357 -0.68943542
-1.0360386 -0.92958462 -0.65886009
-1.0498618 -0.9419874 -0.62800139
-10.202355 -9.1540527 -0.63921785
-10.183903 -9.137496 -0.31766295
-10.124125 -9.0838604 0
-24.086872 -21.611921 0.75133353
-26.227827 -23.53289 1.643277
-26.225044 -23.530394 2.4637988
-25.874531 -23.215895 3.2432294
-8.2256784 -7.3804812 1.553172
-12.109859 -10.865558 2.6730433
-8.693923 -7.8006134 2.2007179
-1.0732542 -0.95724285 -0.85287499
-1.0305903 -0.91919065 -0.77590507
-1.0345277 -0.92270243 -0.73707038
-1.0310112 -0.91956609 -0.69392395
-1.0347452 -0.92289644 -0.65629309
-1.0485618 -0.93521959 -0.625561
-10.235436 -9.1290569 -0.6395905
-1.1114514 -0.99131119 -0.62207264
-10.209479 -9.1059055 -0.31761655
-10.155513 -9.0577726 0
-24.22998 -21.610888 0.75379384
-26.322889 -23.47757 1.644861
-26.209881 -23.376776 2.4558463
-8.2327614 -7.3428569 1.5503885
-8.5291843 -7.6072388 1.8776799
-8.7272987 -7.7839384 2.20331
-1.075923 -0.95424217 -0.85287499
-1.0331529 -0.91630924 -0.77590507
-1.0291733 -0.91277969 -0.73143673
-1.0282266 -0.91194004 -0.69033313
-1.0373182 -0.92000341 -0.65629309
-1.0498022 -0.93107551 -0.62474751
-10.262383 -9.1017656 -0.63968366
-1.1073116 -0.98208106 -0.61821842
-10.242345 -9.0839949 -0.31784865
-10.180765 -9.0293789 0
-24.276768 -21.531204 0.75337601
-26.382366 -23.39867 1.6444883
-26.352671 -23.372334 2.4631011
-9.38661 -8.325038 1.4672158
-8.256196 -7.3224673 1.550945
-12.340561 -10.944914 2.710007
-10.157663 -9.0088892 2.5580616
-1.0760033 -0.94895828 -0.85083461
-1.0344001 -0.91226721 -0.77492535
-1.0317184 -0.9099021 -0.73143673
-1.0280885 -0.90670079 -0.68853772
-1.0371718 -0.91471171 -0.65458179
-1.0496576 -0.92572331 -0.62312055
-10.298249 -9.0823221 -0.64033586
-1.1086658 -0.97776431 -0.61744761
-10.269174 -9.0566797 -0.31789508
-10.210441 -9.0048819 0
-26.05233 -22.976299 0.80648237
-26.198875 -23.105543 1.6290226
-26.384918 -23.269619 2.460032
-9.2507744 -8.1585245 1.1507454
-9.4589872 -8.3421526 1.4748816
-8.3152323 -7.3334427 1.5581821
-26.025442 -22.952587 5.7011304
-1.0673356 -0.93536907 -0.84165299
-1.0320157 -0.9044162 -0.77100664
-1.0292594 -0.90200073 -0.72768098
-1.0295877 -0.9022885 -0.68764001
-1.0427594 -0.91383159 -0.65629309
-1.0525607 -0.92242104 -0.62312055
-10.328234 -9.05124 -0.64042902
-1.1020166 -0.96576214 -0.61205167
-10.300583 -9.0270081 -0.31798792
-10.238681 -8.9727592 0
-26.358967 -23.099916 0.8137241
-26.403555 -23.138992 1.6372212
-26.147295 -22.914417 2.4311526
-9.3422556 -8.18717 1.1589199
-8.3263149 -7.2968407 1.5559554
-26.095938 -22.86941 5.7008061
-1.0647557 -0.92786437 -0.83757222
-1.0345372 -0.90153092 -0.77100664
-1.0251176 -0.89332241 -0.72298628
-1.0321033 -0.89941001 -0.68764001
-1.0398557 -0.90616572 -0.65287042
-1.053755 -0.91827804 -0.62230712
