# .PCD v0.7 - Point Cloud Data file format
VERSION 0.7
FIELDS x y z
SIZE 4 4 4
TYPE F F F
COUNT 1 1 1
WIDTH 264
HEIGHT 1
VIEWPOINT 0 0 0 1 0 0 0
POINTS 264
DATA ascii
-8.1748829 -0.44703048 -1.7402211
-8.1096745 -0.42075327 -1.7260829
-8.0620384 -0.39430001 -1.7156875
-8.0201788 -0.36840236 -1.7065393
-8.1577177 -0.37472013 -1.538614
-8.0036459 -0.34385017 -1.7027969
-8.1136303 -0.34857526 -1.5300969
-8.0084295 -0.32305065 -1.7036285
-8.100769 -0.32677555 -1.5275048
-8.1746264 -0.3054651 -1.3439791
-8.0054417 -0.29914311 -1.7027969
-8.0781345 -0.30185947 -1.5230613
-8.1281605 -0.27958047 -1.3361974
-8.1668634 -0.28091171 -1.1484566
-8.0023851 -0.27525425 -1.7019653
-8.0632801 -0.27734882 -1.5200987
-8.1013374 -0.25459611 -1.3316581
-8.1722479 -0.25682458 -0.95615262
-7.9953446 -0.25126514 -1.700302
-8.0581732 -0.25323963 -1.5189879
-8.0843019 -0.23005216 -1.3287398
-8.1010742 -0.23052943 -1.1389927
-7.9921441 -0.22742964 -1.6994704
-8.0529957 -0.22916126 -1.5178769
-8.0731125 -0.2057624 -1.3267944
-8.0839043 -0.20603746 -1.1364876
-8.1180248 -0.20690711 -0.9496482
-8.1280527 -0.20716269 -0.75855559
-8.1853476 -0.20862299 -0.57256114
-7.983005 -0.2034658 -1.6973913
-8.0497112 -0.20516597 -1.5171363
-8.0697098 -0.18312712 -1.3261459
-8.0705872 -0.18314704 -1.1345392
-8.098712 -0.18378527 -0.94732511
-8.1067009 -0.18396656 -0.75651193
-8.1360331 -0.18463221 -0.56907326
-7.9874539 -0.18126048 -1.6982228
-8.0482874 -0.182641 -1.5167661
-8.0642977 -0.15906774 -1.3251733
-8.0572348 -0.15892841 -1.1325908
-8.083333 -0.1594432 -0.94546676
-8.0873003 -0.15952146 -0.75465417
-8.1066236 -0.15990262 -0.5669806
-8.1395702 -0.16055247 -0.37965497
-8.0016479 -0.15783197 -1.7011336
-8.0546885 -0.15887819 -1.5178769
-8.0667315 -0.13376266 -1.3254975
-8.0576944 -0.13361278 -1.1325908
-8.0758495 -0.13391384 -0.94453746
-8.0738249 -0.13388027 -0.75335366
-8.0971127 -0.13426642 -0.56628305
-8.120059 -0.13464692 -0.37872329
-8.2108717 -0.13615279 0
-8.0294886 -0.13314508 -1.7069551
-8.0610437 -0.13366833 -1.5189879
-8.0710001 -0.11269994 -1.3261459
-8.0599966 -0.11254629 -1.1328691
-8.0682268 -0.11266122 -0.94360834
-8.0701647 -0.11268827 -0.75298208
-8.0794821 -0.11281838 -0.56502742
-8.0964117 -0.11305477 -0.37760526
-8.0630636 -0.11258911 -1.7140242
-8.0790529 -0.11281238 -1.5223206
-8.0831556 -0.087473296 -1.3280914
-8.0603104 -0.087226078 -1.1328691
-8.0764866 -0.087401129 -0.94453746
-8.0664968 -0.087293021 -0.7526105
-8.0758066 -0.087393776 -0.56474841
-8.0827427 -0.087468825 -0.3769531
-8.1013432 -0.087670118 -0.18810029
-8.2165899 -0.088917278 0.38319531
-8.1103258 -0.087767325 -1.724004
-8.0970564 -0.08762373 -1.5256535
-8.1011286 -0.065042593 -1.3310095
-8.0724049 -0.064811975 -1.1345392
-8.0707397 -0.064798608 -0.94384062
-8.0667086 -0.064766243 -0.7526105
-8.068038 -0.06477692 -0.56419033
-8.0749645 -0.064832531 -0.37658048
-8.0895586 -0.064949706 -0.18782176
-8.1097393 -0.065111727 0
-8.1129923 -0.065137841 -1.5286158
-8.1170826 -0.039668627 -1.3336035
-8.0824718 -0.039499484 -1.135931
-8.0788498 -0.039481785 -0.94476986
-8.0668726 -0.039423253 -0.7526105
-8.0741882 -0.039459005 -0.56460893
-8.0771265 -0.039473362 -0.37667364
-8.0777264 -0.039476294 -0.18754323
-8.1019039 -0.039594449 0
-8.1237135 -0.039701037 0.18861094
-8.1858759 -0.040004827 -1.5423169
-8.1605787 -0.017093649 -1.3407367
-8.102355 -0.016971691 -1.1387143
-8.090847 -0.016947584 -0.94616371
-8.0689421 -0.016901702 -0.75279629
-8.0702753 -0.016904494 -0.56432986
-8.065217 -0.016893899 -0.37611464
-8.0818043 -0.016928643 -0.18763609
-8.0879822 -0.016941585 0
-8.101799 -0.016970525 0.18810029
-8.1331434 -0.017036181 0.3792823
-8.255723 -0.017292943 0.96544462
-8.1340599 0.007098591 -1.143168
-8.1087408 0.0070764949 -0.94825435
-8.0769234 0.0070487279 -0.75353944
-8.0742817 0.0070464225 -0.56460893
-8.0812149 0.0070524733 -0.37685993
-8.0778198 0.0070495103 -0.18754323
-8.0779972 0.0070496653 0
-8.0938168 0.0070634708 0.18791461
-8.1151781 0.0070821131 0.37844381
-8.1361303 0.0071003977 0.56893378
-8.1775789 0.029971436 -1.1492915
-8.1325264 0.029806312 -0.951042
-8.092802 0.02966072 -0.75502568
-8.0842047 0.02962921 -0.56530643
-8.0831614 0.029625386 -0.3769531
-8.0777683 0.02960562 -0.18754323
-8.0879459 0.029642923 0
-8.0837679 0.02962761 0.18768251
-8.1051378 0.029705931 0.37797797
-8.1300936 0.029797396 0.5685153
-8.1445761 0.029850477 0.7598561
-8.170145 0.054186638 -0.95545572
-8.1106014 0.053791732 -0.75669783
-8.0960522 0.053695239 -0.56614351
-8.0810404 0.053595673 -0.37685993
-8.0796461 0.053586427 -0.18758966
-8.0758228 0.053561069 0
-8.0836449 0.053612947 0.18768251
-8.0930262 0.053675171 0.37741897
-8.1120129 0.053801093 0.56725961
-8.1265316 0.053897381 0.75818408
-8.150279 0.054054886 0.95313269
-8.1715136 0.054195713 1.1484566
-8.2978201 0.055033416 1.5634243
-8.1402607 0.079563968 -0.75948453
-8.1138 0.079305336 -0.5673992
-8.0948162 0.079119779 -0.37751213
-8.0854349 0.079028092 -0.18772893
-8.0756149 0.078932106 0
-8.0774374 0.078949921 0.18754323
-8.0908213 0.079080738 0.3773258
-8.1078138 0.079246826 0.5669806
-8.120347 0.079369329 0.75762665
-8.1361656 0.079523936 0.95150656
-8.1415949 0.079577006 1.1442813
-8.1858387 0.10001441 -0.76375753
-8.141511 0.099472806 -0.56935239
-8.1085815 0.099070482 -0.37816429
-8.0852175 0.09878502 -0.18772893
-8.0853968 0.098787211 0
-8.0812197 0.098736167 0.18763609
-8.0886059 0.098826416 0.37723264
-8.1016111 0.098985314 0.56656212
-8.1022091 0.098992616 0.75595462
-8.1240282 0.099259205 0.95011276
-8.1294947 0.099325992 1.1426111
-8.1520939 0.099602111 1.3394397
-8.1853619 0.10000858 1.5423169
-8.1790609 0.12563023 -0.57200313
-8.1342001 0.12494116 -0.37937546
-8.1048594 0.1244905 -0.18819314
-8.095046 0.12433976 0
-8.0888653 0.12424483 0.18782176
-8.0902529 0.12426615 0.3773258
-8.0992651 0.12440457 0.56642258
-8.0978756 0.12438323 0.75558311
-8.1157312 0.12465749 0.94918352
-8.1093397 0.12455931 1.1398278
-8.1438484 0.12508936 1.3381429
-8.1692858 0.12548009 1.5393546
-8.173769 0.14838141 -0.38123879
-8.1244717 0.14748651 -0.18865736
-8.1106644 0.14723584 0
-8.100482 0.14705101 0.18810029
-8.0938692 0.14693095 0.37751213
-8.0988865 0.14702204 0.56642258
-8.097497 0.14699681 0.75558311
-8.1034355 0.14710462 0.94778979
-8.1030188 0.14709705 1.1389927
-8.1276808 0.14754476 1.3355489
-8.153183 0.14800771 1.5363922
-8.2451687 0.17559101 -0.3845928
-8.1539526 0.17364846 -0.18935367
-8.122159 0.17297137 0
-8.1179724 0.17288221 0.18851809
-8.1013575 0.17252837 0.37788481
-8.1043682 0.17259249 0.56684113
-8.0930128 0.17235066 0.75521147
-8.0969753 0.17243506 0.94709283
-8.0965767 0.17242657 1.1381577
-8.1133652 0.17278409 1.3332791
-8.133029 0.17320287 1.5326892
-8.2094069 0.19776484 -0.19065349
-8.1496363 0.19632497 0
-8.1294508 0.1958387 0.18879662
-8.1168222 0.19553448 0.37863013
-8.1098385 0.19536625 0.56725961
-8.1024542 0.19518836 0.75614041
-8.0944767 0.19499618 0.94686055
-8.0940838 0.19498672 1.1378794
-8.1148243 0.19548637 1.3336035
-8.1246538 0.19572316 1.5312079
-8.1969614 0.22323394 0
-8.1487818 0.22192182 0.18926084
-8.1341419 0.22152312 0.37946865
-8.1231461 0.22122367 0.56823629
-8.1037912 0.22069657 0.7563262
-8.0958099 0.22047919 0.94709283
-8.0914516 0.22036052 1.137601
-8.1062794 0.22076431 1.3323065
-8.1200695 0.22113988 1.5304674
-8.1961393 0.24468714 0.19037496
-8.1554995 0.24347387 0.38049346
-8.1325102 0.24278755 0.56893378
-8.1131382 0.24220923 0.75725514
-8.101162 0.24185167 0.94778979
-8.090847 0.24154375 1.137601
-8.107646 0.24204524 1.3326308
-8.1096411 0.24210481 1.5286158
-8.1846457 0.27008265 0.38189095
-8.1536407 0.26905954 0.57046843
-8.124279 0.26809064 0.75836986
-8.1122732 0.26769447 0.94918352
-8.0900488 0.26696107 1.137601
-8.1088171 0.26758042 1.332955
-8.1009817 0.26732188 1.5271345
-8.2476969 0.29666427 0.38487229
-8.1867018 0.29447034 0.57284021
-8.1413574 0.29283932 0.76004183
-8.1173983 0.29197752 0.94988048
-8.1050549 0.29153353 1.1398278
-8.104043 0.29149714 1.3323065
-8.109973 0.29171047 1.5289861
-8.2377377 0.31790107 0.57646745
-8.1624527 0.31499577 0.7620855
-8.1305017 0.31376275 0.95150656
-8.1181173 0.31328481 1.1417762
-8.1170568 0.31324393 1.3345761
-8.1150742 0.31316739 1.5300969
-8.2032642 0.34094793 0.76598698
-8.1533527 0.33887348 0.9542942
-8.1310034 0.3379446 1.1437247
-8.1239805 0.33765268 1.3358732
-8.1258917 0.33773214 1.5323188
-8.2618332 0.36938822 0.77156049
-8.1859827 0.36599693 0.95824325
-8.1595793 0.36481646 1.1478997
-8.1386509 0.36388072 1.3384671
-8.1365719 0.36378774 1.5345407
-8.2405567 0.39005506 0.96474779
-8.178381 0.38711205 1.1506833
-8.157383 0.38611817 1.3417095
-8.1512966 0.3858301 1.5375032
-8.2305307 0.41549975 1.1581986
-8.1817541 0.41303739 1.3459246
-8.1559334 0.4117339 1.538614
-8.2258968 0.43829927 1.3533822
-8.1763411 0.43565884 1.5426874
-8.2738199 0.46547583 1.3614882
-8.2122965 0.46201459 1.5497233
-8.2618999 0.48940104 1.559351
