# .PCD v0.7 - Point Cloud Data file format
VERSION 0.7
FIELDS x y z
SIZE 4 4 4
TYPE F F F
COUNT 1 1 1
WIDTH 113
HEIGHT 1
VIEWPOINT 0 0 0 1 0 0 0
POINTS 113
DATA ascii
0.11965401 -1.0667394 -0.63659567
0.1149919 -1.0516789 -0.62741399
0.11169077 -1.046845 -0.62435347
0.1076929 -1.0403463 -0.62027276
0.10409782 -1.0337965 -0.61619198
0.10169917 -1.0409492 -0.62027276
0.09909679 -1.0463841 -0.62333328
0.095834501 -1.0449604 -0.62231308
0.092945904 -1.0434943 -0.62129289
0.08925917 -1.0369098 -0.61721218
0.086182155 -1.0371702 -0.61721218
0.083698541 -1.0425509 -0.62027276
0.08020708 -1.0376493 -0.61721218
0.077000543 -1.0361673 -0.61619198
0.074293084 -1.0415388 -0.61925256
0.070796192 -1.0331612 -0.61415166
0.067505345 -1.0299335 -0.61211121
0.065275446 -1.0404191 -0.61823231
0.062393226 -1.0440427 -0.62027276
0.059770994 -1.0493652 -0.62333328
0.056468327 -1.0426571 -0.61925256
0.052929498 -1.0376753 -0.61619198
0.04993302 -1.039546 -0.61721218
0.047211241 -1.0396732 -0.61721218
0.043581557 -1.0312228 -0.61211121
0.040656805 -1.0347855 -0.61415166
0.037947651 -1.0348885 -0.61415166
0.034587167 -1.0264001 -0.60905063
0.030907689 -1.005865 -0.59680849
0.024736375 -0.88557774 -0.52539551
0.020101836 -0.79965854 -0.47438622
0.017362634 -0.78939879 -0.46826509
0.015158094 -0.78944421 -0.46826509
0.015531538 -0.80889332 -0.45457062
0.013011198 -0.80152577 -0.47540641
0.012989984 -0.80021888 -0.44967225
0.010472376 -0.77919787 -0.46214399
0.010802207 -0.80373895 -0.45163161
0.0081062261 -0.77406514 -0.45908344
0.0082164314 -0.78458863 -0.44085515
-0.00096284511 -0.78811836 -0.4428145
-0.00099887373 -0.81760883 -0.43473071
-0.0032607554 -0.81230521 -0.43191385
-0.0057368893 -0.80169588 -0.4262802
-0.0079405429 -0.79814517 -0.42440233
-0.010146718 -0.79635412 -0.4234634
-0.012481905 -0.79455477 -0.42252442
-0.015070124 -0.80687338 -0.42909703
-0.017247424 -0.80329716 -0.42721915
-0.019975981 -0.81736541 -0.43473071
-0.022207486 -0.81024164 -0.43097493
-0.024504226 -0.806642 -0.42909703
-0.025992718 -0.78769022 -0.4428145
-0.026674133 -0.80834001 -0.43003601
-0.029213512 -0.80825222 -0.43003601
-0.030530786 -0.78403741 -0.44085515
-0.031332996 -0.80463845 -0.4281581
-0.033646364 -0.80277753 -0.42721915
-0.035948873 -0.80091006 -0.4262802
-0.03810114 -0.79904258 -0.42534125
-0.054807611 -0.77216494 -0.45908344
-0.056262236 -0.79265863 -0.42252442
-0.057343498 -0.77715552 -0.46214399
-0.063879281 -0.80093896 -0.42721915
-0.065685876 -0.79724914 -0.42534125
-0.072319858 -0.79312843 -0.4234634
-0.075885095 -0.78095347 -0.44085515
-0.07719586 -0.79444289 -0.42440233
-0.079765506 -0.79773849 -0.4262802
-0.082493864 -0.80101156 -0.4281581
-0.085009933 -0.80074847 -0.4281581
-0.088634141 -0.81456739 -0.43566963
-0.087111935 -0.77784598 -0.46418434
-0.091389313 -0.81603986 -0.43660858
-0.09340661 -0.81225646 -0.43473071
-0.091791861 -0.77903986 -0.46520454
-0.09546791 -0.8102386 -0.43379176
-0.094173007 -0.78048831 -0.46622473
-0.098364718 -0.81522846 -0.43660858
-0.10070834 -0.81316286 -0.43566963
-0.10000812 -0.79053628 -0.44771287
-0.10283682 -0.81289643 -0.43566963
-0.099875525 -0.7711069 -0.46112379
-0.10324906 -0.79715282 -0.45163161
-0.10479457 -0.80908519 -0.43379176
-0.10687125 -0.80525082 -0.43191385
-0.10911956 -0.80494922 -0.43191385
-0.106263 -0.76677948 -0.45908344
-0.11199217 -0.80812037 -0.43379176
-0.10851073 -0.76820195 -0.46010363
-0.11633038 -0.82356119 -0.44224223
-0.11054385 -0.76617402 -0.45908344
-0.12079076 -0.83719486 -0.44975379
-0.113318 -0.76924634 -0.46112379
-0.12198739 -0.82809752 -0.44505909
-0.11522204 -0.76548445 -0.45908344
-0.12669113 -0.84167999 -0.45257062
-0.11852814 -0.77368206 -0.46418434
-0.12029214 -0.7699278 -0.46214399
-0.12165838 -0.7786724 -0.4428145
-0.12217148 -0.76788998 -0.46112379
-0.12657207 -0.79554927 -0.45261127
-0.12513447 -0.77089846 -0.46316418
-0.1287913 -0.79342663 -0.45163161
-0.12854384 -0.77731258 -0.46724492
-0.13256723 -0.8016423 -0.45652997
-0.13214096 -0.78543258 -0.47234586
-0.13480528 -0.80126899 -0.45652997
-0.13259301 -0.77488691 -0.46622473
-0.13968912 -0.81635731 -0.46534708
-0.13607217 -0.78126901 -0.47030547
-0.14092989 -0.794388 -0.47846693
-0.14743993 -0.81943709 -0.49376974
