# .PCD v0.7 - Point Cloud Data file format
VERSION 0.7
FIELDS x y z
SIZE 4 4 4
TYPE F F F
COUNT 1 1 1
WIDTH 71
HEIGHT 1
VIEWPOINT 0 0 0 1 0 0 0
POINTS 71
DATA ascii
25.456886 -8.6513596 -1.2538396
25.338882 -8.7001505 -1.2493676
25.2103 -8.7298489 -1.2441503
25.095295 -8.7685833 -1.2396783
24.916557 -8.7891722 -1.2321317
24.758282 -8.8111591 -1.2255169
24.627075 -8.8517284 -1.2203927
24.444494 -8.8632622 -1.2125667
24.293938 -8.8855114 -1.2063246
24.179062 -8.920126 -1.2018526
23.972431 -8.9200306 -1.1928153
23.841124 -8.9517927 -1.187598
23.732553 -8.9961977 -1.1835918
23.540956 -8.9941244 -1.1752068
23.273693 -8.9712381 -1.1631882
23.134962 -8.9920464 -1.1575052
23.104179 -9.0544291 -1.1572256
23.010328 -9.0964994 -1.1538715
22.963083 -9.1613407 -1.1529399
22.87414 -9.1953449 -1.1496791
22.789124 -9.2351761 -1.1466978
22.68973 -9.2779894 -1.1431574
22.613861 -9.3207607 -1.1406419
22.458813 -9.3349066 -1.1342134
22.368164 -9.3705692 -1.1309526
22.26829 -9.4019136 -1.1272259
22.170252 -9.4335546 -1.1235924
22.059359 -9.4592104 -1.1193067
21.93235 -9.4864311 -1.1143688
21.874807 -9.5386868 -1.1128782
21.747326 -9.5509348 -1.1076609
21.572746 -9.5507174 -1.1002076
21.410975 -9.5506964 -1.0933131
21.302372 -9.5781336 -1.0892138
21.186514 -9.6017132 -1.0847418
21.037853 -9.6052446 -1.0784996
20.960127 -9.6405811 -1.0758909
20.88068 -9.679203 -1.0732822
20.786707 -9.7106733 -1.0699282
20.723249 -9.7472029 -1.0679717
20.631149 -9.7831545 -1.0648041
20.513702 -9.8021183 -1.0602388
20.424959 -9.8254776 -1.056978
20.348972 -9.8633804 -1.0545557
20.233309 -9.8728161 -1.0498974
20.12331 -9.8975334 -1.0457981
20.052738 -9.9411821 -1.0437483
19.910397 -9.9312963 -1.0375993
19.736301 -9.9220095 -1.030146
19.647867 -9.9420748 -1.0268852
19.531065 -9.9558687 -1.02232
19.419687 -9.971796 -1.0180342
19.28532 -9.9752188 -1.0125375
19.198887 -9.9943085 -1.0093699
19.084221 -10.006696 -1.0048977
18.946684 -10.006363 -0.99921459
18.886915 -10.042352 -0.99753761
18.818289 -10.077596 -0.99548793
18.71973 -10.0964 -0.99185443
18.58963 -10.093346 -0.98645073
18.536812 -10.135997 -0.98523957
18.483932 -10.174234 -0.98393524
18.382051 -10.185144 -0.98002219
18.247042 -10.185391 -0.97452533
18.063572 -10.140948 -0.96604717
17.942936 -10.147491 -0.96129572
17.879803 -10.17779 -0.95943236
17.783707 -10.188947 -0.95579886
17.685856 -10.206819 -0.95225853
17.551905 -10.194957 -0.94657534
17.416378 -10.185467 -0.94089216
