# .PCD v0.7 - Point Cloud Data file format
VERSION 0.7
FIELDS x y z
SIZE 4 4 4
TYPE F F F
COUNT 1 1 1
WIDTH 455
HEIGHT 1
VIEWPOINT 0 0 0 1 0 0 0
POINTS 455
DATA ascii
-5.862411 2.7962263 -2.0267398
-5.8068814 2.7884231 -2.0100589
-5.9344831 2.8726761 -0.92661458
-5.9889812 2.8990569 -0.4652757
-6.0798063 2.943022 -0.31499714
-5.7877812 2.8016629 -2.0064845
-5.8454456 2.8295763 -1.8622061
-5.8409791 2.8274143 -1.6988107
-5.8453612 2.8295355 -1.5387527
-5.8838811 2.8481815 -1.2316319
-5.7679219 2.8119569 -2.0023141
-5.8029594 2.8290379 -1.8511807
-5.8017569 2.8284519 -1.6896937
-5.8129473 2.8339074 -1.532297
-5.8169737 2.8358703 -1.3755438
-5.851172 2.8525424 -1.2264476
-5.8539252 2.8766818 -1.0716166
-5.8568964 2.8781419 -0.9171508
-5.8726411 2.885879 -0.76520085
-5.7539191 2.8275378 -2.0005269
-5.7767878 2.8387756 -1.8456677
-5.7772141 2.8389852 -1.6851351
-5.7882957 2.8444307 -1.528147
-5.7852106 2.8429146 -1.3701382
-5.8210139 2.8605087 -1.2220039
-5.8211064 2.8807635 -1.0670773
-5.8257604 2.8830667 -0.91353226
-5.8378534 2.8890514 -0.76171631
-5.8557916 2.8979287 -0.60955691
-5.863318 2.9016533 -0.45746294
-5.8999043 2.9197593 -0.30698481
-5.7340226 2.8376672 -1.9963566
-5.7567763 2.8489277 -1.8418089
-5.7553911 2.8482423 -1.6810831
-5.7681203 2.8545415 -1.5249192
-5.775496 2.8581917 -1.3697224
-5.7989106 2.8697791 -1.2190415
-5.8001695 2.8918586 -1.0648077
-5.7923656 2.8879678 -0.90963542
-5.8168116 2.900156 -0.76009017
-5.8293462 2.9064057 -0.6076991
-5.8421845 2.9128065 -0.45648634
-5.86976 2.9265552 -0.30586681
-5.9049754 2.9441128 -0.15319125
-5.7238688 2.8538165 -1.9957609
-5.7431364 2.8634229 -1.840155
-6.0770621 3.0299122 0.63352305
-5.7382565 2.86099 -1.6785506
-5.7509165 2.8673019 -1.5226135
-5.7512326 2.8674595 -1.3659799
-5.7833343 2.8834648 -1.2175603
-5.7774558 2.9019675 -1.0622138
-5.7749228 2.9006953 -0.90824378
-5.7851048 2.9058096 -0.7570703
-5.8064618 2.9165373 -0.60621285
-5.8192539 2.9229627 -0.45537028
-5.841413 2.934093 -0.30484197
-5.86584 2.9463623 -0.15240209
-5.8924417 2.9597242 0
-5.9140821 2.9705939 0.15365547
-5.9485302 2.9878967 0.31043199
-5.7051401 2.8656442 -1.9921864
-5.724308 2.875272 -1.8368475
-5.7228274 2.8745282 -1.6765246
-5.7354283 2.8808575 -1.520769
-6.0952606 3.0615983 0.95862442
-5.7374554 2.8818758 -1.3647324
-5.7571907 2.8917887 -1.2138572
-5.7640462 2.9154184 -1.061241
-5.756196 2.9114478 -0.90657365
-5.7787404 2.9228506 -0.75730264
-5.7894092 2.9282467 -0.60528392
-5.8057275 2.9365003 -0.45495173
-5.8242831 2.9458859 -0.30437616
-5.8450999 2.9564147 -0.15207714
-5.8627372 2.9653356 0
-5.8825684 2.9753659 0.15305199
-5.9169869 2.9927747 0.30922082
-5.6988192 2.882427 -1.9927822
-5.9534965 3.0112412 0.46653128
-5.7145405 2.8903785 -1.8362961
-5.7113247 2.8887522 -1.6755115
-5.7221508 2.894228 -1.5193857
-5.7189116 2.8925896 -1.3622376
-5.7490926 2.9078548 -1.2138572
-5.7407928 2.9263408 -1.058647
-5.739964 2.9259183 -0.9054603
-5.7589116 2.9355767 -0.75590879
-5.7748599 2.9437063 -0.60472655
-5.7840319 2.9483817 -0.45397514
-5.8043208 2.9587238 -0.30381715
-5.8233142 2.9684055 -0.15175219
-5.8462658 2.9801049 0
-5.8696299 2.9920149 0.15295915
-5.8915372 3.0031817 0.3083823
-5.6897364 2.900315 -1.9927822
-5.922678 3.0190558 0.46485716
-5.7054324 2.9083159 -1.8362961
-5.9434042 3.0296209 0.62237602
-5.7004981 2.9058006 -1.6750051
-5.9677472 3.0420296 0.78332037
-5.7095633 2.9104216 -1.5184635
-5.7063107 2.9087636 -1.3614058
-5.7329259 2.9223306 -1.212376
-6.0778818 3.0981703 1.2853259
-5.7308426 2.9414599 -1.0583228
-5.7264848 2.9392231 -0.90462524
-5.7383204 2.945298 -0.75428271
-5.7613015 2.9570935 -0.60416919
-5.7686758 2.9608786 -0.45341709
-5.7942581 2.974009 -0.30372399
-5.8078866 2.9810042 -0.15156651
-5.8272448 2.9909401 0
-5.8523574 3.0038295 0.15272704
-5.8706856 3.013237 0.30773014
-5.6850119 2.9179363 -1.9939736
-5.9053488 3.0310283 0.46415958
-5.6955786 2.9233599 -1.8357449
-5.9154325 3.0362041 0.62033242
-5.6923609 2.9217086 -1.6750051
-5.9327197 3.0450768 0.77983582
-5.703145 2.9272435 -1.5189246
-5.955544 3.056792 0.9408102
-5.6999054 2.9255807 -1.3618217
-5.7229943 2.9374316 -1.2120057
-5.7180672 2.9576361 -1.0576743
-5.7154627 2.9562891 -0.90434688
-5.7325673 2.9651363 -0.75474727
-5.7413707 2.9696896 -0.60305446
-5.7575727 2.97807 -0.45327756
-5.7831116 2.9912798 -0.3036308
-5.7878366 2.9937239 -0.15128797
-5.8089375 3.0046382 0
-5.8322358 3.0166891 0.15244852
-5.8434448 3.0224869 0.30679849
-5.6775122 2.9366591 -1.9945693
-5.8727598 3.0376499 0.4623459
-5.6931963 2.9447718 -1.83795
-5.8987899 3.0511138 0.61958927
-5.6848726 2.9404664 -1.6755115
-5.9072437 3.0554864 0.77774507
-5.6973777 2.9469345 -1.5198468
-5.9353561 3.0700276 0.93914014
-5.6889486 2.9425747 -1.3614058
-5.9669838 3.0863867 1.1037165
-5.7085004 2.9526877 -1.2108948
-5.9913063 3.0989673 1.270884
-5.706285 2.9717698 -1.0570259
-5.7071848 2.9722383 -0.90434688
-5.7277884 2.9829686 -0.75521189
-5.7348218 2.9866312 -0.60324031
-5.7439256 2.9913723 -0.45285901
-5.7676477 3.0037267 -0.30325812
-5.7776804 3.0089517 -0.15124156
-5.7987499 3.0199244 0
-5.8149214 3.0283465 0.1522164
-5.8367538 3.0397162 0.30689165
-5.6811428 2.9586759 -1.9987397
-5.8518672 3.0475874 0.46136931
-5.6934762 2.9650991 -1.8407063
-5.8761168 3.0602162 0.61810297
-5.6800709 2.9581177 -1.6765246
-5.8898787 3.0673833 0.77658361
-5.6925778 2.9646311 -1.520769
-5.9109507 3.0783572 0.93663508
-5.6824441 2.9593537 -1.3618217
-5.9408374 3.0939221 1.1004741
-5.705462 2.9713411 -1.2120057
-5.9634542 3.1057005 1.2668108
-5.6979637 2.9876935 -1.0570259
-5.6953549 2.9863255 -0.90379024
-5.7141581 2.9961848 -0.75451499
-5.7211676 2.9998605 -0.60268295
-5.7302485 3.004622 -0.4524405
-5.7521596 3.0161109 -0.30288547
-5.7639432 3.0222893 -0.15110229
-5.7832088 3.0323913 0
-5.7975879 3.0399308 0.1519843
-5.8158565 3.04951 0.30623949
-5.6813121 2.9789624 -2.0017183
-5.8451004 3.0648439 0.46150881
-5.6953902 2.9863441 -1.844014
-5.8552027 3.0701408 0.61680251
-5.6820693 2.9793594 -1.6795636
-5.8636971 3.074595 0.77426058
-5.6860003 2.9814205 -1.5212302
-5.888298 3.0874944 0.93440825
-5.681088 2.9788449 -1.363485
-5.9251833 3.1068347 1.0991771
-5.6988826 2.9881754 -1.212376
-5.9356108 3.1123023 1.2627374
-5.6925645 3.0064287 -1.0576743
-5.6934748 3.0069094 -0.90490359
-5.7017303 3.0112693 -0.75405037
-5.7122426 3.0168211 -0.60268295
-5.7213092 3.0216095 -0.4524405
-5.7449527 3.0340967 -0.30297863
-5.7514153 3.0375094 -0.15100946
-5.7653446 3.0448661 0
-5.7885432 3.0571182 0.1519843
-5.8032503 3.0648854 0.30605313
-5.6842666 3.0020463 -2.0058887
-5.8306894 3.0793769 0.46109027
-5.7001047 3.010411 -1.8484242
-5.839025 3.0837791 0.61605936
-5.6851811 3.0025294 -1.6831092
-5.8545494 3.0919783 0.77426058
-5.6805716 3.0000947 -1.5221524
-5.8686042 3.099401 0.93273818
-5.6791449 2.9993412 -1.3651483
-5.901979 3.117027 1.0965832
-5.6952057 3.0078237 -1.2134869
-5.9159231 3.1243916 1.2605155
-5.6893744 3.0250936 -1.058647
-5.6833067 3.0218673 -0.90462524
-5.7020688 3.0318434 -0.75521189
-5.7055535 3.0336962 -0.60286874
-5.7075639 3.0347652 -0.45202196
-5.7346935 3.04919 -0.30288547
-5.7446752 3.0544977 -0.15105587
-5.7603502 3.0628324 0
-5.7746873 3.0704553 0.15184504
-5.7946687 3.0810797 0.30605313
-5.6944046 3.0277681 -2.0124419
-5.815021 3.0919011 0.46053225
-5.7239285 3.0434661 -1.8588985
-5.8268738 3.0982032 0.61568779
-5.6938572 3.027477 -1.6881741
-5.8353686 3.10272 0.77286679
-5.6824813 3.0214283 -1.5249192
-5.8546801 3.1129882 0.93190312
-5.6776557 3.0188627 -1.3668116
-5.8827958 3.1279376 1.0946379
-5.6954603 3.0283296 -1.2153383
-5.8984985 3.1362867 1.258664
-5.6873326 3.0456882 -1.059944
-5.6795535 3.0415223 -0.9054603
-5.6947989 3.0496864 -0.75544417
-5.700038 3.0524924 -0.60324031
-5.7073278 3.0563962 -0.45271951
-5.7256207 3.0661922 -0.30288547
-5.7302985 3.0686975 -0.15091661
-5.7547636 3.0817988 0
-5.7655516 3.0875762 0.15184504
-5.7802172 3.0954299 0.30577365
-5.6887612 3.0464532 -2.0136333
-5.8040624 3.1081996 0.46039274
-5.8106332 3.1117182 0.6149447
-5.7121391 3.0589728 -1.6962782
-5.8261366 3.1200206 0.77286679
-5.6889315 3.0465443 -1.5290692
-5.8419256 3.1284761 0.93134648
-5.6807456 3.0421607 -1.3697224
-5.8595705 3.1379251 1.0920439
-5.6951132 3.049855 -1.2171899
-5.8839684 3.1509907 1.2575531
-5.6829472 3.0663505 -1.0609167
-5.6804285 3.0649915 -0.9071303
-5.6886873 3.0694478 -0.75590879
-5.6939263 3.0722744 -0.60361183
-5.6976986 3.0743101 -0.45271951
-5.7177191 3.0851123 -0.30297863
-5.7241502 3.0885825 -0.15100946
-5.7450542 3.0998616 0
-5.7558241 3.1056726 0.15184504
-5.7704654 3.1135726 0.30577365
-5.7872467 3.1226275 0.45983469
-5.7973247 3.1280651 0.61457306
-5.7399621 3.0971141 -1.7074212
-5.8180547 3.1392505 0.77309906
-5.7050238 3.0782623 -1.5359859
-5.8268404 3.143991 0.93051142
-5.6883774 3.0692806 -1.3738806
-5.8479476 3.1553798 1.0917196
-5.6906939 3.0705302 -1.2183009
-5.8671227 3.1657259 1.2560719
-5.6835718 3.085927 -1.0625379
-5.6793466 3.0836329 -0.90824378
-5.6893597 3.0890696 -0.7570703
-5.696363 3.0928721 -0.60472655
-5.6931367 3.0911205 -0.45299855
-5.714889 3.1029308 -0.30325812
-5.723073 3.1073744 -0.15119514
-5.7334032 3.1129832 0
-5.7529445 3.1235933 0.1519843
-5.7605381 3.1277163 0.30568048
-5.7825575 3.1396718 0.4601137
-5.7908649 3.1441824 0.61475891
-5.8028331 3.1506805 0.77216989
-5.7208891 3.1061885 -1.5424417
-5.8151078 3.1573453 0.92995471
-5.6940765 3.0916305 -1.3772072
-5.8396664 3.1706793 1.0917196
-5.7050891 3.09761 -1.2231148
-5.8553591 3.1791999 1.2553313
-5.6974454 3.1140904 -1.0667531
-5.6828794 3.1061289 -0.91019219
-5.6911707 3.1106608 -0.7584641
-5.694694 3.1125865 -0.60546964
-5.6914864 3.1108332 -0.4535566
-5.7062025 3.1188767 -0.30325812
-5.723146 3.1281378 -0.15142724
-5.7299533 3.1318583 0
-5.7389369 3.1367686 0.15184504
-5.7535348 3.1447475 0.30577365
-5.7737679 3.1558065 0.4601137
-5.7803154 3.1593852 0.61457306
-5.7887836 3.1640136 0.77147299
-5.801055 3.1707211 0.92911965
-5.7231865 3.12816 -1.3863553
-5.8221312 3.1822407 1.0900985
-5.7188377 3.125783 -1.2279288
-5.8447347 3.1945953 1.254961
-5.7049212 3.1414955 -1.0699955
-5.6852365 3.1306558 -0.91214061
-5.6970301 3.13715 -0.76055479
-5.6936088 3.1352661 -0.60639858
-5.6939178 3.1354363 -0.45453319
-5.7138758 3.1464264 -0.3041898
-5.718544 3.1489973 -0.15156651
-5.7288451 3.1546695 0
-5.741313 3.1615353 0.15216999
-5.7506266 3.1666639 0.30614632
-5.7638245 3.1739314 0.4601137
-5.773849 3.1794517 0.6149447
-5.7840343 3.1850603 0.77216989
-5.7927995 3.189887 0.92939806
-5.8155613 3.2024212 1.0907469
-5.7485867 3.1655405 -1.2364458
-5.8277822 3.2091508 1.2534798
-5.7231903 3.1737208 -1.0751834
-5.6949754 3.1580746 -0.91520238
-5.6946464 3.1578922 -0.76148403
-5.6929889 3.1569729 -0.60732752
-5.6880803 3.1542509 -0.45481223
-5.7167454 3.1701469 -0.30484197
-5.7179193 3.1707978 -0.15179862
-5.7229581 3.1735921 0
-5.7336564 3.1795247 0.1522164
-5.7429528 3.18468 0.30623949
-5.7613616 3.1948881 0.46067175
-5.7626491 3.1956022 0.61475891
-5.7815075 3.2060599 0.77309906
-5.7867742 3.2089803 0.92995471
-5.8043089 3.2187042 1.0904226
-5.8182354 3.2264268 1.2534798
-5.7602715 3.2166679 -1.0839379
-5.7115183 3.1894429 -0.91937757
-5.7008605 3.1834915 -0.76357472
-5.6992445 3.1825891 -0.60899955
-5.6978569 3.1818142 -0.45634684
-5.7212687 3.1948876 -0.30558732
-5.7137232 3.1906743 -0.15193787
-5.7292323 3.1993349 0
-5.7311802 3.2004228 0.15240209
-5.7421999 3.2065763 0.3067053
-5.7553406 3.2139144 0.46095079
-5.7600965 3.2165704 0.615502
-5.7719693 3.2232003 0.77309906
-5.7772274 3.2261364 0.92995471
-5.7964559 3.2368741 1.0907469
-5.8086367 3.2436762 1.2534798
-5.7469134 3.2316148 -0.92661458
-5.7277508 3.2208393 -0.76845306
-5.7106051 3.2111979 -0.611229
-5.7023029 3.2065294 -0.45746294
-5.718729 3.2157662 -0.30595997
-5.7199159 3.2164335 -0.15235567
-5.7232008 3.2182808 0
-5.7303729 3.2223139 0.1526342
-5.7396259 3.2275169 0.30707797
-5.7544746 3.2358665 0.46164834
-5.7592058 3.2385271 0.61643094
-5.7675748 3.2432332 0.77379596
-5.7797136 3.2500589 0.93190312
-5.790267 3.2559934 1.0913954
-5.802413 3.2628233 1.2542204
-5.7694383 3.2641914 -0.77518982
-5.7316427 3.2428079 -0.61438733
-5.7129903 3.2322547 -0.45899761
-5.7328954 3.2435164 -0.30717114
-5.7236576 3.2382898 -0.15268062
-5.7269406 3.2401474 0
-5.7393193 3.2471509 0.15309842
-5.7433286 3.2494192 0.30773014
-5.7546654 3.2558334 0.4623459
-5.7628398 3.2604582 0.61773139
-5.7694383 3.2641914 0.77518982
-5.7746325 3.2671301 0.93245983
-5.7885933 3.2750287 1.0926924
-5.8006935 3.2818749 1.2557017
-5.7646799 3.2854478 -0.61903191
-5.7288089 3.2650039 -0.46109027
-5.7417707 3.2723913 -0.30819598
-5.7308283 3.2661548 -0.15314484
-5.7358475 3.2690156 0
-5.7412505 3.2720947 0.15342337
-5.7469778 3.2753589 0.30847546
-5.7565427 3.2808101 0.46332249
-5.75949 3.28249 0.6184746
-5.7677851 3.2872176 0.77635133
-5.7763858 3.292119 0.93440825
-5.7868505 3.2980833 1.0943136
-5.7937703 3.3020272 1.2564422
-5.769279 3.3107855 -0.46513617
-5.7701573 3.3112898 -0.31024566
-5.755796 3.3030481 -0.15407327
-5.7486734 3.2989607 0
-5.7488589 3.299067 0.15388758
-5.7510972 3.3003516 0.30922082
-5.7519746 3.3008552 0.46374103
-5.7618151 3.3065023 0.61977506
-5.7648978 3.3082712 0.77728051
-5.7751813 3.3141727 0.93580002
-5.7873087 3.3211324 1.096259
-5.7907658 3.3231163 1.2579234
-5.8110576 3.3563678 -0.31294748
-5.7950282 3.3471096 -0.15537307
-5.7775397 3.3370082 0
-5.7621312 3.3281088 0.15449105
-5.7626171 3.3283894 0.31033882
-5.7703762 3.332871 0.46597326
-5.7680783 3.3315437 0.62144715
-5.7728376 3.3342927 0.77960354
-5.7796235 3.338212 0.93802679
-5.7882652 3.3432033 1.0982045
-5.7967806 3.3481214 1.2612561
-5.8194809 3.3842978 0
-5.793715 3.369314 0.15560518
-5.785531 3.3645546 0.31210899
-5.7828836 3.3630152 0.46778691
-5.782269 3.3626575 0.62404811
-5.7783751 3.360393 0.78169429
-5.788527 3.3662968 0.94108856
-5.7902637 3.3673067 1.1004741
-5.7953167 3.3702455 1.2631077
-5.8249235 3.4119985 0.31481084
-5.8067198 3.4013357 0.47057718
-5.7940125 3.3938923 0.62646329
-5.7917852 3.3925874 0.78494644
-5.7915931 3.3924751 0.94331539
-5.794981 3.3944597 1.1033924
-5.7982659 3.3963838 1.2660701
-5.8342614 3.4393857 0.63185102
-5.823359 3.4329586 0.79052168
-5.8093958 3.4247272 0.94776893
-5.805882 3.4226556 1.1072832
-5.8056908 3.4225428 1.2697731
-5.8490205 3.4715133 0.79540002
-5.8366776 3.4641876 0.95389247
-5.8279462 3.4590051 1.1134439
-5.817482 3.4527946 1.2745872
-5.8650928 3.5046272 1.1225225
-5.8527646 3.4972606 1.2845852
-5.8772802 3.5328214 1.2919914
