# .PCD v0.7 - Point Cloud Data file format
VERSION 0.7
FIELDS x y z
SIZE 4 4 4
TYPE F F F
COUNT 1 1 1
WIDTH 357
HEIGHT 1
VIEWPOINT 0 0 0 1 0 0 0
POINTS 357
DATA ascii
-3.8194757 5.3725395 -2.2273738
-3.7676036 5.3349848 -2.2068865
-3.8084588 5.3928366 -2.060102
-3.7332554 5.3197722 -2.1960025
-3.7672176 5.3681674 -2.0463996
-3.8001137 5.4150434 -1.8969364
-3.7042906 5.3099761 -2.1876793
-3.7325482 5.3504825 -2.035676
-3.7541766 5.3814859 -1.8815007
-3.7803655 5.4190269 -1.7297074
-3.6809638 5.3100429 -2.1831977
-3.7046928 5.3442736 -2.0291228
-3.7250504 5.373641 -1.8748854
-3.7400208 5.3952365 -1.7185643
-3.7707641 5.4395857 -1.5682644
-3.7782264 5.4503508 -1.4096414
-3.7936094 5.4725418 -1.2545907
-3.8189268 5.5441227 -0.78726947
-3.8706698 5.6192403 -0.47713426
-3.878176 5.6301374 -0.31881699
-3.6598194 5.3131385 -2.1799967
-3.6790733 5.3410902 -2.023761
-3.6970944 5.3672528 -1.8688214
-3.7152171 5.3935623 -1.7145123
-3.7369454 5.425106 -1.5608864
-3.742064 5.4325371 -1.4021566
-3.7595177 5.4578753 -1.2486658
-3.8495367 5.6200018 0
-3.6384006 5.3117609 -2.1755152
-3.8848724 5.6715889 0.32058719
-3.6586032 5.3412552 -2.0201867
-3.6808562 5.3737426 -1.8677189
-3.6901491 5.3873091 -1.7094473
-3.7106307 5.4172106 -1.555814
-3.7178776 5.4277906 -1.3984141
-3.7263329 5.4401345 -1.2423707
-3.7278838 5.4792385 -1.0888015
-3.7536852 5.5171618 -0.62256181
-3.6184983 5.3184643 -2.1735942
-3.636436 5.3448291 -2.0172079
-3.6553051 5.3725629 -1.8633085
-3.6666765 5.3892765 -1.7064083
-3.6870263 5.4191866 -1.5530474
-3.6909039 5.4248857 -1.3946717
-3.7103302 5.4534388 -1.242741
-3.7016637 5.4755602 -1.0858834
-3.7092359 5.4867611 -0.93078977
-3.7203364 5.503181 -0.77681589
-3.7339542 5.523325 -0.62200445
-3.7550495 5.5545292 -0.312668
-3.59952 5.3244677 -2.1716735
-3.6152163 5.3476858 -2.0142291
-3.632889 5.3738275 -1.860001
-3.646337 5.3937201 -1.7043823
-3.6611228 5.4155912 -1.5488973
-3.6671236 5.4244676 -1.3917609
-3.6853282 5.4513965 -1.2397785
-3.8922703 5.7575088 1.3093958
-3.6797523 5.4760485 -1.0839379
-3.6872697 5.4872355 -0.92911965
-3.7027366 5.5102525 -0.77635133
-3.7085178 5.518856 -0.62033242
-3.7233388 5.5409122 -0.46681032
-3.7339501 5.5567036 -0.31220216
-3.7448075 5.5728607 -0.15588371
-3.7525096 5.5843225 0
-3.7648809 5.6027331 0.1567193
-3.5835788 5.3329272 -2.1710334
-3.776293 5.6197162 0.31574249
-3.5970724 5.3530078 -2.0124419
-3.7889924 5.6386151 0.4750416
-3.6157222 5.3807616 -1.8588985
-3.8062563 5.6643062 0.63668138
-3.624784 5.3942471 -1.7013432
-3.6459835 5.4257951 -1.5488973
-3.6486859 5.4298172 -1.3905135
-3.6678967 5.4584055 -1.2390379
-3.6578698 5.4764557 -1.0819924
-3.6664329 5.4892759 -0.927728
-3.6774054 5.5057034 -0.77426058
-3.6919868 5.5275345 -0.62014657
-3.7000949 5.5396738 -0.46583375
-3.7117615 5.5571408 -0.31164315
-3.7203469 5.5699944 -0.15551233
-3.7357907 5.5931163 0
-3.7414474 5.6015854 0.15639435
-3.565516 5.3381858 -2.1691127
-3.7539279 5.6202707 0.31518349
-3.5810502 5.361443 -2.0118461
-3.7688003 5.6425371 0.47448355
-3.5996149 5.3892379 -1.8583471
-3.7738345 5.650074 0.63389462
-3.6086326 5.402739 -1.7008368
-3.788842 5.672543 0.79772305
-3.6275756 5.4310999 -1.547514
-3.7984376 5.6869097 0.96112949
-3.63025 5.4351039 -1.389266
-3.8201008 5.7193432 1.1299801
-3.6482739 5.4620886 -1.2375567
-3.834945 5.7415671 1.3008788
-3.6395574 5.4862747 -1.0816681
-3.6458867 5.4958153 -0.92689294
-3.6622884 5.5205393 -0.77472526
-3.6691005 5.530808 -0.61921769
-3.6782632 5.5446196 -0.4652757
-3.6909733 5.5637789 -0.31136367
-3.6995153 5.5766554 -0.15537307
-3.7126744 5.5964913 0
-3.7194114 5.606647 0.15620866
-3.5476818 5.3477812 -2.1684723
-3.7318368 5.6253767 0.31481084
-3.5641904 5.3726664 -2.0118461
-3.7433357 5.6427102 0.47350693
-3.5805423 5.397315 -1.8572446
-3.7516634 5.6552634 0.63315147
-3.5905733 5.412436 -1.7003301
-3.764415 5.6744852 0.79632926
-3.608345 5.4392252 -1.5465916
-3.7707007 5.6839604 0.95862442
-3.6131585 5.4464812 -1.389266
-3.7846594 5.7050018 1.1247922
-3.6300111 5.4718847 -1.2371863
-3.8049383 5.73557 1.2968054
-3.6201305 5.4943867 -1.0810196
-3.6264219 5.5039353 -0.92633623
-3.6361818 5.5187483 -0.77286679
-3.6484184 5.5373201 -0.61866033
-3.6608245 5.556149 -0.4652757
-3.6712759 5.5720115 -0.31117731
-3.6742754 5.5765643 -0.15504812
-3.6862693 5.5947676 0
-3.6962769 5.6099567 0.15597655
-3.5308623 5.3589015 -2.1684723
-3.708648 5.6287322 0.31434497
-3.5462422 5.3822441 -2.0112505
-3.7201004 5.6461139 0.47280937
-3.5625091 5.4069328 -1.8566934
-3.7294943 5.6603713 0.63240832
-3.5735505 5.4236903 -1.7003301
-3.7389174 5.6746731 0.79470313
-3.5923088 5.4521604 -1.5470529
-3.7462857 5.6858563 0.9569543
-3.5949523 5.4561729 -1.3888502
-3.7612875 5.7086253 1.1231711
-3.6117198 5.4816213 -1.236816
-3.7782483 5.7343669 1.2938429
-3.6046529 5.5021935 -1.0806955
-3.614172 5.5167236 -0.92689294
-3.6282535 5.538218 -0.77426058
-3.6339099 5.5468521 -0.61866033
-3.6408 5.5573688 -0.46457812
-3.6555817 5.5799322 -0.31108415
-3.6629512 5.5911808 -0.15518738
-3.6727064 5.6060715 0
-3.6804826 5.6179409 0.15593013
-3.5178597 5.3697109 -2.1691127
-3.6895208 5.6317372 0.31397232
-3.5373712 5.3994937 -2.0142291
-3.70312 5.6524949 0.47253034
-3.5493958 5.4178486 -1.8572446
-3.7102983 5.6634521 0.63166523
-3.5604 5.4346452 -1.7008368
-3.716429 5.6728101 0.79307705
-3.5780234 5.4615459 -1.5470529
-3.7248762 5.6857038 0.95528424
-3.5838728 5.4704742 -1.3900977
-3.7420044 5.7118487 1.1218741
-3.5995114 5.4943457 -1.2375567
-3.7578382 5.7360177 1.2919914
-3.5884242 5.5151463 -1.0810196
-3.5957408 5.526391 -0.92661458
-3.6086683 5.5462599 -0.77379596
-3.6153784 5.5565729 -0.6184746
-3.6244092 5.5704527 -0.46471763
-3.6369424 5.589715 -0.31099099
-3.6453662 5.6026616 -0.15518738
-3.6539838 5.6159067 0
-3.6649942 5.6328287 0.15602297
-3.5009713 5.3807373 -2.1691127
-3.6739874 5.6466503 0.31415868
-3.5172656 5.4057808 -2.0124419
-3.6820779 5.6590848 0.47211179
-3.5344529 5.4321961 -1.8583471
-3.6946583 5.6784201 0.63203681
-3.547528 5.4522915 -1.7028627
-3.6996706 5.6861234 0.79330933
-3.5629687 5.4760227 -1.5479751
-3.7091541 5.7006993 0.95584095
-3.5688012 5.4849868 -1.3909293
-3.7251158 5.7252312 1.1221983
-3.582231 5.5056276 -1.2375567
-3.7365818 5.7428536 1.2908804
-3.5772967 5.5317731 -1.0823166
-3.5835218 5.5413995 -0.92744964
-3.5964034 5.5613189 -0.77449292
-3.6041739 5.5733347 -0.61921769
-3.6120911 5.5855775 -0.46513617
-3.6234896 5.6032038 -0.31117731
-3.6318793 5.6161771 -0.15528023
-3.6404603 5.6294465 0
-3.6459942 5.6380038 0.15588371
-3.4879906 5.3936739 -2.170393
-3.6582057 5.6568871 0.31415868
-3.5083776 5.4251995 -2.0160162
-3.6684282 5.6726952 0.47239083
-3.5234466 5.4485016 -1.8605523
-3.676625 5.68537 0.63166523
-3.5343909 5.4654255 -1.7038757
-3.6837785 5.6964321 0.79330933
-3.5476639 5.4859505 -1.5479751
-3.6899951 5.7060447 0.95500588
-3.556658 5.4998584 -1.3921767
-3.7080431 5.7339535 1.1218741
-3.5711126 5.5222106 -1.2390379
-3.7269351 5.7631674 1.2931023
-3.5670702 5.5477614 -1.0836136
-3.5700715 5.5524292 -0.927728
-3.5872016 5.579071 -0.77565444
-3.5906458 5.5844274 -0.61940348
-3.6006911 5.6000504 -0.46555471
-3.6120477 5.6177135 -0.31145683
-3.617162 5.6256671 -0.15528023
-3.6267898 5.6406412 0
-3.6387894 5.6593037 0.15620866
-3.4789801 5.4107571 -2.1735942
-3.6466234 5.6714878 0.31443816
-3.4962261 5.4375792 -2.0172079
-3.6535628 5.6822805 0.47239083
-3.5154071 5.467411 -1.8638599
-3.6628034 5.6966524 0.63185102
-3.5263469 5.4844251 -1.7069148
-3.6677768 5.7043872 0.79307705
-3.539603 5.5050421 -1.5507418
-3.6793268 5.7223506 0.9561193
-3.5485938 5.5190253 -1.3946717
-3.6919496 5.7419825 1.1215498
-3.5651453 5.5447669 -1.2420003
-3.7065182 5.7646403 1.2912508
-3.5538733 5.5655928 -1.0849106
-3.5600727 5.5753012 -0.92967641
-3.5739341 5.5970092 -0.77658361
-3.5816588 5.6091065 -0.62088978
-3.5873761 5.6180601 -0.46611276
-3.5986831 5.6357679 -0.31182948
-3.603776 5.6437435 -0.15546592
-3.6122816 5.6570635 0
-3.6231451 5.6740766 0.1563015
-3.464005 5.4248528 -2.1748748
-3.629864 5.6845989 0.31453133
-3.4863195 5.4597993 -2.021378
-3.6410635 5.7021379 0.47308841
-3.5054574 5.4897704 -1.8677189
-3.6459615 5.7098088 0.63203681
-3.5184724 5.5101523 -1.7114732
-3.6530459 5.7209034 0.79377389
-3.5317183 5.5308967 -1.5548918
-3.6570687 5.7272034 0.95500588
-3.5386088 5.5416875 -1.3975825
-3.6781418 5.7602053 1.1228467
-3.5519404 5.5625658 -1.2434816
-3.6883907 5.7762556 1.2912508
-3.546778 5.5888252 -1.0875045
-3.5540416 5.6002707 -0.93218154
-3.5604203 5.610322 -0.77704823
-3.5766525 5.6359 -0.6227476
-3.5823648 5.6449008 -0.46750787
-3.5925665 5.6609764 -0.312668
-3.5944307 5.6639137 -0.15574445
-3.602901 5.6772604 0
-3.612644 5.6926131 0.15653361
-3.4549346 5.4441032 -2.1787162
-3.6182582 5.7014599 0.314904
-3.4792445 5.4824095 -2.0261443
-3.6283338 5.7173367 0.47350693
-3.4973254 5.5109 -1.8715777
-3.6353383 5.728374 0.63296568
-3.5103292 5.5313911 -1.7150187
-3.64025 5.7361131 0.79447079
-3.5256453 5.5555253 -1.5590419
-3.6442456 5.7424097 0.95584095
-3.5367475 5.5730195 -1.4029882
-3.6631007 5.7721205 1.1231711
-3.5458717 5.5873971 -1.2468143
-3.6754062 5.7915106 1.2923617
-3.545969 5.6243653 -1.0923681
-3.551142 5.6325703 -0.93580002
-3.5564723 5.6410246 -0.77983582
-3.566288 5.6565938 -0.62386233
-3.5730498 5.6673188 -0.46848449
-3.5874755 5.6901999 -0.31369281
-3.5904067 5.694849 -0.1563015
-3.5945742 5.7014594 0
-3.6032031 5.7151461 0.15685856
-3.4417989 5.4591384 -2.1806369
-3.6119814 5.7290697 0.31583565
-3.4680543 5.5007825 -2.0291228
-3.6188035 5.7398901 0.47448355
-3.4850609 5.5277572 -1.8737829
-3.6193891 5.740819 0.63315147
-3.5083487 5.5646949 -1.7221098
-3.6295722 5.7569709 0.79586464
-3.5247157 5.5906549 -1.5659586
-3.6366987 5.7682743 0.95834601
-3.5368907 5.6099663 -1.4096414
-3.6522746 5.7929797 1.1251165
-3.5502429 5.6311445 -1.2542204
-3.6624 5.8090401 1.2938429
-3.5523679 5.6739516 -1.0998256
-3.5565491 5.6806302 -0.94192362
-3.5608683 5.6875286 -0.78471416
-3.5696325 5.7015271 -0.62757796
-3.5679307 5.6988091 -0.47015864
-3.5780613 5.7149901 -0.31443816
-3.584168 5.7247438 -0.15681215
-3.5883176 5.7313714 0
-3.595839 5.7433853 0.15732278
-3.4306629 5.4795609 -2.1844783
-3.6056256 5.7590165 0.3168605
-3.4618988 5.5294514 -2.035676
-3.6123977 5.7698331 0.47601819
-3.4860396 5.5680099 -1.8837057
-3.6119018 5.7690411 0.63500935
-3.5103555 5.6068482 -1.7317333
-3.6188452 5.7801313 0.79749072
-3.6280167 5.7947803 0.96085113
-3.6340556 5.8044262 1.1251165
-3.6503885 5.8305135 1.2960647
-3.584203 5.7582593 -0.31630149
-3.5934711 5.773149 -0.15787984
-3.5923254 5.7713089 0
-3.6019237 5.7867289 0.15825121
-3.4263194 5.5046091 -2.1908805
-3.6063731 5.7938771 0.31825799
-3.4665811 5.5692921 -2.0469954
-3.6057153 5.7928205 0.47713426
-3.4948182 5.6146569 -1.8963851
-3.6052055 5.7920012 0.63649559
-3.6100001 5.7997041 0.79888457
-3.6201606 5.8160276 0.96279955
-3.6313629 5.8340249 1.1290073
-3.6423831 5.8517294 1.2986569
-3.4239507 5.5395231 -2.2004843
-3.6102099 5.840867 0.32021451
-3.4701457 5.6142612 -2.0595062
-3.6105745 5.8414569 0.48020357
-3.6058357 5.8337903 0.63983971
-3.6116045 5.8431234 0.80329829
-3.6164474 5.8509588 0.96669638
-3.6213162 5.8588357 1.1316013
-3.6374133 5.8848786 1.3034708
-3.4293118 5.5851798 -2.2145693
-3.6114349 5.8817964 0.64392692
-3.6181591 5.8927479 0.8086412
-3.6249804 5.9038577 0.9736551
-3.6245708 5.9031901 1.1380861
-3.6394773 5.9274678 1.3105067
-3.6358392 5.9564562 1.1465164
