# .PCD v0.7 - Point Cloud Data file format
VERSION 0.7
FIELDS x y z
SIZE 4 4 4
TYPE F F F
COUNT 1 1 1
WIDTH 84
HEIGHT 1
VIEWPOINT 0 0 0 1 0 0 0
POINTS 84
DATA ascii
-16.689548 0.25635117 -1.5572405
-16.700712 0.30317414 -1.5583552
-16.353365 0.29686862 -1.1437271
-16.368311 0.34858334 -1.1448432
-16.457029 0.39645031 -1.1511214
-16.766911 0.40391535 -0.78213584
-16.509552 0.44961688 -1.1548883
-16.885386 0.45985222 -0.78772587
-16.498346 0.49254084 -1.1541907
-16.576481 0.54700226 -1.1597712
-16.441921 0.59140521 -1.5349464
-16.714352 0.60120434 -1.1695371
-16.454247 0.63498288 -1.5362469
-16.884174 0.65157419 -1.1815352
-16.23741 0.67486691 -1.5161823
-17.342644 0.72080314 -1.2137626
-17.18647 0.71431214 -0.8021667
-16.253113 0.72667992 -1.5178543
-17.112289 0.76509392 -0.79881269
-16.263092 0.76979035 -1.5189691
-17.124197 0.81054962 -0.79946482
-16.236725 0.81967443 -1.5167397
-17.008755 0.8586486 -1.1908824
-17.069689 0.86172473 -0.79704249
-16.19659 0.86300069 -1.5132098
-17.068052 0.90943462 -1.1952075
-17.123075 0.91236645 -0.79965115
-17.002607 0.95654762 -0.79415429
-15.722307 1.0690835 -1.8428471
-15.902562 1.1315386 -1.4873859
-15.672103 1.1591367 -1.8377364
-15.784157 1.1674243 -1.4766103
-15.71613 1.2092901 -1.8433117
-15.869969 1.2211274 -1.4849707
-15.815441 1.2641429 -1.8553914
-15.947663 1.2747115 -1.4925878
-15.952177 1.3227183 -1.8718848
-16.110512 1.335847 -1.5081935
-15.756203 1.3535483 -1.8493515
-16.209648 1.3925018 -1.5178543
-16.080824 1.4266849 -1.8879137
-15.872458 1.4081988 -1.4866427
-15.989479 1.4664097 -1.8776922
-15.915801 1.4596525 -1.4911014
-16.033051 1.5127447 -1.8832675
-16.490831 1.5559371 -1.5453504
-15.745496 1.5355353 -1.8500484
-16.13109 1.5731393 -1.512095
-15.578798 1.5659523 -1.8309997
-16.102579 1.6186017 -1.5098658
-16.016783 1.6551708 -1.5022485
-15.670552 1.6636332 -1.8428471
-15.96457 1.694847 -1.4977896
-15.835072 1.7314211 -1.8628249
-16.070023 1.757111 -1.5081935
-15.613027 1.7512783 -1.8372718
-16.124422 1.8086402 -1.5137671
-15.627496 1.7998689 -1.8395948
-16.190201 1.8646775 -1.5204552
-15.686862 1.856661 -1.8472607
-16.091318 1.9045314 -1.5117234
-15.703641 1.900349 -1.8498161
-15.94987 1.9301461 -1.4989045
-15.640765 1.939841 -1.8430794
-15.942098 1.9772137 -1.4987186
-15.733121 2.0015073 -1.8546944
-15.914078 2.0245278 -1.496675
-16.097441 2.0964053 -1.898367
-15.939594 2.0758486 -1.4996475
-15.953689 2.1230083 -1.8821059
-15.963346 2.1242933 -1.5024344
-15.941413 2.1695316 -1.881409
-16.075361 2.1877613 -1.5135813
-15.954581 2.2195554 -1.8837321
-16.210812 2.2552013 -1.5269579
-16.018726 2.2769487 -1.892095
-16.269108 2.3125386 -1.5330887
-16.025661 2.3264658 -1.8937211
-16.573545 2.406003 -1.5624425
-16.023859 2.366195 -1.8941857
-16.547916 2.4435809 -1.5605847
-16.043844 2.4206772 -1.8974379
-16.064079 2.4724975 -1.9006901
-16.245512 2.5468805 -1.9229912
