# .PCD v0.7 - Point Cloud Data file format
VERSION 0.7
FIELDS x y z
SIZE 4 4 4
TYPE F F F
COUNT 1 1 1
WIDTH 156
HEIGHT 1
VIEWPOINT 0 0 0 1 0 0 0
POINTS 156
DATA ascii
12.851705 -7.9652891 0.3510401
12.735929 -7.8935332 0.69875145
12.617855 -7.8753266 0.6936273
12.580706 -7.9010448 0.34491244
12.531523 -7.8701568 0.69008696
12.509576 -7.905169 0.34356621
12.463897 -7.8763032 0.68757141
12.605581 -8.0151844 0
12.440207 -7.9100323 0.34226641
12.399706 -7.8842797 0.6852423
12.51913 -8.0093975 0
12.384385 -7.9231911 0.34133798
12.352397 -7.9027257 0.68384475
12.671325 -8.1067667 1.4034115
12.450191 -8.0205259 0
12.339262 -7.9490638 0.34078091
12.298957 -7.9230995 0.68226093
12.588876 -8.1098671 1.3970948
12.76337 -8.2222776 1.7754797
12.664574 -8.2119055 -0.3504366
12.382709 -8.0291395 0
12.292135 -7.9704103 0.34013101
12.251927 -7.9443393 0.6809566
12.657217 -8.2071352 1.0548574
12.502937 -8.1070976 1.3902208
12.564315 -8.1936998 -0.3482548
12.339868 -8.0473289 0
12.251129 -7.9894586 0.33957395
12.212679 -7.9643836 0.67993176
12.582209 -8.205369 1.050393
12.448309 -8.1180477 1.3865051
12.66234 -8.2576256 1.7678137
12.617923 -8.2286596 2.1171014
12.481445 -8.1925411 -0.34663004
12.295874 -8.0707359 0
12.20564 -8.0115089 0.33897048
12.167282 -7.9863315 0.67872059
12.514442 -8.2141991 1.0467657
12.404191 -8.1418324 1.3842757
12.594607 -8.266818 1.7617739
12.566961 -8.2486715 2.1126478
12.425385 -8.2085991 -0.34574804
12.251848 -8.093955 0
12.171806 -8.0410767 0.33869195
12.158535 -8.0323095 0.67955905
12.470038 -8.2380981 1.0450915
12.361703 -8.1665287 1.3822322
12.512012 -8.2658272 1.7536433
12.520949 -8.2717314 2.1090293
12.36911 -8.2211294 -0.34481961
12.215872 -8.1192799 0
12.139313 -8.0683947 0.33841342
12.109436 -8.0485373 0.6780684
12.415415 -8.2519064 1.0424408
12.33885 -8.2010174 1.3822322
12.45083 -8.275445 1.7483004
12.512647 -8.3165312 2.1115346
12.334692 -8.2511225 -0.34454107
12.176767 -8.1454802 0
12.10701 -8.0988178 0.33818132
12.083842 -8.0833197 0.67797524
12.385902 -8.2853785 1.0420222
12.2946 -8.2243032 1.3800027
12.37834 -8.2803202 1.7415637
12.484624 -8.3514175 2.1109779
12.295229 -8.2776346 -0.34412327
12.140932 -8.1737556 0
12.071317 -8.1268883 0.33785635
12.056491 -8.1169071 0.67778897
12.354644 -8.3176355 1.0414641
12.278403 -8.2663069 1.3809316
12.315817 -8.2914963 1.7362207
12.476218 -8.3994846 2.1137612
12.263581 -8.3030691 -0.34384474
12.12446 -8.2088766 0
12.049999 -8.1584625 0.33785635
12.041816 -8.1529217 0.67816156
12.331174 -8.3488321 1.0413246
12.25672 -8.2984228 1.3809316
12.302293 -8.329278 1.7373823
12.228978 -8.3326635 -0.34356621
12.095092 -8.241436 0
12.027391 -8.1953058 0.33790278
12.009318 -8.1829901 0.67769575
12.311296 -8.3887539 1.0417432
12.238626 -8.3392382 1.3816748
12.311999 -8.3892336 1.7422606
12.20585 -8.3700418 -0.34361264
12.070586 -8.2772856 0
11.99148 -8.2230396 0.33757782
11.983338 -8.2174568 0.67760259
12.306097 -8.4387846 1.0434173
12.225327 -8.3833971 1.3829752
12.323095 -8.4504414 1.7473712
12.182429 -8.4040947 -0.34361264
12.047424 -8.3109617 0
11.98493 -8.267849 0.33804205
11.963634 -8.2531576 0.67778897
12.284124 -8.4742498 1.0435569
12.214981 -8.4265499 1.3844615
12.333787 -8.5085096 1.7522495
12.168768 -8.4449205 -0.34389117
12.032385 -8.3502731 0
11.960151 -8.3001442 0.33799562
11.948746 -8.2922287 0.67825472
12.291554 -8.5301323 1.0462077
12.211034 -8.4742517 1.3866909
12.340986 -8.5644369 1.7566632
12.15529 -8.4922705 -0.34426254
12.014289 -8.3937607 0
11.943851 -8.3445482 0.33827415
11.927549 -8.3331594 0.67853427
12.302312 -8.5949869 1.0494164
12.220264 -8.5376644 1.3907782
12.147886 -8.5376768 -0.34472674
12.002257 -8.4353275 0
11.928681 -8.3836174 0.33850625
11.920578 -8.3779221 0.67946589
12.320704 -8.6591349 1.0530437
12.243623 -8.6049614 1.3961658
12.142091 -8.5875387 -0.34528381
11.998404 -8.4859152 0
11.926608 -8.4351377 0.33915615
11.911979 -8.4247913 0.68039763
12.279819 -8.684947 1.4032257
12.144129 -8.6399574 -0.34602657
11.989326 -8.5298223 0
11.922556 -8.4823198 0.33971322
11.909568 -8.4730787 0.6816088
12.163856 -8.7052555 -0.34727994
11.980097 -8.5737448 0
11.916709 -8.5283804 0.34022388
11.908605 -8.5225811 0.68291312
12.185116 -8.7784882 -0.34867257
11.992048 -8.6393967 0
11.910948 -8.5809698 0.34082735
11.904465 -8.5762997 0.68421745
12.268894 -8.8844614 -0.35168999
11.998441 -8.6886148 0
11.923953 -8.6346741 0.34180218
11.910982 -8.6252823 0.68580127
12.237691 -8.9206066 -0.35159716
12.016339 -8.7592525 0
11.92262 -8.6909361 0.34254494
11.925802 -8.6932564 0.68822366
12.206282 -8.950017 -0.35141146
12.04667 -8.832984 0
11.949902 -8.7620306 0.34403041
11.94498 -8.7584219 0.69073915
12.200551 -8.9983101 -0.35196853
12.120141 -8.9390049 0
11.980098 -8.8357182 0.34560874
11.99122 -8.8439207 0.69483846
12.199515 -9.0568552 -0.35275769
12.050212 -8.9460135 0.3484405
12.041978 -8.9399004 0.69940364
