# .PCD v0.7 - Point Cloud Data file format
VERSION 0.7
FIELDS x y z
SIZE 4 4 4
TYPE F F F
COUNT 1 1 1
WIDTH 250
HEIGHT 1
VIEWPOINT 0 0 0 1 0 0 0
POINTS 250
DATA ascii
0.51610738 11.150805 0.78057492
0.51496804 11.126188 1.3025141
0.51562917 11.140472 1.5673676
0.51736689 11.178017 1.8384467
0.54340404 11.11072 0
0.54254013 11.093056 1.2987971
0.54285634 11.099521 1.5618006
0.54508477 11.145085 1.833259
0.54581779 11.160072 2.1051795
0.57373005 11.021084 -0.51465374
0.57538998 11.05297 1.0325868
0.57583612 11.061541 1.2953126
0.5766921 11.077983 1.5590172
0.57886207 11.119668 1.829368
0.57974941 11.136712 2.1011062
0.6027143 10.951798 -1.0232977
0.60461915 10.986411 0.25545803
0.60577226 11.007364 0.51409471
0.60637861 11.018381 0.77164608
0.60763842 11.041273 1.0316579
0.60756558 11.039949 1.2929897
0.60869116 11.060402 1.5567905
0.61033726 11.090313 1.8248286
0.61182141 11.117281 2.0977736
0.63432217 10.934666 -0.25429749
0.63460892 10.939609 0
0.63582754 10.960615 0.25490096
0.63704389 10.981584 0.51297671
0.63791591 10.996616 0.77025098
0.63913047 11.017553 1.0296143
0.63951701 11.024216 1.2913636
0.64013219 11.034821 1.5534503
0.64267194 11.078602 1.8232074
0.6444661 11.10953 2.0966625
0.65805429 10.85231 -1.786244
0.65909332 10.869446 -0.76146168
0.66046923 10.892136 -0.5088774
0.66100883 10.901035 -0.25355476
0.66203433 10.917947 0
0.66294515 10.932967 0.25429749
0.66445959 10.957943 0.51195192
0.66609728 10.984951 0.76955342
0.66712677 11.001929 1.0283139
0.66753274 11.008624 1.2897373
0.64843845 10.69373 -2.5384576
0.66913724 11.035085 1.5537286
0.65467173 10.796526 -2.2990878
0.67143279 11.072942 1.822559
0.65522712 10.805686 -2.0396357
0.67307103 11.099958 2.0951812
0.68782663 10.812315 -1.2669719
0.68888742 10.828991 -1.0123364
0.68968689 10.841558 -0.75964797
0.6911279 10.864209 -0.50766623
0.69258112 10.887053 -0.25327623
0.69314867 10.895975 0
0.69461209 10.91898 0.25401896
0.69620132 10.943961 0.51139289
0.69766676 10.966997 0.76843733
0.69950712 10.995927 1.0279423
0.70018578 11.006596 1.2897373
0.67855126 10.666511 -2.5324631
0.70098859 11.019216 1.5517802
0.68222445 10.724252 -2.2841179
0.70365012 11.061053 1.8209378
0.68365955 10.746811 -2.0288968
0.70624447 11.101835 2.095922
0.71561593 10.774144 -1.5175436
0.71683604 10.792513 -1.2648811
0.71767652 10.805167 -1.0102928
0.71877283 10.821673 -0.75839239
0.72014296 10.842301 -0.50673455
0.72205651 10.871111 -0.25295126
0.72291386 10.88402 0
0.72483927 10.913008 0.25392613
0.72636592 10.935993 0.51111341
0.728293 10.965007 0.76843733
0.7296862 10.985982 1.0271991
0.73092258 11.004597 1.2897373
0.70588785 10.62768 -2.5237019
0.73176068 11.017215 1.5517802
0.70970953 10.685218 -2.2762175
0.73480058 11.062983 1.8215861
0.71223813 10.723289 -2.0248234
0.73659599 11.090014 2.0940702
0.74521679 10.73787 -1.7684108
0.74648654 10.756166 -1.5153168
0.74748284 10.770522 -1.2625582
0.74877107 10.789084 -1.0089923
0.75005263 10.80755 -0.75755531
0.75189787 10.834138 -0.50645506
0.7543118 10.868921 -0.25295126
0.7550689 10.87983 0
0.75694203 10.90682 0.25383329
0.75895208 10.935783 0.51120657
0.76096499 10.964787 0.76857686
0.76242018 10.985755 1.0273849
0.76343638 11.000398 1.2895051
0.73513031 10.592534 -2.5158629
0.76472366 11.018946 1.5523368
0.73978794 10.659645 -2.2712276
0.76817173 11.068629 1.8228832
0.74242193 10.697599 -2.0203798
0.77045327 11.101504 2.0966625
0.77794528 10.721698 -1.7661409
0.77941233 10.741917 -1.5136467
0.78045112 10.756232 -1.2611644
0.78208375 10.778733 -1.0082492
0.78371102 10.801161 -0.7572763
0.78592849 10.831722 -0.50645506
0.78816223 10.862508 -0.2528584
0.78967732 10.883389 0
0.79105628 10.902393 0.25378686
0.7935912 10.93733 0.51139289
0.79569477 10.966322 0.76885587
0.79750353 10.99125 1.028128
0.79798925 10.997945 1.2895051
0.76783872 10.582408 -2.5140183
0.80005145 11.026366 1.5537286
0.77242106 10.645561 -2.2687325
0.80365306 11.076004 1.8245045
0.77573931 10.691294 -2.0196393
0.80617708 11.11079 2.0988843
0.80527037 10.709785 -1.7645199
0.8069362 10.73194 -1.5125334
0.80890429 10.758114 -1.261629
0.81044734 10.778636 -1.008435
0.81243277 10.805041 -0.75769484
0.81413174 10.827637 -0.5063619
0.81674582 10.862403 -0.25290486
0.81861538 10.887268 0
0.82049364 10.912249 0.25406536
0.82281965 10.943183 0.51176554
0.82514805 10.974151 0.76955342
0.82672197 10.995083 1.0286853
0.82752204 11.005723 1.2906666
0.79466355 10.568718 -2.5112517
0.82980484 11.036083 1.5553987
0.79955328 10.633749 -2.2666535
0.8345691 11.099446 1.8287196
0.80313516 10.681387 -2.018158
0.83688158 11.130201 2.1029577
0.83658504 10.701445 -1.7635471
0.83877814 10.729498 -1.5125334
0.84082383 10.755666 -1.261629
0.84289336 10.782139 -1.0089923
0.84464705 10.804572 -0.75783432
0.84672463 10.831148 -0.50664139
0.8502214 10.875878 -0.25327623
0.85154164 10.892767 0
0.85396141 10.923719 0.25439033
0.85637838 10.954638 0.51241773
0.85864156 10.983587 0.77039051
0.86058617 11.008462 1.0301716
0.86218894 11.028965 1.2936865
0.82647622 10.572134 -2.5126352
0.86471021 11.061216 1.5592955
0.83079892 10.627429 -2.2658219
0.86888564 11.114628 1.8316377
0.83452076 10.675038 -2.0174174
0.87204963 11.155101 2.1081419
0.86833119 10.698915 -1.7635471
0.87044728 10.724988 -1.512255
0.87240952 10.749165 -1.2611644
0.87552327 10.78753 -1.0097355
0.87718332 10.807984 -0.75825292
0.87998682 10.842526 -0.50729358
0.88329381 10.883273 -0.25350833
0.88514972 10.906139 0
0.88766092 10.93708 0.2547617
0.8908149 10.975942 0.51353574
0.89380699 11.012808 0.7726227
0.89549845 11.033648 1.0327727
0.8976385 11.060018 1.2976357
0.85783881 10.569635 -2.5126352
0.900087 11.090186 1.5637491
0.86216724 10.622967 -2.2654061
0.90600842 11.163145 1.840068
0.86618859 10.672516 -2.0174174
0.90848041 11.193603 2.1159182
0.90073681 10.704158 -1.7648441
0.90326464 10.734199 -1.5139251
0.90530169 10.758406 -1.2625582
0.90836465 10.794806 -1.0106643
0.91092348 10.825214 -0.75964797
0.91399932 10.861767 -0.50831842
0.91709328 10.898535 -0.25392613
0.91918522 10.923395 0
0.92195535 10.956315 0.25527233
0.92539078 10.99714 0.51465374
0.92848951 11.033965 0.77429688
0.93157482 11.07063 1.0364883
0.93461764 11.106791 1.3034432
0.88919884 10.567043 -2.5126352
0.93631303 11.126938 1.569316
0.89401364 10.624261 -2.2662377
0.94392848 11.217439 1.8494711
0.89834827 10.675773 -2.0185282
0.94696552 11.25353 2.127768
0.93334234 10.71127 -1.7664653
0.93544662 10.73542 -1.5144819
0.93859088 10.771504 -1.2644166
0.94211107 10.811903 -1.0125222
0.94424367 10.836377 -0.76062459
0.94864362 10.886872 -0.50962275
0.95184869 10.923655 -0.25457603
0.95540386 10.964454 0
0.95896488 11.005322 0.25647929
0.96338487 11.056046 0.51754194
0.96693188 11.096753 0.7789008
0.97063369 11.139235 1.0431765
0.97342384 11.171256 1.3113415
0.92054105 10.56436 -2.5126352
0.92603487 10.627409 -2.2674851
0.93120718 10.686768 -2.0211203
0.96689379 10.728108 -1.7697077
0.96889824 10.750348 -1.516987
0.97268945 10.792414 -1.2672043
0.97597718 10.828893 -1.01438
0.97908139 10.863335 -0.76271731
0.98453122 10.923803 -0.51148605
0.98892528 10.972557 -0.25578299
0.99296182 11.017344 0
0.99861705 11.080091 0.25828972
0.95240921 10.567395 -2.5140183
0.95861971 10.636304 -2.26998
0.9643259 10.699616 -2.0240827
0.99679786 10.745193 -1.7729502
1.0003304 10.783274 -1.5219972
1.0046085 10.82939 -1.2718502
1.0085527 10.871906 -1.018653
1.0121235 10.910398 -0.76620507
1.0190297 10.984846 -0.51446742
0.9815076 10.580368 -2.5177073
0.9884482 10.655186 -2.274554
0.99505562 10.726412 -2.0296376
1.0324409 10.781479 -1.7794349
1.0368549 10.827574 -1.5286775
1.0429876 10.891615 -1.2795162
1.0143832 10.592908 -2.5213964
1.0228589 10.681417 -2.2807915
1.0304401 10.760585 -2.0366733
1.0702422 10.837287 -1.7891622
1.0461891 10.593724 -2.5223186
1.0593513 10.727005 -2.291187
1.0787164 10.619804 -2.5292354
1.0966154 10.796018 -2.3065727
1.114475 10.657204 -2.5389187
1.1542028 10.711698 -2.5527525
1.1873657 10.755064 -2.5638194
