# .PCD v0.7 - Point Cloud Data file format
VERSION 0.7
FIELDS x y z
SIZE 4 4 4
TYPE F F F
COUNT 1 1 1
WIDTH 176
HEIGHT 1
VIEWPOINT 0 0 0 1 0 0 0
POINTS 176
DATA ascii
27.278255 -30.263687 0.94593281
27.129684 -30.28966 0.944076
26.801634 -30.092062 0.93558079
26.872587 -30.331236 0.94082642
26.387461 -29.983402 0.9273178
26.297045 -30.049448 0.92708564
26.395472 -30.332422 0.9335382
25.936481 -29.973589 0.92026168
25.873545 -30.070152 0.92100435
25.888096 -30.278946 0.92490387
25.835815 -30.389202 0.92606437
25.453962 -30.110033 0.91538745
25.369532 -30.202097 0.91575879
25.425163 -30.418945 0.92044735
25.06249 -30.177193 0.91074526
24.950109 -30.213146 0.90972394
25.003948 -30.451139 0.91478395
24.836113 -30.441231 0.91213787
24.569614 -30.286869 0.90545321
24.498749 -30.372478 0.90596384
24.281923 -30.297953 0.90146089
24.146132 -30.301531 0.89955759
24.0788 -30.390781 0.90020752
24.097383 -30.600327 0.90429264
23.962124 -30.615007 0.90262145
23.702562 -30.447285 0.89584386
23.590525 -30.478571 0.89482266
23.270388 -30.260891 0.88628107
23.244085 -30.401999 0.88850933
23.184021 -30.510633 0.88966984
22.935539 -30.370262 0.88358861
22.887173 -30.471775 0.88479561
22.826008 -30.59 0.88614178
22.733345 -30.643986 0.88586324
22.409138 -30.383909 0.8765325
22.363207 -30.521904 0.87848228
22.350874 -30.684433 0.88136035
22.4328 -30.978312 0.8879987
21.898149 -30.429647 0.87040484
21.829378 -30.513447 0.87105471
21.909794 -30.807291 0.87769312
21.93981 -31.055607 0.88279939
21.449236 -30.530502 0.86627334
21.41464 -30.674341 0.86854804
21.44776 -30.916817 0.87360793
21.111286 -30.602551 0.86316317
21.008259 -30.658825 0.86288458
21.0061 -30.851589 0.86655194
20.744781 -30.63991 0.85907799
20.626106 -30.671749 0.85814953
20.581488 -30.790735 0.85986716
20.668036 -31.107889 0.86710894
20.696814 -31.352631 0.87221533
20.171644 -30.755159 0.85392517
20.100967 -30.834818 0.8545751
20.244164 -31.256817 0.86460215
19.827833 -30.813993 0.85072207
19.722311 -30.827066 0.84965444
19.647886 -30.924313 0.85062927
19.731077 -31.259766 0.85824239
19.411097 -30.931944 0.84784395
19.301258 -30.960562 0.84705484
19.26405 -31.106085 0.84946877
19.313351 -31.381124 0.85550356
19.003014 -31.095308 0.84608001
18.98617 -31.23904 0.84872597
18.93029 -31.368721 0.85062927
18.928997 -31.565502 0.85452867
18.734983 -31.45318 0.8499794
18.442375 -31.159523 0.84064865
18.406183 -31.32246 0.84348029
18.393705 -31.48967 0.84668344
18.114574 -31.224152 0.83809543
17.986368 -31.203592 0.83619213
17.982595 -31.424807 0.84060228
17.912558 -31.506191 0.84143782
17.68825 -31.327627 0.83526367
17.594435 -31.352905 0.83470666
17.599634 -31.581375 0.83939523
17.242741 -31.390373 0.83150357
17.182535 -31.475777 0.83257133
17.195787 -31.723492 0.83777052
17.042509 -31.63814 0.83433533
16.810108 -31.4429 0.82778984
16.707232 -31.461464 0.82704705
16.753691 -31.776201 0.83401036
16.390543 -31.526232 0.82495809
16.287766 -31.543455 0.82421541
16.326265 -31.863169 0.83122504
15.965885 -31.593378 0.82184786
15.853251 -31.603079 0.82087302
15.890421 -31.913088 0.82769698
15.839075 -32.047928 0.82997173
15.560369 -31.692633 0.81971252
15.449903 -31.691029 0.81855196
15.394665 -31.831207 0.82091939
15.387537 -32.058807 0.82560807
15.315599 -32.124252 0.826258
15.054759 -31.834198 0.81757712
14.939912 -31.806543 0.8158595
14.883483 -31.932281 0.81794846
14.640629 -31.919012 0.81530249
14.54375 -31.928116 0.8145597
14.561766 -32.220745 0.82091939
14.438184 -32.186489 0.81901622
14.247607 -32.030727 0.81390983
14.120077 -31.969154 0.81140298
14.092563 -32.180027 0.81562746
13.896861 -32.206234 0.81437403
13.715306 -32.077484 0.80996394
13.682059 -32.232918 0.81298137
13.632912 -32.383942 0.81576663
13.546013 -32.446388 0.8163237
13.329355 -32.164032 0.80833918
13.237669 -32.212692 0.80857134
13.24878 -32.530033 0.81548816
13.165815 -32.570168 0.81562746
12.925877 -32.26799 0.80703938
12.828333 -32.285381 0.80657512
12.853233 -32.613132 0.8138634
12.743908 -32.602341 0.81270278
12.54033 -32.381184 0.80620378
12.438389 -32.386211 0.80546111
12.485933 -32.800442 0.81483823
12.401964 -32.872887 0.8157202
12.142745 -32.442711 0.80425411
12.03034 -32.452576 0.80355781
12.057819 -32.789848 0.8111245
11.902062 -32.682899 0.80755001
11.799612 -32.703026 0.80717868
11.629747 -32.498486 0.80137593
11.532932 -32.549934 0.80174732
11.459607 -32.613979 0.80258298
11.353591 -32.621399 0.80193305
11.236551 -32.59634 0.80049396
11.118979 -32.550014 0.79859066
11.001211 -32.520359 0.7970587
10.878637 -32.475128 0.79515553
10.763972 -32.433266 0.79339147
10.700213 -32.544872 0.79538757
10.559659 -32.44149 0.79209167
10.397629 -32.287987 0.78754228
10.274159 -32.193192 0.78457135
10.180601 -32.210316 0.78429282
10.049283 -32.165649 0.78238952
9.9419861 -32.117355 0.78057909
9.8308353 -32.095097 0.77932566
9.7239647 -32.085857 0.77839732
9.6025639 -31.986725 0.7753799
9.4906483 -31.978399 0.77445143
9.390605 -31.968327 0.77356946
9.2694778 -31.884985 0.77092338
9.1609821 -31.88512 0.77022707
9.0664415 -31.89135 0.76976287
8.9316006 -31.796478 0.76679194
8.8453045 -31.787384 0.76604915
8.7284374 -31.753325 0.76456368
8.6245203 -31.721619 0.76321739
8.5405769 -31.762955 0.76363522
8.425868 -31.733593 0.76228899
8.3158913 -31.675772 0.76033932
8.221879 -31.67758 0.75982863
8.1154423 -31.653416 0.75866807
8.0062714 -31.617268 0.75722903
7.9107804 -31.657787 0.75760043
7.8151631 -31.603262 0.75583643
7.7092042 -31.600464 0.7551865
7.5975075 -31.524675 0.75286537
7.5089831 -31.543823 0.752819
7.4030094 -31.513409 0.75156558
7.3094769 -31.535236 0.75156558
7.2039886 -31.479515 0.74975514
7.1057138 -31.479294 0.74924457
7.0109806 -31.494385 0.74910527
6.9247179 -31.52165 0.74929094
6.8375068 -31.571369 0.74998724
