# .PCD v0.7 - Point Cloud Data file format
VERSION 0.7
FIELDS x y z
SIZE 4 4 4
TYPE F F F
COUNT 1 1 1
WIDTH 102
HEIGHT 1
VIEWPOINT 0 0 0 1 0 0 0
POINTS 102
DATA ascii
-22.871822 17.895149 -4.0813909
-22.851276 17.995098 -4.0877929
-22.845964 18.094498 -4.0958648
-22.803019 18.170845 -4.0978131
-22.781446 18.264444 -4.1036587
-22.762735 18.354094 -4.1095037
-22.735716 18.450476 -4.1150703
-22.722635 18.538727 -4.1214728
-22.690491 18.624914 -4.1256475
-22.653242 18.713766 -4.1295447
-22.617887 18.784393 -4.1320496
-22.564838 18.860445 -4.133163
-22.522696 18.932301 -4.1351113
-22.507256 19.033575 -4.1426268
-22.504662 19.152967 -4.153204
-22.432693 19.20677 -4.1504202
-22.398479 19.28614 -4.1540389
-22.378969 19.378435 -4.1604409
-22.32436 19.447351 -4.1609974
-22.278479 19.523941 -4.1632247
-22.262503 19.620129 -4.1704617
-22.217052 19.704428 -4.1735234
-22.225494 19.82308 -4.185492
-22.171526 19.886395 -4.1857705
-22.14423 19.987793 -4.1924505
-22.168983 20.122766 -4.2077599
-22.114164 20.185934 -4.2080383
-22.101694 20.302197 -4.2177806
-22.088556 20.404154 -4.2261305
-22.030037 20.464411 -4.2258525
-22.008991 20.559647 -4.232811
-21.958721 20.642254 -4.2355947
-21.906746 20.708937 -4.2367077
-21.87459 20.80905 -4.2431097
-21.832783 20.893032 -4.2470064
-21.832861 21.010227 -4.258419
-21.749081 21.054255 -4.2542434
-21.730505 21.161522 -4.2628722
-21.683516 21.22666 -4.2645426
-21.63648 21.314129 -4.2684393
-21.58581 21.390774 -4.2709446
-21.55966 21.484524 -4.2776246
-21.509804 21.56242 -4.2804079
-21.463861 21.64443 -4.2840266
-21.419388 21.735737 -4.2887588
-21.399849 21.82992 -4.2962737
-21.327011 21.892794 -4.2954392
-21.28647 21.973593 -4.299614
-21.213747 22.013563 -4.2965522
-21.148598 22.084389 -4.2973876
-21.108696 22.166309 -4.3018408
-21.068903 22.264164 -4.3079648
-21.000034 22.323692 -4.3074079
-20.961823 22.400284 -4.311583
-21.008677 22.592215 -4.3357992
-20.999365 22.716984 -4.3477678
-20.959972 22.801777 -4.352778
-20.913597 22.887264 -4.3572316
-20.856253 22.960939 -4.3594584
-20.779053 23.280968 -4.385623
-20.716463 23.34992 -4.3870149
-20.691795 23.453724 -4.3956437
-20.637598 23.540947 -4.3998189
-20.611259 23.627125 -4.4064989
-20.575596 23.74474 -4.4156842
-20.538942 23.836615 -4.4220867
-20.499361 23.925457 -4.4279318
-20.469027 24.042528 -4.437674
-20.410398 24.118269 -4.4404573
-20.410963 24.247374 -4.4543743
-20.363071 24.336695 -4.4596634
-20.333366 24.45689 -4.4699616
-20.318499 24.569563 -4.4808178
-20.301556 24.706726 -4.4941778
-20.275198 24.833281 -4.50559
-20.274405 24.95653 -4.5189509
-20.236341 25.061268 -4.5270228
-20.230639 25.215858 -4.5434451
-20.19174 25.302792 -4.5495691
-20.156439 25.421976 -4.5595894
-20.126728 25.548956 -4.5710015
-20.113113 25.660404 -4.5821352
-20.10906 25.821918 -4.5996714
-20.056263 25.90303 -4.6041245
-19.903543 25.873291 -4.5877023
-19.859173 25.97471 -4.5952177
-19.820366 26.083977 -4.6041245
-19.737892 26.126589 -4.6018982
-19.621046 26.132767 -4.5927124
-19.51108 26.12851 -4.5829706
-19.408998 26.172384 -4.5793524
-19.347469 26.232666 -4.5810218
-19.236858 26.25498 -4.5743418
-19.16464 26.310198 -4.5746202
-19.08185 26.360523 -4.5735068
-19.003546 26.417028 -4.5735068
-18.920477 26.466848 -4.5723934
-18.859148 26.527597 -4.5743418
-18.776865 26.588329 -4.5746202
-18.702448 26.650406 -4.5757337
-18.625679 26.699284 -4.5751767
-18.548639 26.757685 -4.5757337
