# .PCD v0.7 - Point Cloud Data file format
VERSION 0.7
FIELDS x y z
SIZE 4 4 4
TYPE F F F
COUNT 1 1 1
WIDTH 1519
HEIGHT 1
VIEWPOINT 0 0 0 1 0 0 0
POINTS 1519
DATA ascii
6.0133195 -4.5991931 -1.2437887
2.6259167 -2.0083911 -1.8574697
6.6607466 -5.094368 -1.1785179
2.7576408 -2.1091385 -1.8459623
7.4633007 -5.708189 -1.0987856
2.8988206 -2.2171175 -1.8331082
8.5604229 -6.5473051 -1.0054624
3.0670514 -2.3457863 -1.827695
9.7002401 -7.4190764 -0.85395873
3.230536 -2.470825 -1.8107916
11.614468 -8.8831434 -0.68188828
3.4052413 -2.6044455 -1.7906752
14.69869 -11.242064 -0.42963183
3.5885115 -2.7446167 -1.7641344
22.267647 -17.031061 0
3.8066707 -2.9114723 -1.7443027
29.529203 -22.584949 0.86311668
4.0545268 -3.1010413 -1.7247903
4.3129315 -3.2986782 -1.6943116
4.5659604 -3.4922032 -1.6483115
4.6074138 -3.5239084 -1.5184957
4.6250849 -3.5374238 -1.3796668
4.9942417 -3.8197677 -1.3364565
5.4468522 -4.1659393 -1.2919914
2.5043709 -1.9272329 -1.8740807
5.9980826 -4.6158104 -1.2434645
2.6171823 -2.0140467 -1.8555102
6.65031 -5.1177306 -1.1793529
2.7541697 -2.1194649 -1.8478402
7.4337373 -5.7206149 -1.0969273
2.893646 -2.2267985 -1.8340058
8.5235987 -6.5593157 -1.0034187
3.0572126 -2.3526709 -1.8259836
9.6528864 -7.4283566 -0.85172659
3.220295 -2.4781704 -1.8091648
11.543728 -8.8834486 -0.67927957
3.3960359 -2.6134117 -1.7899042
14.625658 -11.255141 -0.4284713
3.5788753 -2.7541153 -1.7634068
22.152033 -17.047047 0
3.8009939 -2.925046 -1.7456708
29.333712 -22.57369 0.85935652
4.0393014 -3.1084352 -1.7222294
4.2970734 -3.3068027 -1.6919286
4.5586257 -3.5080798 -1.6494141
4.6168714 -3.5529025 -1.5250802
4.6238232 -3.5582523 -1.3824335
4.9937391 -3.8429203 -1.3393673
5.4251223 -4.17489 -1.2897696
2.5013621 -1.9367615 -1.8761209
5.9718771 -4.6239214 -1.2408705
2.607059 -2.0186009 -1.8525712
6.6335306 -5.1362286 -1.1790745
2.7436805 -2.1243844 -1.8450234
7.4135904 -5.7402153 -1.0964626
2.8870263 -2.2353747 -1.8340058
8.4836311 -6.5687294 -1.0010036
3.0487893 -2.360625 -1.8251281
9.5976753 -7.431314 -0.84879673
3.215817 -2.4899516 -1.8107916
11.499943 -8.9042072 -0.67825472
3.3838892 -2.6200869 -1.7875916
14.571645 -11.282573 -0.4278678
3.5721614 -2.7658629 -1.7641344
22.058659 -17.079639 0
3.7937846 -2.9374621 -1.7463549
28.953577 -22.418255 0.85016507
4.0330577 -3.1227269 -1.7235098
46.032944 -35.642513 2.7149756
4.2721472 -3.3078496 -1.6859711
4.5527573 -3.5251215 -1.6510679
4.627727 -3.583169 -1.5321712
4.625555 -3.5814874 -1.3861223
4.9869556 -3.8613136 -1.3406147
5.4018326 -4.1825457 -1.2871774
2.489496 -1.9380196 -1.8710201
5.9535222 -4.6346903 -1.2395736
2.6031413 -2.0264902 -1.8535509
6.6169362 -5.151144 -1.1785179
2.7408962 -2.1337295 -1.8469013
7.4048071 -5.7644849 -1.097392
2.8797538 -2.241827 -1.8331082
8.4459782 -6.5750141 -0.99858844
3.0411725 -2.3674881 -1.8242724
9.578187 -7.4564147 -0.84879673
3.2020788 -2.4927502 -1.8067243
11.471863 -8.9306011 -0.67797524
3.3784747 -2.6300707 -1.7883626
14.474215 -11.267868 -0.4258717
3.5634377 -2.7740605 -1.7634068
21.966524 -17.100471 0
3.7786663 -2.9416113 -1.7429346
28.746477 -22.378521 0.84580147
4.018888 -3.1286187 -1.7209489
45.814938 -35.665955 2.7076154
4.2694983 -3.3237135 -1.6883541
4.5495811 -3.5417521 -1.6532729
4.6381774 -3.6107223 -1.5387558
4.6468763 -3.6174943 -1.3953449
4.9752851 -3.8731537 -1.3401989
5.3831096 -4.1906366 -1.2853259
2.4827197 -1.9439034 -1.8699998
5.9203558 -4.6354809 -1.2353585
2.598845 -2.0348265 -1.8545307
6.5962873 -5.1647172 -1.1774045
2.7363174 -2.1424637 -1.8478402
7.3949366 -5.7900386 -1.0983211
2.8706682 -2.2476568 -1.8313129
8.4260159 -6.5973458 -0.9984026
3.0345495 -2.3759713 -1.8242724
9.5541859 -7.4806728 -0.84851772
3.1951053 -2.5016823 -1.8067243
11.435869 -8.9539804 -0.6773231
3.3682108 -2.6372192 -1.7868209
14.373424 -11.254007 -0.42382914
3.5542107 -2.7828524 -1.7626793
21.863569 -17.118593 0
3.7704372 -2.9521518 -1.7429346
25.053522 -19.61624 0.7387532
4.0056601 -3.1363251 -1.7190282
4.2617035 -3.3368003 -1.6889498
4.5366459 -3.5520728 -1.6521704
4.6539741 -3.6439378 -1.5473663
4.6474824 -3.638855 -1.3985727
4.9644499 -3.8870323 -1.3401989
5.3791237 -4.2117105 -1.2871774
2.4752498 -1.950629 -1.8689797
5.9073138 -4.6552792 -1.2356826
2.5938091 -2.0440602 -1.8555102
6.5706964 -5.1780601 -1.1757344
2.7295732 -2.1510494 -1.8478402
7.3673487 -5.8058643 -1.0969273
2.8649964 -2.2577703 -1.8322105
8.3958635 -6.6163888 -0.99728787
3.0256503 -2.3843739 -1.8234166
9.5306377 -7.5106516 -0.84851772
3.1872303 -2.5117078 -1.8067243
11.417098 -8.997283 -0.67788208
3.3584597 -2.6466458 -1.7860501
14.333287 -11.295396 -0.4236899
3.5498405 -2.7974639 -1.7648618
21.740566 -17.132727 0
3.7596684 -2.9628193 -1.7422507
24.886555 -19.611935 0.73564303
3.9928105 -3.146548 -1.7177477
4.2511997 -3.3501725 -1.6889498
4.5239539 -3.5651174 -1.6516191
4.6652985 -3.6765044 -1.5549639
4.6604843 -3.6727107 -1.4059505
4.9460683 -3.8977661 -1.3385355
5.3550601 -4.2200737 -1.2845852
2.4778814 -1.9639444 -1.8751007
5.8942909 -4.6717572 -1.2356826
2.5839915 -2.0480464 -1.8525712
6.5437937 -5.1865468 -1.1735077
2.7235556 -2.1586635 -1.8478402
7.3417664 -5.8190117 -1.0955334
2.8572798 -2.264652 -1.8313129
8.3539457 -6.6212549 -0.99450111
3.01898 -2.3928139 -1.8234166
9.5252628 -7.5496297 -0.84991288
3.178772 -2.5194633 -1.8059107
11.390363 -9.0278893 -0.67778897
3.3525021 -2.65716 -1.7868209
14.304822 -11.337861 -0.42378274
3.5361745 -2.8027372 -1.7619519
21.615835 -17.132498 0
3.7484341 -2.9709718 -1.7408825
24.79565 -19.652788 0.73457527
3.9780686 -3.1529782 -1.7151868
4.2403312 -3.3608449 -1.6883541
4.5139804 -3.5777366 -1.6516191
4.6747251 -3.7051411 -1.5615485
4.674612 -3.7050517 -1.4133284
4.9336314 -3.9103479 -1.3381197
5.3463354 -4.237453 -1.2853259
2.4706986 -1.9702156 -1.8740807
5.8804035 -4.6892252 -1.2356826
2.5738139 -2.052443 -1.8496323
6.5252795 -5.2034707 -1.172951
2.7171388 -2.1667349 -1.8478402
7.3244686 -5.8407698 -1.0955334
2.8547397 -2.2764623 -1.8340058
8.3155794 -6.631114 -0.99227172
3.011867 -2.4017608 -1.8234166
9.4950218 -7.5716391 -0.84921533
3.1698539 -2.5277448 -1.8050973
11.277617 -8.9931383 -0.67266476
3.3431606 -2.6659451 -1.7860501
14.258612 -11.370281 -0.42341134
3.5292997 -2.8143785 -1.7626793
21.510178 -17.152916 0
3.7396023 -2.9820807 -1.7408825
24.729414 -19.720041 0.73434323
3.9805474 -3.1742182 -1.7203087
4.2258625 -3.3698404 -1.6865668
4.4913206 -3.5815253 -1.6472089
4.6818638 -3.7334707 -1.5676264
4.6849008 -3.7358923 -1.4197841
4.9220076 -3.9249692 -1.3381197
5.3291292 -4.2496214 -1.284215
2.467871 -1.9792597 -1.8761209
5.8611274 -4.7006893 -1.2343857
2.5721526 -2.0628951 -1.8525712
6.5169029 -5.2266288 -1.1740644
2.7083223 -2.1721046 -1.8459623
7.2941828 -5.8500152 -1.0934428
2.8414004 -2.2788346 -1.8295175
8.298583 -6.6555557 -0.99245757
3.0037379 -2.4090312 -1.822561
9.4613876 -7.5881381 -0.84809923
3.1642082 -2.53773 -1.8059107
11.219729 -8.9983473 -0.67070824
3.3357027 -2.6752706 -1.7860501
14.200287 -11.388787 -0.42262217
3.5214264 -2.824223 -1.7626793
21.413826 -17.174126 0
3.729794 -2.9913363 -1.7401985
24.672688 -19.787769 0.73429674
3.973146 -3.186507 -1.7209489
4.222393 -3.3864062 -1.6889498
4.4888 -3.6000674 -1.6499653
4.6970782 -3.7671089 -1.5762371
4.6972218 -3.7672241 -1.4267008
4.9140797 -3.9411464 -1.3389515
5.3157077 -4.2632565 -1.2838447
2.4566324 -1.9822521 -1.8720402
5.834868 -4.7081442 -1.2317919
2.5660207 -2.0705175 -1.8525712
6.5044494 -5.2484283 -1.1746211
2.7032402 -2.1812396 -1.8469013
7.2659717 -5.8628993 -1.0918167
2.8401902 -2.2917442 -1.8331082
8.2788 -6.6801486 -0.99245757
2.9951704 -2.4167976 -1.8217055
9.4062262 -7.5898666 -0.84516943
3.1566648 -2.547107 -1.8059107
11.199201 -9.0366144 -0.67108095
3.3248777 -2.6828377 -1.7845082
14.139982 -11.409526 -0.42183304
3.5086815 -2.8311489 -1.7604969
21.291178 -17.179813 0
3.7209024 -3.0023894 -1.7401985
24.652771 -19.892275 0.7354573
3.9563007 -3.192332 -1.7177477
4.2152991 -3.4013171 -1.6901414
4.4810915 -3.6157846 -1.6510679
4.7054558 -3.7968237 -1.5828216
4.7117715 -3.8019197 -1.4345398
4.9023647 -3.9557092 -1.3389515
5.2953873 -4.2728386 -1.2819932
2.4457443 -1.9847687 -1.8679595
5.8170996 -4.7206888 -1.2308191
2.5615828 -2.078774 -1.8535509
6.4897676 -5.2665715 -1.1746211
2.6930249 -2.1854417 -1.8440844
7.2603683 -5.8919291 -1.0934428
2.8337791 -2.2996664 -1.8331082
8.25702 -6.7007308 -0.99208593
2.9884095 -2.4251521 -1.8217055
9.3710518 -7.6047893 -0.84391379
3.1467023 -2.5536096 -1.8042839
11.189435 -9.0804424 -0.67201257
3.314507 -2.6897864 -1.7829667
14.106512 -11.447707 -0.42178661
3.4993155 -2.8397622 -1.7597694
21.201189 -17.205173 0
3.7110441 -3.0115838 -1.7395145
24.70425 -20.047977 0.7386604
3.9458995 -3.2021737 -1.7171075
46.116665 -37.424564 2.7696645
4.1983714 -3.4070597 -1.6871626
4.4679909 -3.6258609 -1.6499653
4.7233787 -3.8331132 -1.592445
4.7283363 -3.8371365 -1.44284
4.8837042 -3.9632201 -1.3368723
5.2727513 -4.2789397 -1.2794011
2.4348617 -1.9872402 -1.8638787
5.7947206 -4.7294278 -1.2288736
2.5557678 -2.0859191 -1.8535509
6.4673634 -5.2784123 -1.1732293
2.6855433 -2.1918368 -1.8431455
7.240809 -5.9096689 -1.0929781
2.8176541 -2.2996607 -1.8268243
8.2336473 -6.7199855 -0.99152863
2.9788246 -2.4312017 -1.819994
9.3312302 -7.6157904 -0.84223968
3.1381433 -2.5612316 -1.8034703
11.176415 -9.1217594 -0.67275792
3.3041232 -2.696698 -1.7814249
14.082234 -11.493377 -0.42201871
3.4913719 -2.8495231 -1.7597694
21.086433 -17.209934 0
3.7011635 -3.0207469 -1.7388303
27.495287 -22.440594 0.82398325
3.9384098 -3.2143781 -1.7177477
4.1888409 -3.4187706 -1.6871626
4.4563589 -3.6371081 -1.6494141
4.7216496 -3.8536284 -1.5954841
4.7432332 -3.8712442 -1.4506791
4.8604927 -3.9669468 -1.3335458
5.2425103 -4.2787347 -1.2749574
2.4306321 -1.9951233 -1.8648989
5.7799659 -4.7443395 -1.2285494
2.5472374 -2.0908356 -1.8515916
6.4510679 -5.2951965 -1.172951
2.6807771 -2.2004483 -1.8440844
7.2089233 -5.917263 -1.0906551
2.8126028 -2.3086541 -1.827722
8.2102318 -6.739162 -0.99097121
2.972024 -2.4395111 -1.819994
9.2960482 -7.6304269 -0.84098405
3.1338031 -2.5723035 -1.8050973
11.138546 -9.1427956 -0.67201257
3.2965798 -2.7059145 -1.7814249
14.031538 -11.517435 -0.42146164
3.4790809 -2.855716 -1.757587
20.998098 -17.235762 0
3.6898086 -3.0286863 -1.7374624
27.376877 -22.471621 0.82231212
3.9220958 -3.2193537 -1.7145466
4.1792779 -3.430455 -1.6871626
4.4461846 -3.6495388 -1.6494141
4.7108703 -3.8667991 -1.5954841
4.759481 -3.9067001 -1.4589791
4.8509083 -3.981746 -1.3339615
5.2366185 -4.2983465 -1.2764387
2.4217 -2.0005581 -1.8628585
5.7635107 -4.7612171 -1.2282251
2.5420003 -2.0999379 -1.8525712
6.4466157 -5.3255277 -1.1751777
2.6779351 -2.2122333 -1.8469013
7.1872354 -5.9373512 -1.0901905
2.8025804 -2.3152022 -1.8259267
8.1844139 -6.761117 -0.9904139
2.9643452 -2.4488356 -1.819994
9.267415 -7.6557803 -0.8405655
3.1200724 -2.5774813 -1.8018434
11.125171 -9.1904659 -0.67294425
3.292331 -2.7197835 -1.7837375
13.947499 -11.521982 -0.42002258
3.474401 -2.8701911 -1.7597694
20.894506 -17.260881 0
3.684622 -3.043854 -1.7395145
27.272232 -22.529501 0.82129085
3.9075801 -3.2280388 -1.7126259
4.1625919 -3.4387033 -1.6847796
4.4361796 -3.6647131 -1.6499653
4.7061577 -3.8877411 -1.5980166
4.7681894 -3.9389856 -1.4654348
4.844408 -4.0019493 -1.3356248
5.2321796 -4.3222861 -1.2786604
2.4138074 -2.0046933 -1.8608181
5.7540627 -4.7788115 -1.2288736
2.5324702 -2.1032438 -1.8496323
6.435698 -5.3449173 -1.1757344
2.6694174 -2.2169802 -1.8450234
7.1563849 -5.9434552 -1.0878675
2.7951345 -2.3213894 -1.8250289
8.155962 -6.7736149 -0.98911345
2.953752 -2.4531231 -1.817427
9.2596197 -7.6902142 -0.84168166
3.1133139 -2.5856409 -1.8018434
11.091851 -9.2119026 -0.67238528
3.2809401 -2.7248564 -1.7814249
13.87268 -11.521411 -0.41867635
3.4611423 -2.874516 -1.7568595
20.783087 -17.260578 0
3.6751945 -3.052289 -1.7388303
27.180857 -22.573996 0.82031602
3.900573 -3.2394681 -1.7132661
4.1491694 -3.44593 -1.6829923
4.4073439 -3.6603467 -1.6427988
4.7093587 -3.9111733 -1.6025751
4.7878036 -3.9763227 -1.4746572
4.8278947 -4.0096188 -1.3339615
5.2253823 -4.3397365 -1.2797713
2.4065287 -2.0107431 -1.859798
5.7474308 -4.8021898 -1.2304947
2.5355849 -2.1185744 -1.85649
6.4213314 -5.3652587 -1.1760129
2.6655381 -2.2271552 -1.8469013
7.1402435 -5.9659362 -1.0880997
2.7909777 -2.3319645 -1.8268243
8.1419411 -6.8028913 -0.98985654
2.9478476 -2.4630351 -1.8182826
9.2245131 -7.7074199 -0.8405655
3.1070304 -2.5960381 -1.8026569
11.03994 -9.2242756 -0.67089456
3.272841 -2.7345791 -1.7814249
13.801611 -11.531754 -0.41756225
3.4525983 -2.8847728 -1.7568595
20.676533 -17.276003 0
3.6603537 -3.0583599 -1.7360942
27.049316 -22.600698 0.81836629
3.8909445 -3.2510271 -1.7132661
4.1403923 -3.4594498 -1.6835883
4.4008894 -3.6771049 -1.6444525
4.6977334 -3.9251289 -1.6025751
4.8043599 -4.0142193 -1.4834185
4.8204803 -4.0276885 -1.335209
5.2366152 -4.3753843 -1.2856963
2.3995874 -2.0163493 -1.8587779
5.7385306 -4.8220296 -1.2314675
2.5243189 -2.1211598 -1.8525712
6.3805461 -5.3615093 -1.1712809
2.6539004 -2.2300458 -1.8431455
7.1342006 -5.9947972 -1.0897259
2.7789817 -2.3351505 -1.8232336
8.1290102 -6.8307257 -0.99059969
2.9395742 -2.4700947 -1.817427
9.1968441 -7.7280159 -0.84000748
3.096971 -2.6023538 -1.8010298
11.023314 -9.2627802 -0.6714536
3.2609532 -2.7401464 -1.7791123
13.777007 -11.576681 -0.41779432
3.4431021 -2.8932042 -1.756132
20.579208 -17.292501 0
3.6503599 -3.0673609 -1.7354102
26.940172 -22.637556 0.81697363
3.8803999 -3.2606614 -1.7126259
4.1277919 -3.4685421 -1.6823967
4.3950195 -3.6930909 -1.6461064
4.6911979 -3.9419665 -1.6040946
4.8214397 -4.0514073 -1.4921796
4.8256888 -4.0549779 -1.3397831
5.2183571 -4.3849335 -1.284215
2.3913193 -2.0208213 -1.8567374
5.7310724 -4.8431315 -1.2327645
2.5197177 -2.1293263 -1.8535509
6.361012 -5.3754721 -1.1704459
2.6476626 -2.2374482 -1.8431455
7.1052947 -6.0044394 -1.0878675
2.7751799 -2.3452086 -1.8250289
8.0931721 -6.8392611 -0.98855603
2.9312842 -2.4771273 -1.8165714
9.1737041 -7.7523808 -0.83986795
3.0841098 -2.6062748 -1.797776
10.983672 -9.2819223 -0.67061508
3.2532887 -2.7492421 -1.7791123
13.738517 -11.609947 -0.41760865
3.4307406 -2.8992004 -1.7539495
20.466679 -17.295685 0
3.6389089 -3.0751164 -1.734042
26.856997 -22.695923 0.81637013
3.8727264 -3.2727075 -1.7132661
4.1180897 -3.4800556 -1.6823967
4.3788161 -3.7003863 -1.6439012
4.6801715 -3.9550517 -1.6040946
4.836863 -4.0874662 -1.5004798
4.8412423 -4.091167 -1.3472679
5.207593 -4.4007573 -1.2845852
2.3869777 -2.0286055 -1.8577576
5.7085028 -4.8514485 -1.2308191
2.5150902 -2.1374836 -1.8545307
6.350503 -5.3970613 -1.1712809
2.6387129 -2.2425461 -1.8412676
7.064281 -6.0036755 -1.0841507
2.7713437 -2.3552642 -1.8268243
8.0588684 -6.8489389 -0.98669827
2.9229782 -2.4841328 -1.8157158
9.1504984 -7.7766757 -0.83972842
3.0768197 -2.614877 -1.797776
10.940964 -9.2983265 -0.66959023
3.2441926 -2.7571211 -1.7783417
13.671 -11.618485 -0.41654095
3.421212 -2.9075634 -1.7532221
20.384773 -17.324276 0
3.6317394 -3.086483 -1.7347261
26.753904 -22.737169 0.8151632
3.8577974 -3.2786014 -1.7107052
4.1069007 -3.4903054 -1.681801
4.3670006 -3.7113547 -1.64335
4.6705832 -3.9693587 -1.6046011
4.8550887 -4.126163 -1.5097022
4.8611031 -4.1312747 -1.3560002
5.1952834 -4.4152822 -1.2845852
2.3779783 -2.0338583 -1.8557173
5.6992321 -4.8744893 -1.232116
2.5070376 -2.1442411 -1.8535509
6.3154545 -5.4015374 -1.1679407
2.6303124 -2.2496769 -1.8403286
7.0333076 -6.0155096 -1.0822923
2.7557814 -2.3569891 -1.8214381
8.0282316 -6.866457 -0.98558354
2.9137855 -2.4921281 -1.81486
9.1199579 -7.8001976 -0.8391704
3.0727551 -2.628093 -1.8002164
10.898033 -9.3209658 -0.66875178
3.2355146 -2.7672997 -1.7783417
13.596443 -11.628885 -0.41538039
3.4163079 -2.9219301 -1.7554046
20.284649 -17.349234 0
3.6220248 -3.0978773 -1.7347261
26.626116 -22.77302 0.81344557
3.8489177 -3.2919364 -1.7113453
4.0930133 -3.5007086 -1.6806093
4.355319 -3.7250557 -1.64335
4.6566195 -3.9827545 -1.6040946
4.8716807 -4.1666942 -1.5189246
4.8822942 -4.1757712 -1.3655641
5.1769061 -4.4277496 -1.2834743
2.3700366 -2.0378335 -1.8536768
5.6819625 -4.8855333 -1.2311432
2.4987712 -2.1485236 -1.8515916
6.2922816 -5.4103055 -1.1662706
2.623075 -2.255404 -1.8393897
7.000967 -6.0196557 -1.0797369
2.7496016 -2.3641953 -1.8214381
7.9951286 -6.8744678 -0.98372567
2.9031391 -2.496212 -1.8122931
9.0934544 -7.8188434 -0.83861232
3.0630937 -2.6337459 -1.7985896
10.859961 -9.3377419 -0.6679132
3.224061 -2.7721508 -1.776029
13.54018 -11.642281 -0.41459125
3.4086468 -2.9308636 -1.7554046
20.202765 -17.370983 0
3.6124775 -3.1061237 -1.734042
26.531534 -22.812664 0.81237787
3.8359766 -3.2982955 -1.7094246
4.0838346 -3.5114117 -1.6806093
4.3484674 -3.7389517 -1.6444525
4.6447101 -3.9936702 -1.6035881
4.8946958 -4.2086163 -1.5295303
4.8950791 -4.2089458 -1.3722173
5.1623163 -4.4387245 -1.2827338
2.3730872 -2.0527346 -1.8608181
5.6614709 -4.8972068 -1.2298464
2.4910665 -2.1547875 -1.8506118
6.2657161 -5.4198818 -1.1643223
2.6217139 -2.2677982 -1.8431455
6.974061 -6.0326047 -1.0783432
2.7425745 -2.3723435 -1.8214381
7.952105 -6.8786187 -0.98093891
2.9011889 -2.5095458 -1.8157158
9.0671968 -7.8431802 -0.83833331
3.0538836 -2.6416278 -1.797776
10.832206 -9.3699236 -0.6679132
3.217217 -2.7829123 -1.7767998
13.467771 -11.649703 -0.41343069
3.3999355 -2.9409647 -1.7554046
20.110294 -17.395525 0
3.6004028 -3.1143701 -1.7326741
26.439535 -22.870358 0.81163514
3.8233073 -3.307184 -1.7081443
33.555813 -29.02598 2.0690496
4.0719543 -3.522265 -1.6800137
4.3344464 -3.7493224 -1.64335
4.6313763 -4.0061684 -1.6030817
4.9086804 -4.2460384 -1.5378305
4.91364 -4.2503281 -1.3809495
5.1446633 -4.4501648 -1.2816229
2.3627341 -2.0567911 -1.8577576
5.6371269 -4.9071932 -1.2279009
2.4856 -2.1637475 -1.8515916
6.2441769 -5.4356384 -1.1634872
2.6119125 -2.2737043 -1.8412676
6.9670606 -6.064918 -1.0802015
2.7364564 -2.3821213 -1.822336
7.9289541 -6.9022593 -0.98075312
2.8892 -2.5150867 -1.8131489
9.0455227 -7.8742461 -0.83861232
3.0441918 -2.6500092 -1.7969626
10.774086 -9.3789845 -0.66614306
3.2028906 -2.7881587 -1.7737164
15.30567 -13.323788 -0.47113273
3.3878689 -2.9491844 -1.7539495
20.005764 -17.415281 0
3.5891833 -3.1244314 -1.73199
26.337395 -22.92705 0.81070668
3.8143277 -3.3204224 -1.7087845
4.0608687 -3.5350397 -1.6800137
4.3211966 -3.7616587 -1.6427988
4.6173081 -4.0194278 -1.6025751
4.9188023 -4.2818823 -1.5452083
4.932725 -4.2940021 -1.3900977
5.1395521 -4.4740481 -1.2838447
2.3612251 -2.0663683 -1.8608181
5.6227756 -4.9206347 -1.2275766
2.4773028 -2.1679509 -1.8496323
6.2194924 -5.4428368 -1.1615388
2.60728 -2.2816975 -1.8422066
6.9586334 -6.0896783 -1.0813631
2.7248306 -2.3845689 -1.8187449
7.9003673 -6.9138136 -0.97945267
2.8826058 -2.5226419 -1.8131489
9.0158682 -7.8900166 -0.83777523
3.0331185 -2.6543596 -1.7945222
10.749496 -9.4071589 -0.66614306
3.196969 -2.7977495 -1.7744873
15.212055 -13.312459 -0.46932232
3.3801363 -2.9580438 -1.7539495
19.908932 -17.422815 0
3.5809913 -3.133817 -1.73199
26.236656 -22.960369 0.80945331
3.8027701 -3.3279014 -1.7075039
33.884212 -29.652943 2.0997949
4.0487261 -3.543144 -1.6788222
4.3098869 -3.7716923 -1.6422474
4.6053138 -4.0302281 -1.6020687
4.919292 -4.3049984 -1.5488973
4.9567986 -4.337821 -1.4000775
5.1219053 -4.4823103 -1.2823634
2.3469758 -2.0669544 -1.854697
5.5969219 -4.9291444 -1.225307
2.4704797 -2.1757228 -1.8496323
6.1889849 -5.4505672 -1.1590337
2.5974483 -2.2875428 -1.8403286
6.9215789 -6.0957546 -1.0785754
2.7186675 -2.394299 -1.8196428
7.8815966 -6.9412313 -0.97982419
2.8733096 -2.5304906 -1.8122931
8.9880428 -7.9156651 -0.83749622
3.0247648 -2.6638753 -1.7945222
10.730384 -9.4501257 -0.66679525
3.186779 -2.8065596 -1.7737164
15.138647 -13.332432 -0.46834746
3.3652344 -2.9637229 -1.7510396
19.816576 -17.452229 0
3.5697181 -3.1438096 -1.731306
26.146391 -23.026825 0.8088963
3.7880306 -3.3360748 -1.7055832
4.0361428 -3.5545843 -1.6782265
4.2965741 -3.7839432 -1.6416962
4.5940819 -4.0459547 -1.6025751
4.9086642 -4.3230038 -1.5498195
4.976913 -4.38311 -1.4096414
5.1018987 -4.4931831 -1.2808822
2.3406301 -2.071543 -1.8536768
5.578949 -4.9375734 -1.22401
2.4625442 -2.1794417 -1.8476728
6.1608171 -5.452548 -1.1562502
2.5865617 -2.2892015 -1.8365729
6.9022007 -6.1086998 -1.0778786
2.7101321 -2.3985658 -1.8178474
7.8541741 -6.951231 -0.97852373
2.8657641 -2.5363059 -1.8114374
8.9641914 -7.9336371 -0.83707774
3.0182464 -2.6712584 -1.7945222
10.704268 -9.4736681 -0.66660887
3.1799116 -2.814338 -1.7737164
15.082067 -13.348181 -0.46760473
3.3593779 -2.9731722 -1.7517673
19.737926 -17.468786 0
3.5620255 -3.1525228 -1.731306
26.046623 -23.052214 0.80755001
3.7798676 -3.3453209 -1.7055832
4.0274448 -3.564436 -1.6782265
4.2844357 -3.791882 -1.6405936
4.5725913 -4.0469103 -1.5985231
4.8995438 -4.3362751 -1.5502807
4.9954872 -4.4211888 -1.4179578
5.0879612 -4.5030313 -1.2801417
2.3392491 -2.0834627 -1.8577576
5.5575147 -4.9498253 -1.222713
2.4569876 -2.1883268 -1.8486525
6.1244311 -5.454752 -1.1526318
2.5754013 -2.2937927 -1.8337561
6.8740754 -6.122426 -1.0764848
2.7065873 -2.410634 -1.8205404
7.8218884 -6.9665995 -0.97722322
2.8564324 -2.5440943 -1.8105818
8.9392233 -7.9617596 -0.83707774
3.0098398 -2.6807272 -1.7945222
10.658044 -9.4926338 -0.66558409
3.1696768 -2.8230867 -1.7729456
15.011691 -13.37023 -0.46672273
3.3500209 -2.983711 -1.7517673
19.65756 -17.508095 0
3.5492973 -3.1611974 -1.7299378
25.96512 -23.12595 0.80727154
3.7693396 -3.3571792 -1.7055832
4.01195 -3.5732613 -1.6764392
4.2710667 -3.8040445 -1.6400423
4.5584106 -4.0599685 -1.5980166
4.8829904 -4.3490572 -1.5493584
5.0210171 -4.4719911 -1.4291852
5.0723219 -4.5176859 -1.2797713
2.3330569 -2.090394 -1.8577576
5.5383945 -4.9623423 -1.2217402
2.4491851 -2.1944435 -1.8476728
6.1052699 -5.4702563 -1.1520751
2.57516 -2.3073158 -1.8384508
6.8588386 -6.1454458 -1.0769494
2.6967607 -2.4162686 -1.8187449
7.7967343 -6.9857903 -0.97666591
2.8502176 -2.5537643 -1.8114374
8.8917866 -7.9669452 -0.83484548
3.0045946 -2.6920843 -1.7961491
10.597096 -9.4948845 -0.6635344
3.1612866 -2.8324788 -1.7729456
14.952595 -13.397364 -0.4661192
3.342541 -2.9948807 -1.7524947
19.566799 -17.531641 0
3.5371032 -3.1692064 -1.7285699
25.862137 -23.172197 0.80620378
3.7607734 -3.3696125 -1.7062236
31.338953 -28.079365 1.9622804
3.9999084 -3.5838749 -1.6758435
4.2640567 -3.820549 -1.6416962
4.5492258 -4.0760574 -1.5990295
4.8773122 -4.3700194 -1.551664
5.0368662 -4.5129781 -1.4375015
5.0618229 -4.5353389 -1.280512
2.3224635 -2.0918896 -1.8536768
5.5297832 -4.9807868 -1.222713
2.4434316 -2.2008479 -1.8476728
6.0894556 -5.4848948 -1.1517966
2.5664866 -2.3116858 -1.8365729
6.8427262 -6.1633811 -1.0769494
2.6904256 -2.4233203 -1.8187449
7.7828579 -7.0101762 -0.97722322
2.8421791 -2.5600076 -1.8105818
8.8649693 -7.9848552 -0.83428746
2.9934635 -2.6962726 -1.7937087
10.554389 -9.5065498 -0.6624164
3.1538603 -2.8407452 -1.7729456
14.899642 -13.420406 -0.46556216
3.3305361 -2.9998808 -1.7503122
19.491112 -17.556036 0
3.5287941 -3.1784556 -1.7285699
25.78207 -23.222427 0.80560029
3.7519388 -3.3794465 -1.7062236
30.23662 -27.23473 1.8977158
3.9862566 -3.5905013 -1.6740562
4.2454691 -3.8239791 -1.6383885
4.5356646 -4.0853639 -1.5980166
4.8644085 -4.3814702 -1.5512029
5.0628276 -4.5601902 -1.448313
5.0747581 -4.5709367 -1.2868072
2.3149719 -2.0976162 -1.8526567
5.5120559 -4.9945221 -1.2220646
2.4381831 -2.209259 -1.8486525
6.0731544 -5.5029383 -1.1517966
2.5556905 -2.3157334 -1.8337561
6.8185215 -6.1783218 -1.0760202
2.6818993 -2.4300923 -1.8178474
7.7605481 -7.0319004 -0.97703749
2.833231 -2.5672152 -1.809726
8.8368025 -8.0071039 -0.83386886
2.9813886 -2.7014623 -1.7912682
10.502449 -9.5163603 -0.66092575
3.1426823 -2.8476119 -1.7714039
14.847904 -13.453815 -0.4651908
3.3188591 -3.0072472 -1.7488573
19.382618 -17.562759 0
3.5193479 -3.1889117 -1.7285699
23.449051 -21.247389 0.73466814
3.7362788 -3.3854747 -1.7036625
30.19121 -27.356518 1.8999519
3.9755859 -3.602313 -1.6740562
4.2341042 -3.8365588 -1.6383885
4.5249562 -4.1001024 -1.5985231
4.8485031 -4.393271 -1.5502807
5.0855165 -4.6080308 -1.4587085
5.1034107 -4.6242452 -1.297546
2.3125522 -2.1079521 -1.8557173
5.4957542 -5.0095248 -1.2217402
2.4290402 -2.2141342 -1.8466932
6.0568004 -5.5209332 -1.1517966
2.5527236 -2.326875 -1.8365729
6.7957554 -6.19451 -1.0753232
2.675998 -2.4392428 -1.8187449
7.7396502 -7.0548949 -0.97703749
2.8242657 -2.5743926 -1.8088704
8.8085833 -8.0292559 -0.83345038
2.9760606 -2.7127576 -1.7928951
10.462356 -9.5367126 -0.66018039
3.1342196 -2.8569238 -1.7714039
14.788711 -13.4803 -0.4645873
3.309922 -3.017081 -1.7488573
19.312687 -17.604023 0
3.5126483 -3.2018716 -1.7299378
23.347485 -21.281847 0.7334612
3.7262175 -3.3965454 -1.7036625
30.161585 -27.49308 1.9032127
3.9677019 -3.6166649 -1.6752476
4.2227025 -3.8491046 -1.6383885
4.5156317 -4.116117 -1.5995362
4.8383231 -4.4102588 -1.5512029
5.1065211 -4.6547284 -1.4686882
5.1216235 -4.6684952 -1.3056927
2.309562 -2.1163235 -1.8577576
5.4768 -5.0185623 -1.2204434
2.4258063 -2.2228417 -1.8486525
6.0350251 -5.5300813 -1.150405
2.5440192 -2.3311639 -1.834695
6.7795143 -6.2122798 -1.0753232
2.6682854 -2.4450328 -1.8178474
7.7211537 -7.0751333 -0.97703749
2.8188486 -2.5829988 -1.809726
8.7816477 -8.0468969 -0.8328923
2.9676011 -2.7193053 -1.7920817
10.415257 -9.5438242 -0.65878284
3.1253688 -2.8638725 -1.7706331
14.723885 -13.491954 -0.4636589
3.3020117 -3.0257361 -1.7488573
19.225245 -17.61669 0
3.5000968 -3.2072477 -1.7278857
25.507347 -23.373177 0.80323285
3.7173123 -3.4062891 -1.7036625
3.9568121 -3.6257501 -1.6746519
4.2111936 -3.8588476 -1.6378373
4.5048399 -4.1279249 -1.5995362
4.8253255 -4.4215961 -1.5507418
5.1289334 -4.6998014 -1.4786681
5.1470594 -4.7164106 -1.3153206
2.3007431 -2.1208351 -1.8557173
5.4604349 -5.0334525 -1.2201191
2.4153543 -2.2264841 -1.8457135
6.0229592 -5.55199 -1.15124
2.542285 -2.3434894 -1.8384508
6.7610526 -6.232368 -1.0753232
2.658391 -2.4505162 -1.8160518
7.6854858 -7.0845141 -0.97517961
2.8098435 -2.590126 -1.8088704
8.7562675 -8.0715656 -0.83275276
2.9568331 -2.7256217 -1.7904549
10.369267 -9.5584364 -0.6576649
3.1155007 -2.8718822 -1.7698622
14.667617 -13.520673 -0.46314824
3.29439 -3.036783 -1.7495848
19.140539 -17.643833 0
3.4891837 -3.2163448 -1.7272017
25.382021 -23.397257 0.80146885
3.7057967 -3.4160194 -1.7030224
3.9418256 -3.6335921 -1.6728647
4.1954851 -3.8674164 -1.6361835
4.4911494 -4.1399612 -1.5990295
4.8107548 -4.4345746 -1.5502807
5.1422963 -4.7401915 -1.4865688
5.1749516 -4.7702928 -1.3260593
2.2948115 -2.1272516 -1.8557173
5.4434624 -5.0459981 -1.2194706
2.4116845 -2.2355909 -1.8476728
6.0117893 -5.5728278 -1.1520751
2.5305505 -2.3457778 -1.834695
6.7334247 -6.2417717 -1.0736971
2.6528482 -2.4591455 -1.8169497
7.6364632 -7.0788732 -0.97146392
2.7959709 -2.5918181 -1.8045921
8.7278395 -8.0905609 -0.83219475
2.9518898 -2.7363522 -1.7920817
10.327883 -9.5737743 -0.65673321
3.1061153 -2.8793166 -1.7690914
14.616606 -13.549348 -0.46273044
3.2845302 -3.0447042 -1.7488573
19.072124 -17.679539 0
3.4788098 -3.2247982 -1.7265177
25.291656 -23.444941 0.80067968
3.6962428 -3.4263549 -1.7030224
3.9302633 -3.6432879 -1.672269
4.1860781 -3.8804243 -1.6367347
4.482409 -4.1551175 -1.6000426
4.7983518 -4.4479914 -1.5502807
5.1362119 -4.7611823 -1.4886478
5.2062931 -4.8261461 -1.3375388
2.2872314 -2.1328778 -1.854697
5.42558 -5.0594354 -1.2188221
2.4012153 -2.2391696 -1.8447338
5.976398 -5.573081 -1.1484566
2.5235794 -2.3532758 -1.834695
6.6945357 -6.2427559 -1.0704449
2.6429257 -2.4645681 -1.8151542
7.6125145 -7.0987849 -0.9710924
2.7922347 -2.603801 -1.8071589
8.7037964 -8.1164217 -0.83219475
2.9410856 -2.7426069 -1.7904549
10.293588 -9.5989256 -0.65636057
3.1029572 -2.8935544 -1.7721747
14.548555 -13.566748 -0.46184844
3.2741196 -3.0531662 -1.7481297
19.00057 -17.718319 0
3.4678516 -3.233824 -1.7258335
25.164951 -23.466698 0.79886925
3.6819029 -3.4334302 -1.7011017
3.9208322 -3.6562352 -1.6728647
4.1717348 -3.8902056 -1.6356323
4.4658155 -4.1644406 -1.5985231
4.7751703 -4.4529185 -1.5470529
5.1306472 -4.7844062 -1.4911427
5.2293234 -4.8764229 -1.3471668
2.2808931 -2.1396546 -1.854697
5.4076657 -5.0728102 -1.2181736
2.3945611 -2.2462842 -1.8447338
5.9497242 -5.5813031 -1.146508
2.5152981 -2.3595448 -1.8337561
6.665843 -6.253078 -1.0688188
2.6356018 -2.472399 -1.8151542
7.5841565 -7.1145272 -0.9701634
2.7858152 -2.6133108 -1.8080148
8.6753111 -8.1381149 -0.8317762
2.9316027 -2.7500708 -1.7896413
10.253405 -9.6184893 -0.65561521
3.0862827 -2.8951728 -1.7675498
14.489282 -13.592071 -0.46124497
3.2636876 -3.0615923 -1.7474023
18.914368 -17.743145 0
3.4568708 -3.2428131 -1.7251495
21.841833 -20.489336 0.69530261
3.6703179 -3.4430432 -1.7004614
3.9057896 -3.663934 -1.6710774
4.1643801 -3.9065118 -1.6372859
4.4477954 -4.1723776 -1.5964972
4.757679 -4.4630723 -1.5456694
5.1235628 -4.8062997 -1.4932219
5.2521014 -4.9268785 -1.3567947
2.2745345 -2.1464128 -1.854697
5.3925905 -5.0888329 -1.2181736
2.3878856 -2.2533791 -1.8447338
5.9374599 -5.6030102 -1.1473432
2.508286 -2.3669975 -1.8337561
6.6284781 -6.2551045 -1.0657989
2.629554 -2.4814346 -1.8160518
7.5586691 -7.1328988 -0.9696061
2.7754195 -2.6190836 -1.8063034
8.6409693 -8.1542349 -0.83079964
2.92343 -2.7587571 -1.7896413
10.20012 -9.6255608 -0.6540314
3.0803633 -2.9068503 -1.7690914
14.425622 -13.613045 -0.46050218
3.2545893 -3.0712626 -1.7474023
18.825274 -17.76487 0
3.4486008 -3.2543454 -1.7258335
21.716959 -20.493671 0.69326007
3.655952 -3.4500167 -1.6985407
3.8935127 -3.6741962 -1.6704817
4.144382 -3.9109342 -1.6339784
4.433989 -4.1842284 -1.5959907
4.7430005 -4.4758334 -1.5452083
5.1092796 -4.8214808 -1.4932219
5.2731957 -4.9761634 -1.3660523
2.2689075 -2.15236 -1.854697
5.3735232 -5.0974998 -1.2168767
2.3819783 -2.2596226 -1.8447338
5.9313922 -5.6267128 -1.1490133
2.5046432 -2.3759863 -1.8356339
6.6005511 -6.2614989 -1.0639405
2.623049 -2.4883101 -1.8160518
7.5269675 -7.1403275 -0.96793401
2.7659307 -2.6238525 -1.8045921
8.6065655 -8.1644697 -0.82954395
2.9122212 -2.7626283 -1.7872008
10.158943 -9.6371059 -0.65300655
3.0687261 -2.911094 -1.7667788
14.371077 -13.632874 -0.45989874
3.2424831 -3.0759256 -1.7452199
18.736624 -17.774176 0
3.4387059 -3.2620692 -1.7251495
21.641476 -20.529812 0.69256377
3.6482821 -3.4608798 -1.6991808
3.8838809 -3.6843765 -1.6704817
4.1313391 -3.9191236 -1.6328758
4.4202123 -4.1931581 -1.5949776
4.7326789 -4.4895744 -1.5456694
5.1023173 -4.8402252 -1.4948852
5.3072052 -5.0345883 -1.3782723
2.2603989 -2.1563132 -1.8526567
5.3578391 -5.111124 -1.2165524
2.3731356 -2.2638586 -1.8427744
5.9271207 -5.6541915 -1.15124
2.4941649 -2.3793149 -1.8328172
6.5873513 -6.2840204 -1.0646373
2.6109173 -2.4906912 -1.812461
7.5026755 -7.157196 -0.96737671
2.7599006 -2.6328142 -1.8054478
8.567853 -8.1733246 -0.82800937
2.9031732 -2.7694895 -1.7863874
10.121872 -9.6557856 -0.65235436
3.0592494 -2.9183786 -1.766008
14.31559 -13.656393 -0.45934168
3.2352288 -3.0862546 -1.7459474
18.650736 -17.791916 0
3.4268637 -3.2690651 -1.7237816
21.57972 -20.586027 0.69242448
3.6372323 -3.4697468 -1.6985407
3.8680511 -3.6899371 -1.6680987
4.1203785 -3.9306455 -1.6328758
4.4056854 -4.2028151 -1.5939646
4.7201233 -4.5027733 -1.5456694
5.0873652 -4.8531046 -1.4944693
5.3357882 -5.0900888 -1.3893814
2.2523723 -2.1622124 -1.8516365
5.35884 -5.1443315 -1.2204434
2.364754 -2.2700953 -1.8417948
5.9078994 -5.6714125 -1.1509616
2.482856 -2.3834701 -1.8300003
6.5704432 -6.3074355 -1.065102
2.6082368 -2.5038319 -1.8160518
7.4844632 -7.1848683 -0.96793401
2.7529197 -2.6427233 -1.8063034
8.5334978 -8.1919107 -0.82717228
2.8970945 -2.7811267 -1.7880144
10.120313 -9.7152071 -0.65421772
3.050066 -2.9279752 -1.766008
14.249537 -13.679144 -0.45859894
3.2241731 -3.0951128 -1.7452199
18.557236 -17.814411 0
3.4152207 -3.278513 -1.7230974
21.52071 -20.65926 0.6926102
3.6249468 -3.4798441 -1.6979005
3.8578167 -3.7033925 -1.6686944
4.1080098 -3.9435706 -1.6328758
4.3896689 -4.2139549 -1.5929517
4.7045498 -4.5162315 -1.5452083
5.0735049 -4.8704181 -1.4948852
5.3693962 -5.1544647 -1.4023421
2.2475634 -2.1696885 -1.8526567
5.3898902 -5.2031379 -1.2308191
2.3596599 -2.2779009 -1.8427744
5.8863392 -5.6823854 -1.1498482
2.4812727 -2.3952999 -1.8337561
6.5499458 -6.322999 -1.0646373
2.5986633 -2.5086231 -1.8142565
7.4600725 -7.201591 -0.96737671
2.7416275 -2.6466339 -1.8037363
8.5034113 -8.2087793 -0.82647473
2.8827441 -2.782861 -1.783947
10.093143 -9.7434301 -0.65421772
3.0458612 -2.9403262 -1.7683206
14.188268 -13.696664 -0.45785621
3.2168579 -3.1053982 -1.7459474
18.47864 -17.838381 0
3.4101086 -3.2919528 -1.7251495
21.503214 -20.758158 0.69391
3.6165786 -3.4912691 -1.6985407
3.8460867 -3.7128253 -1.6680987
4.0914488 -3.9496858 -1.6306707
4.376492 -4.2248526 -1.592445
4.6891198 -4.5266485 -1.5442861
5.0556622 -4.8804908 -1.4936378
5.4044728 -5.2172155 -1.4153028
2.2358003 -2.1719439 -1.8485759
5.4202309 -5.2654247 -1.241519
2.3512414 -2.2840879 -1.8417948
5.8670373 -5.6994696 -1.1495699
2.4750018 -2.4043138 -1.834695
6.5158005 -6.3297038 -1.0623144
2.5869234 -2.5130386 -1.8115634
7.4359822 -7.2236047 -0.96719092
2.7358925 -2.6577532 -1.8054478
8.4518204 -8.2104292 -0.82396346
2.8766084 -2.7944498 -1.785574
10.029525 -9.7430725 -0.65207487
3.0313139 -2.944737 -1.7652372
14.113615 -13.710518 -0.45683491
3.2057495 -3.1141906 -1.7452199
18.370863 -17.846176 0
3.3916614 -3.2947927 -1.7210453
21.483788 -20.870192 0.69539547
3.6015151 -3.4986527 -1.69662
3.8316641 -3.7222285 -1.6669072
4.0831571 -3.9665389 -1.6323246
4.3618102 -4.2372332 -1.5919386
4.6720839 -4.5386448 -1.5433638
5.0374985 -4.8936229 -1.4928061
5.435987 -5.2807307 -1.427893
2.2354105 -2.1822073 -1.8526567
5.4497156 -5.3200111 -1.2512462
2.3444057 -2.2886083 -1.8408151
5.8474255 -5.7082558 -1.1484566
2.4615378 -2.4029529 -1.8290613
6.4789929 -6.3247914 -1.0588298
2.5820541 -2.5206008 -1.812461
7.4183102 -7.2417526 -0.96719092
2.7242162 -2.6593795 -1.8020252
8.4203129 -8.2199078 -0.82284737
2.8671567 -2.7989178 -1.783947
9.975666 -9.7382441 -0.65011835
3.0241096 -2.9521351 -1.7652372
14.064334 -13.729601 -0.45632428
3.1927984 -3.1168091 -1.74231
18.278543 -17.84351 0
3.3889802 -3.308322 -1.7237816
24.215549 -23.639214 0.78568548
3.5929556 -3.5074427 -1.69662
3.8252904 -3.7342479 -1.6680987
4.0720768 -3.9751608 -1.6317732
4.3514438 -4.2478786 -1.5919386
4.663765 -4.5527668 -1.5442861
5.025526 -4.9059176 -1.4928061
5.4624467 -5.3324394 -1.4382616
2.2285438 -2.1892192 -1.8526567
5.4906974 -5.3938098 -1.2645401
2.3421795 -2.3008499 -1.8447338
5.8322887 -5.729373 -1.1490133
2.4552362 -2.4119117 -1.8300003
6.4562564 -6.3423305 -1.0583652
2.5728476 -2.5274477 -1.8115634
7.3955221 -7.2650223 -0.96719092
2.7171373 -2.6691914 -1.8028808
8.3859081 -8.2379322 -0.82201028
2.8596528 -2.8091919 -1.7847604
9.9264946 -9.7513342 -0.64890718
3.0121872 -2.9590347 -1.7636955
14.001163 -13.754101 -0.45567438
3.1843197 -3.1281297 -1.7430375
18.210981 -17.889635 0
3.3758883 -3.3163183 -1.7224134
24.075552 -23.650721 0.78355008
3.5832703 -3.5200405 -1.6972601
3.8080919 -3.740895 -1.6657157
4.058197 -3.986587 -1.6312219
4.3325558 -4.2561045 -1.5899125
4.6494389 -4.5673957 -1.5442861
5.0100884 -4.9216814 -1.4928061
5.4484711 -5.3523288 -1.4390022
2.2248693 -2.1978519 -1.854697
5.5331779 -5.4659867 -1.2778341
2.3369856 -2.3086069 -1.8457135
5.8106303 -5.7400699 -1.1478997
2.4484913 -2.4187586 -1.8300003
6.4554787 -6.3770876 -1.0611528
2.5657794 -2.5346224 -1.8115634
7.3667054 -7.2772489 -0.9660762
2.7058151 -2.6729574 -1.8003138
8.357193 -8.2557087 -0.82145226
2.8517969 -2.8171666 -1.7847604
9.8921204 -9.7719965 -0.64844137
3.0052249 -2.9687316 -1.7644663
13.939939 -13.770661 -0.45493162
3.1742465 -3.1357005 -1.74231
18.131073 -17.910902 0
3.3679512 -3.3270531 -1.7230974
23.96105 -23.670084 0.78197175
3.5680346 -3.5247068 -1.6946993
3.7989888 -3.7528565 -1.6663115
4.0429454 -3.9938505 -1.6295681
4.3179007 -4.2654672 -1.5888995
4.6380506 -4.5817294 -1.5447472
4.9810162 -4.9205298 -1.488232
5.4376984 -5.3716664 -1.4401131
2.2146776 -2.2008059 -1.8516365
5.5799313 -5.5449805 -1.2924249
2.3239417 -2.3093855 -1.8408151
5.7879548 -5.7517014 -1.1467865
2.4413042 -2.4260128 -1.8300003
6.4351206 -6.3948135 -1.0609206
2.554445 -2.538445 -1.8088703
7.3436689 -7.2976713 -0.96589047
2.7004371 -2.6835227 -1.8020252
8.3213396 -8.2692184 -0.8203361
2.8382418 -2.8204641 -1.7815065
9.837575 -9.7759562 -0.64676434
2.9924765 -2.9737327 -1.7621537
13.88342 -13.79646 -0.45442098
3.1662505 -3.1464183 -1.7430375
18.029617 -17.916687 0
3.3553991 -3.3343823 -1.7217294
23.851006 -23.701612 0.78067195
3.5589054 -3.5366139 -1.6953396
3.7837746 -3.7600744 -1.6645242
4.0310779 -4.0058289 -1.6295681
4.3052258 -4.2782598 -1.5888995
4.6216755 -4.5927272 -1.5438249
4.9663949 -4.9352875 -1.488232
5.4273133 -5.3933187 -1.4415942
2.2073066 -2.205766 -1.8506163
5.6300359 -5.6261063 -1.3076642
2.3199503 -2.318331 -1.8427744
5.7690682 -5.7650414 -1.1462297
2.4320219 -2.4303243 -1.8281225
6.4369097 -6.4324169 -1.0641727
2.5498745 -2.548095 -1.8106658
7.327487 -7.3223724 -0.96644777
2.6942112 -2.6923308 -1.8028808
8.2982149 -8.2924232 -0.8203361
2.8329394 -2.8309622 -1.7831335
9.8328466 -9.825984 -0.64825499
2.9880767 -2.9859912 -1.7644663
13.829282 -13.81963 -0.45391035
3.1521804 -3.1499803 -1.7401276
17.941317 -17.928795 0
3.3474038 -3.3450675 -1.7224134
23.735224 -23.718657 0.77904719
3.546335 -3.5438597 -1.6940591
3.7732596 -3.7706261 -1.6645242
4.0157962 -4.0129933 -1.6279143
4.293262 -4.2902656 -1.5888995
4.6019492 -4.5987372 -1.5415194
4.9539771 -4.9505196 -1.4886478
5.4177918 -5.4140105 -1.4430755
2.2007523 -2.2123053 -1.8506163
5.6773429 -5.7071471 -1.3225793
2.315521 -2.3276765 -1.8447338
5.7575254 -5.7877502 -1.1473432
2.4285362 -2.4412851 -1.8309392
6.4191966 -6.4528952 -1.0644051
2.5435634 -2.5569162 -1.8115634
7.298707 -7.3370228 -0.96551883
2.683661 -2.6977494 -1.8011694
8.2580967 -8.3014498 -0.81880152
2.8245273 -2.8393552 -1.7831335
9.854373 -9.906105 -0.65160906
2.9752994 -2.9909186 -1.7621537
13.772705 -13.845007 -0.45339969
3.1441343 -3.1606398 -1.740855
17.859833 -17.95359 0
3.3348131 -3.3523197 -1.7210453
23.64077 -23.764877 0.77825803
3.5344682 -3.5530229 -1.6934189
3.7593622 -3.7790976 -1.6633326
4.0052276 -4.0262537 -1.6284657
4.2805138 -4.3029847 -1.5888995
4.5841665 -4.608232 -1.540136
4.9392667 -4.9651966 -1.4886478
5.4017043 -5.4300613 -1.4430755
2.1949527 -2.2180595 -1.8506163
5.7234626 -5.7837143 -1.3368459
2.2996075 -2.3238158 -1.8368964
5.7590704 -5.8196969 -1.1506833
2.4184103 -2.4438694 -1.8281225
6.4008842 -6.468267 -1.0641727
2.5318322 -2.5584853 -1.8079727
7.2696681 -7.3461971 -0.96421832
2.6753178 -2.7034812 -1.8003138
8.2475624 -8.3343859 -0.81991762
2.8157992 -2.8454416 -1.7823201
9.8073254 -9.9105692 -0.65021157
2.9648628 -2.9960744 -1.7606121
13.720941 -13.865383 -0.45288906
3.1358488 -3.1688604 -1.740855
17.783226 -17.970432 0
3.318094 -3.353024 -1.7169412
23.533466 -23.781206 0.77677256
3.5251541 -3.562264 -1.6934189
3.7481127 -3.7875698 -1.6627369
3.9933207 -4.0353589 -1.6279143
4.2637901 -4.3086758 -1.5868735
4.5734553 -4.6216006 -1.5405971
4.9262509 -4.9781103 -1.4886478
5.3847051 -5.4413905 -1.4423349
2.1875436 -2.222954 -1.8495961
5.7848077 -5.8784475 -1.3550035
2.2955551 -2.3327138 -1.8388557
5.8108654 -5.9049273 -1.1643223
2.4128149 -2.4518719 -1.8290613
6.3716497 -6.4747891 -1.0623144
2.5259316 -2.5668194 -1.8088703
7.2323656 -7.3494377 -0.96198899
2.6690257 -2.71223 -1.8011694
8.2214584 -8.3545408 -0.81963861
2.8065605 -2.8519909 -1.7815065
9.7670002 -9.9251013 -0.64937305
2.9577792 -3.0056574 -1.7613829
13.672352 -13.893669 -0.45256412
3.1217606 -3.1722934 -1.7379451
17.703516 -17.990088 0
3.3166268 -3.3703136 -1.7210453
23.406662 -23.785551 0.7747764
3.5112062 -3.5680428 -1.6914982
3.7401998 -3.8007433 -1.6639285
3.9766426 -4.0410137 -1.6257092
4.2503848 -4.3191867 -1.5863671
4.5578017 -4.6315799 -1.539675
4.9205637 -5.0002141 -1.4911427
5.363975 -5.4508028 -1.4408537
2.1797354 -2.2282052 -1.8485759
5.8128829 -5.9421406 -1.3657033
2.2910626 -2.3420076 -1.8408151
5.8778028 -6.0085044 -1.1813015
2.401825 -2.4552331 -1.8262445
6.3510213 -6.4922452 -1.0620821
2.5195541 -2.5755801 -1.809768
7.1771064 -7.3366995 -0.95753014
2.6597028 -2.7188451 -1.8003138
8.1784964 -8.3603573 -0.8178249
2.7980862 -2.8603058 -1.7815065
9.699789 -9.9154778 -0.6468575
2.9475577 -3.0131011 -1.7606121
13.617086 -13.919882 -0.45209989
3.1162429 -3.1855371 -1.7401276
17.623487 -18.015371 0
3.3066123 -3.3801396 -1.7210453
23.319208 -23.837744 0.77421933
3.4992785 -3.5770903 -1.6908579
3.7222307 -3.8050001 -1.6609497
3.9659796 -4.0541687 -1.6262604
4.2361975 -4.3303952 -1.5858605
4.5413179 -4.6423006 -1.5387527
4.9029703 -5.0119948 -1.4903111
5.3464036 -5.4652886 -1.4404833
2.1731145 -2.2346628 -1.8485759
5.7979779 -5.9621916 -1.3663518
2.2828877 -2.3475451 -1.8398355
5.9414124 -6.1096888 -1.1977237
2.3969917 -2.4648807 -1.8281225
6.3220358 -6.5010924 -1.0604559
2.5106549 -2.5817633 -1.8088703
7.1511407 -7.3536797 -0.95697278
2.6503634 -2.7254286 -1.7994581
8.146699 -8.3774347 -0.81712735
2.7895868 -2.8685951 -1.7815065
10.962859 -11.273355 -0.73331636
2.9386044 -3.0218334 -1.7606121
13.568753 -13.953055 -0.45186779
3.1041796 -3.1920981 -1.7386726
17.550434 -18.047508 0
3.2939479 -3.3872411 -1.7196773
23.205164 -23.862394 0.7727803
3.4899709 -3.5888159 -1.6914982
3.7095935 -3.8146589 -1.6603539
3.9552734 -4.067297 -1.6268119
4.2206321 -4.3401718 -1.5848476
4.527523 -4.6557546 -1.5387527
4.8853493 -5.0237155 -1.4894795
5.330164 -5.4811277 -1.4404833
2.1672566 -2.2403445 -1.8485759
5.791954 -5.9872799 -1.3686215
2.2767339 -2.3535137 -1.8398355
6.0190363 -6.2220201 -1.2166513
2.3880746 -2.4686091 -1.8262445
6.2994695 -6.5119104 -1.0595268
2.5014019 -2.5857584 -1.8070748
7.1263261 -7.3666515 -0.95622969
2.6407053 -2.7297595 -1.7977468
8.1441593 -8.4188099 -0.81908053
2.780797 -2.8745756 -1.7806932
10.916638 -11.284787 -0.73219836
2.9281168 -3.0268636 -1.7590704
13.511325 -13.966976 -0.45117149
3.0906308 -3.1948581 -1.7357627
17.480877 -18.070396 0
3.283762 -3.3945024 -1.7189932
23.095343 -23.874201 0.77120191
3.4792454 -3.5965784 -1.6908579
3.6956115 -3.820241 -1.6585667
3.9392645 -4.0721107 -1.6246066
4.2106004 -4.3525972 -1.5853541
4.5193782 -4.6717882 -1.540136
4.8721805 -5.0364881 -1.4894795
5.3007641 -5.4795251 -1.4364101
2.1566315 -2.2434216 -1.8455155
5.7840581 -6.0168276 -1.3712153
2.2669125 -2.3581405 -1.8378761
6.1010289 -6.3465548 -1.2372489
2.3803077 -2.4760993 -1.8262445
6.2803578 -6.5331001 -1.059759
2.4920278 -2.5923154 -1.8061771
7.1017685 -7.387567 -0.9560439
2.6321168 -2.7380419 -1.7977468
8.1190538 -8.4457912 -0.81922001
2.7717528 -2.8832974 -1.7806932
10.881133 -11.319027 -0.73219836
2.9198723 -3.0373776 -1.7598412
13.457681 -13.999263 -0.45084652
3.0831606 -3.2072372 -1.7372175
17.404617 -18.105036 0
3.2691748 -3.4007373 -1.7169412
23.010527 -23.936548 0.770877
3.4626772 -3.6020269 -1.6882969
3.6849151 -3.8332083 -1.6591624
3.9251201 -4.0830798 -1.6240554
4.192883 -4.3616185 -1.5838345
4.5033307 -4.6845598 -1.539675
4.8576899 -5.0531793 -1.4898953
5.2848859 -5.4975672 -1.4367803
2.151547 -2.2506783 -1.8465356
5.7808709 -6.0472217 -1.3744578
2.2591138 -2.3632011 -1.8368964
6.1927686 -6.4780974 -1.2595166
2.3697233 -2.4789071 -1.8234277
6.2813072 -6.5707154 -1.0630113
2.4860141 -2.6005559 -1.8070748
7.0701027 -7.395854 -0.95455754
2.6244605 -2.7453814 -1.7977468
8.0885439 -8.4612198 -0.81852245
2.7586405 -2.8857434 -1.7774392
10.835678 -11.334927 -0.73126674
2.9088287 -3.0428514 -1.7582996
13.399194 -14.016555 -0.45019662
3.0729055 -3.214488 -1.7364901
17.319441 -18.117426 0
3.2557697 -3.4057777 -1.714889
22.942217 -23.999268 0.77083057
3.455224 -3.6144218 -1.6895775
3.6728773 -3.8421032 -1.6585667
3.9163599 -4.0968041 -1.625158
4.1780133 -4.3705134 -1.5828216
4.482163 -4.6886764 -1.5369081
4.8395047 -5.0624824 -1.4886478
5.265439 -5.5080419 -1.4356694
2.1452532 -2.2566781 -1.8465356
5.7653213 -6.0647726 -1.3747821
2.2561095 -2.373292 -1.8398355
6.2892766 -6.6159425 -1.2828977
2.3664415 -2.4893546 -1.8262445
6.3765311 -6.7077289 -1.0822923
2.4775107 -2.6061931 -1.8061771
7.0425615 -7.4083533 -0.95362872
2.6167836 -2.7526996 -1.7977468
8.0621347 -8.4808836 -0.81824344
2.7543476 -2.8974087 -1.7798797
10.795723 -11.356454 -0.73070771
2.8990486 -3.0496254 -1.7575288
13.350354 -14.043773 -0.44987163
3.0639167 -3.223057 -1.7364901
17.235706 -18.130932 0
3.2488356 -3.4175804 -1.716257
22.808979 -23.993681 0.76860231
3.4425058 -3.62131 -1.6882969
3.6621335 -3.8523452 -1.6585667
3.9009304 -4.1035452 -1.6235042
4.1631255 -4.3793588 -1.5818086
4.4677114 -4.6997647 -1.5364472
4.8240008 -5.0745597 -1.488232
5.2446203 -5.5170264 -1.4341882
2.1365798 -2.2601597 -1.8444952
5.7483625 -6.0808487 -1.3747821
2.2446818 -2.3745146 -1.8359168
6.2911854 -6.6550684 -1.2870729
2.3570545 -2.4933867 -1.8243666
6.4996953 -6.8756385 -1.1064515
2.4677677 -2.6105037 -1.8043817
7.0163741 -7.4222021 -0.95288557
2.6066029 -2.7573693 -1.7960355
8.0301971 -8.4946642 -0.81740636
2.741225 -2.8997777 -1.7766256
10.757106 -11.379298 -0.73024184
2.8943241 -3.0617323 -1.7598412
13.29323 -14.062112 -0.44926819
3.0485053 -3.2248313 -1.7328528
17.145166 -18.136845 0
3.2354062 -3.4225423 -1.7142049
22.685574 -23.997709 0.76669902
3.4310784 -3.6295323 -1.6876568
3.6487384 -3.8597817 -1.6573751
3.8854938 -4.1102309 -1.6218503
4.1508803 -4.3909674 -1.5818086
4.4545698 -4.7122226 -1.5364472
4.8044357 -5.082325 -1.4865688
5.2305441 -5.5330791 -1.4345585
2.1318243 -2.2693682 -1.8465356
5.7265286 -6.0960002 -1.3741337
2.2384052 -2.3828256 -1.8368964
6.3082166 -6.7152185 -1.2948667
2.3455825 -2.496918 -1.8215498
6.6222324 -7.0494947 -1.1310756
2.462002 -2.6208487 -1.8061771
6.9834785 -7.4340482 -0.95158505
2.5991654 -2.7668619 -1.7968912
7.9911771 -8.5067625 -0.81615078
2.7321017 -2.908375 -1.7766256
10.714465 -11.405755 -0.72977602
2.8809011 -3.0667748 -1.7575288
13.236668 -14.090689 -0.44885039
3.0409102 -3.2371078 -1.7343076
17.062086 -18.162922 0
3.2272117 -3.4354293 -1.7155731
22.556683 -24.012026 0.76488858
3.4222534 -3.643055 -1.6889371
27.318945 -29.081545 1.8607285
3.6352875 -3.8698339 -1.6567794
3.8778272 -4.1280222 -1.6240554
4.1370654 -4.403986 -1.5818086
4.4410768 -4.727612 -1.5369081
4.7911243 -5.1002445 -1.4874004
5.2198644 -5.5566463 -1.4364101
2.1250815 -2.2756836 -1.8465356
5.7057219 -6.1100798 -1.3734851
2.2325151 -2.3907309 -1.8378761
6.2936702 -6.7396955 -1.29598
2.3381634 -2.5038664 -1.8215498
6.7965183 -7.2781796 -1.1645269
2.4529951 -2.6268361 -1.8052795
6.9776993 -7.4722013 -0.95381451
2.5884767 -2.771919 -1.7951797
7.9563694 -8.5202284 -0.81517416
2.7247074 -2.9178042 -1.7774392
10.664214 -11.419974 -0.72865802
2.8730483 -3.076658 -1.7582996
13.172965 -14.106519 -0.44810766
3.0338352 -3.2488396 -1.7357627
16.976723 -18.179844 0
3.2105901 -3.4381211 -1.7121527
22.422562 -24.011625 0.76275325
3.4114289 -3.653193 -1.6889371
24.239574 -25.957405 1.6562272
3.6224866 -3.8792081 -1.6561837
3.8603132 -4.1338892 -1.6218503
4.1213388 -4.4134135 -1.5807955
4.4283576 -4.7421904 -1.5373693
4.7719646 -5.110148 -1.4861529
5.1993294 -5.5678 -1.4352992
2.1179459 -2.2799792 -1.8455155
5.6803036 -6.1148748 -1.3712153
2.2215018 -2.3914576 -1.8339574
6.2786999 -6.7590513 -1.2965367
2.3291967 -2.5073917 -1.8196719
6.9504938 -7.4822407 -1.1942616
2.4400277 -2.6267018 -1.8007909
7.1708956 -7.7195044 -0.98298258
2.5824416 -2.7800109 -1.7960355
9.0135441 -9.703124 -0.92608696
2.7158155 -2.9235888 -1.7766256
10.627481 -11.440536 -0.72819221
2.8624716 -3.0814648 -1.7567579
13.127825 -14.132168 -0.4478291
3.0227833 -3.254041 -1.7343076
16.88143 -18.172941 0
3.2041366 -3.4492688 -1.7135209
22.291582 -23.996996 0.76043212
3.3979852 -3.6579478 -1.6870166
27.398127 -29.494219 1.8773123
3.6136174 -3.8900771 -1.6567794
3.8481696 -4.1425734 -1.621299
4.1045032 -4.4185181 -1.5787694
4.4079804 -4.7452126 -1.5346025
4.7599015 -5.1240578 -1.4865688
5.1807222 -5.5770731 -1.4341882
2.1076705 -2.2824616 -1.8424549
5.6541014 -6.1230021 -1.36927
2.2155793 -2.3993194 -1.8349371
6.2572742 -6.7761965 -1.2962583
2.3241427 -2.5168862 -1.8215498
6.9525199 -7.5290995 -1.1984431
2.4358609 -2.6378691 -1.8034841
7.8099322 -8.4576178 -1.0740166
