# .PCD v0.7 - Point Cloud Data file format
VERSION 0.7
FIELDS x y z
SIZE 4 4 4
TYPE F F F
COUNT 1 1 1
WIDTH 60
HEIGHT 1
VIEWPOINT 0 0 0 1 0 0 0
POINTS 60
DATA ascii
-9.7606668 25.387682 -4.4686904
-9.6930323 25.436815 -4.4722567
-9.6289415 25.482244 -4.4754992
-9.5608969 25.531034 -4.4790659
-9.4947214 25.585192 -4.4836054
-9.4243021 25.6007 -4.4819841
-9.3404408 25.620913 -4.4803629
-9.2771244 25.683779 -4.4865236
-9.2166796 25.741169 -4.4920359
-9.1329985 25.747946 -4.4884686
-9.0546055 25.769344 -4.4874964
-8.9897518 25.815027 -4.4910631
-8.9156837 25.849052 -4.4923596
-8.8261948 25.838039 -4.4858751
-8.7299662 25.791548 -4.4735541
-8.4259396 25.88624 -4.4725809
-8.3490887 25.911129 -4.4725809
-8.2683144 25.908016 -4.4680419
-8.1955614 25.94561 -4.4703116
-8.1134272 25.969343 -4.4699869
-8.0564909 26.026318 -4.4761477
-7.9734592 26.031237 -4.4729056
-7.8870215 26.024563 -4.4677176
-7.8211265 26.069168 -4.4716082
-7.7409282 26.082802 -4.4699869
-7.6645088 26.125927 -4.4732294
-7.5927858 26.134531 -4.4712844
-7.5102978 26.139875 -4.4683661
-7.4297619 26.169035 -4.4693384
-7.3585596 26.178896 -4.4677176
-7.2871861 26.223433 -4.4716082
-7.2171936 26.273483 -4.4764719
-7.1438012 26.293533 -4.4764719
-7.0657573 26.333004 -4.4793901
-6.9891171 26.359575 -4.4803629
-6.9203839 26.416468 -4.4865236
-6.8505383 26.450975 -4.4891171
-6.7722454 26.452795 -4.4861994
-6.6954494 26.460123 -4.4842539
-6.6070223 26.459967 -4.4806871
-6.5350022 26.485979 -4.4819841
-6.468029 26.532881 -4.4868474
-6.3902059 26.535494 -4.4842539
-6.3136563 26.584238 -4.4891171
-6.2355003 26.627003 -4.4930081
-6.1615686 26.646235 -4.4933324
-6.0780969 26.645157 -4.4900899
-6.0022488 26.634022 -4.4855509
-5.9159713 26.641191 -4.4836054
-5.8457685 26.69911 -4.4904146
-5.785017 26.756763 -4.4975476
-5.6992912 26.76708 -4.4962506
-5.6226754 26.797396 -4.4985204
-5.5569072 26.833279 -4.5020871
-5.4761333 26.868011 -4.5050054
-5.3932753 26.868662 -4.5024114
-5.319376 26.889425 -4.5033841
-5.2391982 26.903151 -4.5030599
-5.1565018 26.929173 -4.5046811
-5.1046138 27.015381 -4.5170021
