# .PCD v0.7 - Point Cloud Data file format
VERSION 0.7
FIELDS x y z
SIZE 4 4 4
TYPE F F F
COUNT 1 1 1
WIDTH 102
HEIGHT 1
VIEWPOINT 0 0 0 1 0 0 0
POINTS 102
DATA ascii
1.4661804 16.826256 2.3737366
1.4680268 16.847443 2.7784216
1.4715394 16.887754 3.1938736
1.5067453 16.717997 0.78278798
1.5086485 16.739113 1.1752571
1.5099046 16.75305 1.5693165
1.5127949 16.785118 1.9708451
1.5159258 16.819857 2.3734581
1.5185441 16.848909 2.7793944
1.5230564 16.898973 3.1968362
1.5440148 16.644033 -0.38808453
1.5448004 16.652502 0
1.547524 16.681862 0.38896653
1.5499512 16.708027 0.78250843
1.5517261 16.72716 1.1746989
1.5537561 16.749041 1.5693165
1.5578314 16.792971 1.972239
1.5612326 16.829636 2.3754067
1.5642872 16.862564 2.7823124
1.5694681 16.918413 3.2012799
1.5848467 16.550091 -1.5511096
1.5863303 16.565584 -1.1636776
1.5901916 16.605907 -0.77794331
1.5922532 16.627436 -0.38780597
1.5936356 16.64187 0
1.5956841 16.663263 0.3886416
1.5995232 16.703354 0.78250843
1.6019255 16.728441 1.1751175
1.6045886 16.75625 1.5704311
1.608602 16.798161 1.9734006
1.6130532 16.844645 2.3781903
1.6173276 16.88928 2.7875004
1.6235987 16.954767 3.2090564
1.6237042 16.44165 -2.321964
1.6299301 16.504694 -1.9394844
1.6319849 16.525501 -1.5492519
1.6354713 16.560804 -1.1636776
1.6392558 16.599125 -0.77785009
1.6413811 16.620649 -0.38775957
1.6445754 16.652992 0
1.6470797 16.67835 0.38910577
1.6500547 16.708477 0.7829743
1.6533142 16.741482 1.1763731
1.6572307 16.781141 1.573218
1.6621422 16.830873 1.9778141
1.6671096 16.881174 2.3840353
1.6726656 16.937435 2.7962549
1.6105388 16.308338 -3.0875964
1.6814274 17.026155 3.2234983
1.6639123 16.380972 -2.7051432
1.6690085 16.431143 -2.3211293
1.6752077 16.492174 -1.9385552
1.6781236 16.52088 -1.5492519
1.68191 16.558157 -1.1638169
1.686004 16.598461 -0.77803648
1.6900082 16.637882 -0.3882702
1.6914742 16.652315 0
1.6952617 16.689602 0.38947716
1.7001363 16.737593 0.78455818
1.7030802 16.766573 1.1784658
1.7075044 16.810129 1.5763763
1.7139512 16.873598 1.9833894
1.7220469 16.953299 2.3948908
1.6550782 16.294001 -3.0857449
1.7123078 16.373999 -2.7048187
1.7183759 16.432026 -2.321964
1.7253782 16.498985 -1.9399492
1.7296249 16.539595 -1.5514814
1.7326968 16.56897 -1.1649331
1.7381591 16.621202 -0.77934086
1.7422826 16.660635 -0.3889201
1.7454565 16.690985 0
1.7489375 16.724272 0.39040563
1.7547823 16.780163 0.78679419
1.7594655 16.824945 1.1829302
1.7652488 16.880249 1.5834361
1.7036256 16.290976 -3.0861154
1.7652166 16.382275 -2.7070885
1.7721089 16.446239 -2.3247476
1.7799661 16.519159 -1.942969
1.7845606 16.561798 -1.5540823
1.7890129 16.603119 -1.1677234
1.7944309 16.6534 -0.781111
1.7995385 16.700802 -0.3899878
1.8045229 16.747061 0
1.8083209 16.782309 0.39189109
1.8151917 16.846073 0.79014814
1.7558464 16.295313 -3.0879669
1.8106953 16.401134 -2.7109795
1.8184164 16.471073 -2.328923
1.827346 16.551956 -1.9473827
1.8351215 16.622387 -1.5602131
1.8392577 16.659851 -1.1720482
1.846132 16.722118 -0.78455818
1.8006554 16.310194 -3.0916698
1.8611567 16.437197 -2.7177885
1.8710951 16.524969 -2.3372731
1.8807174 16.609951 -1.9548162
1.8510648 16.348068 -3.0998166
1.9241073 16.503466 -2.7297854
1.9123193 16.402357 -3.1112959
1.9638695 16.469503 -3.1249971
