# .PCD v0.7 - Point Cloud Data file format
VERSION 0.7
FIELDS x y z
SIZE 4 4 4
TYPE F F F
COUNT 1 1 1
WIDTH 107
HEIGHT 1
VIEWPOINT 0 0 0 1 0 0 0
POINTS 107
DATA ascii
0.35658032 20.846125 3.9281871
0.41558102 20.702723 2.42151
0.41636822 20.741938 2.9156766
0.41751197 20.798916 3.417825
0.41729262 20.787989 3.9174483
0.46989548 20.548292 0.95850062
0.47008133 20.556417 1.4378204
0.47051194 20.575249 1.9200764
0.4720816 20.643888 2.4147732
0.47284642 20.677334 2.9067698
0.47361302 20.710857 3.4035585
0.47498888 20.771023 3.9144857
0.52869684 20.463173 0
0.52889687 20.470915 0.95496041
0.52962476 20.499086 1.4339142
0.53052545 20.533949 1.9163609
0.53204471 20.592752 2.4089656
0.53367984 20.65604 2.9039862
0.53480262 20.699495 3.4019372
0.53615499 20.751839 3.9111531
0.5839985 20.397467 -0.95160633
0.58270174 20.352175 -0.47271109
0.58331674 20.373653 0
0.58407515 20.400143 0.47382522
0.5852564 20.441399 0.95365596
0.58606404 20.469608 1.4319609
0.58751947 20.520443 1.915246
0.5892607 20.581259 2.4078043
0.59096003 20.640614 2.9020379
0.59271383 20.701866 3.4025857
0.5940994 20.750261 3.9111531
0.6443367 20.277666 -1.8927662
0.64384747 20.26227 -1.417591
0.64541703 20.311665 -0.94769335
0.64530933 20.308275 -0.47173625
0.64715093 20.36623 0.47308248
0.64903367 20.425482 0.95300382
0.65037405 20.467667 1.4319609
0.65167308 20.508547 1.9143173
0.65411067 20.585258 2.4085009
0.65631056 20.65449 2.9042647
0.65825498 20.715683 3.4051797
0.6600402 20.771864 3.9155967
0.69768757 20.181227 -3.3176343
0.69817567 20.195345 -2.8399663
0.6987552 20.212109 -2.3650608
0.69868612 20.210112 -1.8866354
0.6991837 20.224503 -1.4150798
0.70082045 20.271847 -0.94592321
0.70132393 20.286411 -0.47127202
0.70268762 20.325859 0
0.7040872 20.366343 0.47312889
0.70606631 20.42359 0.95300382
0.70780027 20.473745 1.432519
0.70990092 20.534508 1.9169182
0.71289361 20.621075 2.4129148
0.71596706 20.709976 2.9123366
0.71821177 20.774908 3.4152312
0.75415391 20.08835 -3.3027196
0.75655764 20.152378 -2.3583238
0.75737387 20.17412 -1.8834771
0.758286 20.198416 -1.4134057
0.76028675 20.251711 -0.94508463
0.76098299 20.270256 -0.47094706
0.76291376 20.321686 0
0.7650336 20.378151 0.47345382
0.76725709 20.437378 0.95374918
0.76958805 20.499468 1.4344721
0.77261406 20.58007 1.9213771
0.77638078 20.680405 2.4201159
0.80500638 20.042923 -3.2955861
0.80820423 20.122541 -2.3550718
0.80987376 20.164108 -1.8827339
0.81100899 20.192373 -1.4131267
0.81338966 20.251646 -0.94517779
0.81445545 20.278183 -0.47117919
0.81692225 20.339602 0
0.81967109 20.408041 0.47419655
0.82277024 20.485205 0.95607829
0.82574153 20.559181 1.4387971
0.86719674 20.022549 -3.2926681
0.86949873 20.075699 -2.824101
0.87175697 20.12784 -2.3560009
0.87312716 20.159475 -1.8825481
0.87469631 20.195705 -1.4135453
0.87786859 20.26895 -0.94610953
0.879278 20.301491 -0.47178262
0.8828035 20.382891 0
0.88645899 20.467293 0.47563565
0.8916136 20.586306 0.96092296
0.92615056 20.010031 -3.2910469
0.9292497 20.076988 -2.8246574
0.93230605 20.143023 -2.3580916
0.93441659 20.188622 -1.8855206
0.93655741 20.234875 -1.4164751
0.94050384 20.320141 -0.94862497
0.94302869 20.374691 -0.47354665
0.94799882 20.482075 0
0.97939795 20.025276 -3.2939649
0.98286891 20.096247 -2.8277192
0.98707181 20.18218 -2.3629701
0.9898904 20.239811 -1.8905369
0.99225456 20.288151 -1.4203813
1.0437369 20.049694 -3.2985041
1.0491862 20.154373 -2.8363481
1.0540818 20.248413 -2.3711007
1.1072394 20.119419 -3.3105011
