# .PCD v0.7 - Point Cloud Data file format
VERSION 0.7
FIELDS x y z
SIZE 4 4 4
TYPE F F F
COUNT 1 1 1
WIDTH 77
HEIGHT 1
VIEWPOINT 0 0 0 1 0 0 0
POINTS 77
DATA ascii
-6.1295376 0.13053603 -1.7580152
-6.1310711 0.14769769 -1.7585664
-6.1574821 0.16769129 -1.7662843
-6.1435709 0.18340985 -1.7624254
-6.1199059 0.20194894 -1.75581
-6.0443497 0.21741132 -1.7343104
-6.1660929 0.22179034 -1.6152377
-6.0226278 0.23241818 -1.7282463
-6.0262895 0.23255947 -1.5787694
-6.0238328 0.25036538 -1.7287976
-6.045258 0.25125587 -1.4336177
-6.0573301 0.25175759 -1.2886368
-6.0268579 0.26946202 -1.7299002
-6.0092931 0.2686767 -1.5747175
-6.0232854 0.26930228 -1.2815678
-6.0572686 0.27082169 -1.1423885
-6.0683794 0.28723815 -1.7420281
-6.0298281 0.28541335 -1.580289
-6.0281587 0.28533435 -1.4299287
-6.0310173 0.28546965 -1.1375746
-6.0431843 0.30507651 -0.9941231
-6.0566888 0.30575827 -0.85229611
-6.0981688 0.3078523 -1.7508485
-6.0501571 0.30542853 -1.5858605
-6.0369506 0.30476183 -1.4322343
-6.0216341 0.30398861 -1.2815678
-6.0222392 0.30401915 -1.1360933
-6.0540981 0.32257965 -0.7089839
-6.1241627 0.32631287 -1.7585664
-6.0363898 0.32163608 -1.2848943
-6.0351052 0.32156765 -1.1386855
-6.0354156 0.33954573 -0.99315035
-6.0476465 0.3402338 -0.42356133
-6.1845908 0.34793815 -1.7762072
-6.051785 0.34046665 -1.1420182
-6.0481725 0.35826889 -0.99542004
-6.0359964 0.35754764 -0.84979105
-6.0528011 0.35854307 -0.28276142
-6.1136336 0.36214656 -0.14218934
-6.0686836 0.3786186 -0.99898666
-6.0467033 0.3772473 -0.85146111
-6.041008 0.37689194 -0.70782238
-6.0821748 0.3794603 0
-6.0577726 0.39492363 -0.70991313
-6.0468497 0.39421153 -0.5653404
-6.0384059 0.39366108 -0.42314279
-6.1323042 0.39978257 0.28658128
-6.0695658 0.41271755 -0.56756973
-6.0532069 0.41160515 -0.42425886
-6.0554209 0.41175571 -0.28304091
-6.0618348 0.43132672 -0.42495644
-6.0660543 0.43162698 -0.28359994
-6.0490723 0.43041861 -0.14079669
-6.0841303 0.43291315 0.56905603
-6.0777569 0.44952172 -0.14149301
-6.0634384 0.44846269 0
-6.0518346 0.44760445 0.14088954
-6.1012115 0.45125645 0.85981148
-6.0740457 0.46737227 0
-6.0704155 0.46709293 0.14135374
-6.0594835 0.46625179 0.28341359
-6.0979815 0.46921402 1.0048231
-6.0799804 0.48597848 0.28443843
-6.0677838 0.48500359 0.42565399
-6.0793085 0.48592475 1.1490539
-6.1001191 0.505808 0.42802572
-6.0766673 0.50386345 0.56887025
-6.061748 0.50262636 0.71130687
-6.0989542 0.5239352 0.57109964
-6.0780425 0.52213877 0.71339762
-6.0776668 0.52210647 0.85730636
-6.0719342 0.52161402 1.0012563
-6.0939403 0.54065216 0.85981148
-6.0842142 0.53978926 1.0035261
-6.0689635 0.53843623 1.147943
-6.1022391 0.5596419 1.0067685
-6.0986547 0.55931312 1.153868
