# .PCD v0.7 - Point Cloud Data file format
VERSION 0.7
FIELDS x y z
SIZE 4 4 4
TYPE F F F
COUNT 1 1 1
WIDTH 72
HEIGHT 1
VIEWPOINT 0 0 0 1 0 0 0
POINTS 72
DATA ascii
-15.979325 -9.6279402 -0.86999214
-16.035198 -9.6616058 -0.43464538
-15.989011 -9.5730171 -0.86906046
-16.010651 -9.5859737 -0.43325272
-16.033842 -9.5998592 0
-16.020781 -9.5275774 -0.86924684
-16.030432 -9.5333166 -0.43302059
-16.027876 -9.5317965 0
-16.025276 -9.5302515 0.43288139
-16.061018 -9.4871159 -0.86989903
-16.053482 -9.4826641 -0.43288139
-16.038864 -9.4740295 0
-16.024214 -9.4653759 0.43209219
-16.024891 -9.4657764 0.86794245
-16.130449 -9.4636803 -0.87213498
-16.102242 -9.4471302 -0.43343845
-16.06863 -9.4274111 0
-16.043606 -9.4127293 0.43186009
-16.028784 -9.4040337 0.86663812
-16.036371 -9.4084845 1.3001212
-16.224052 -9.4540014 -0.87567532
-16.183756 -9.4305191 -0.43487746
-16.117268 -9.3917761 0
-16.080101 -9.3701181 0.43209219
-16.042809 -9.3483877 0.86589283
-16.040083 -9.3467989 1.2981679
-16.040697 -9.3471575 1.7320633
-16.203917 -9.3779736 0
-16.119947 -9.3293762 0.43241715
-16.072203 -9.3017445 0.86598593
-16.053932 -9.2911701 1.2970519
-16.044231 -9.2855558 1.7294621
-16.044384 -9.2856436 2.1678369
-16.194469 -9.3122358 0.43371695
-16.124094 -9.2717676 0.86738348
-16.085001 -9.2492886 1.2974703
-16.056288 -9.2327776 1.727976
-16.06164 -9.2358561 2.1666753
-16.058357 -9.2339678 2.6033723
-16.189699 -9.2456827 0.86943316
-16.133163 -9.2133961 1.2991445
-16.090528 -9.1890469 1.728719
-16.083797 -9.1852026 2.1659784
-16.070204 -9.1774397 2.6008673
-16.076862 -9.181242 3.0417054
-16.193403 -9.184186 1.3017952
-16.136776 -9.1520691 1.7307626
-16.116165 -9.1403799 2.1666753
-16.093918 -9.1277628 2.6003103
-16.086866 -9.1237631 3.0384629
-16.104429 -9.1337242 3.4882655
-16.283298 -9.1751719 1.3069572
-16.188293 -9.1216383 1.7335495
-16.15547 -9.1031427 2.1685336
-16.119343 -9.0827866 2.6003103
-16.112282 -9.0788078 3.0384629
-16.09734 -9.0703878 3.4812298
-16.277847 -9.108573 1.7402377
-16.213612 -9.072629 2.1727152
-16.16869 -9.047492 2.603929
-16.151203 -9.0377073 3.0407326
-16.12418 -9.0225859 3.4812298
-16.306286 -9.0573349 2.1813102
-16.236855 -9.0187693 2.6103308
-16.193319 -8.9945879 3.0433266
-16.155884 -8.9737949 3.4819708
-16.331499 -9.0154781 2.6217432
-16.260004 -8.9760094 3.0514326
-16.199968 -8.9428682 3.4864144
-16.359251 -8.9675684 3.0650506
-16.266071 -8.9164906 3.4949312
-16.358055 -8.9038897 3.5090029
