# .PCD v0.7 - Point Cloud Data file format
VERSION 0.7
FIELDS x y z
SIZE 4 4 4
TYPE F F F
COUNT 1 1 1
WIDTH 85
HEIGHT 1
VIEWPOINT 0 0 0 1 0 0 0
POINTS 85
DATA ascii
-12.356599 -8.4639111 -1.0473237
-12.351969 -8.4070044 -1.0448124
-12.380165 -8.3725529 -1.0450915
-12.484632 -8.3924875 -1.0519277
-12.505959 -8.3499002 -1.051509
-12.43281 -8.2509604 -1.0434173
-12.439148 -8.2052221 -1.0420222
-12.401446 -8.1245565 -1.0367208
-12.397334 -8.0724754 -1.0344886
-12.441603 -8.0519161 -1.0363022
-12.518867 -8.0462303 -1.0406271
-12.600666 -7.9997129 -1.0436964
-12.539664 -7.9058175 -1.0365812
-13.088986 -8.2521458 -0.72157735
-12.60903 -7.9004326 -1.0404875
-12.705561 -7.9115949 -1.0466261
-13.073814 -8.1409016 -0.71822333
-13.116745 -8.167634 0.35874605
-12.79685 -7.9158444 -1.0522066
-13.094514 -8.0999727 -0.71803701
-13.076306 -8.0887098 -0.35698205
-13.1183 -8.114686 0.71934134
-12.964767 -7.9666243 -1.0640652
-13.125299 -8.0652676 -0.71840966
-13.098544 -8.0488281 -0.35693562
-13.093554 -8.0457621 0
-13.156638 -8.0276957 -1.0777376
-13.162509 -8.0312777 -0.71906185
-13.130592 -8.0118036 -0.35712132
-13.117059 -8.0035458 0
-13.110111 -7.9993062 0.35656425
-13.105544 -7.9965196 1.0735521
-13.145282 -8.0207663 1.8008006
-12.957222 -7.8564472 -1.0596008
-13.241261 -8.0286713 -0.72213638
-13.180272 -7.9916906 -0.35786408
-13.153041 -7.9751792 0
-13.132399 -7.9626637 0.35656425
-13.125095 -7.9582353 0.715801
-13.119295 -7.9547181 1.0728546
-13.102981 -7.9448261 1.4296069
-12.893664 -7.7687531 -1.0526252
-13.211232 -7.9600959 0
-13.171709 -7.9362817 0.35702848
-13.147266 -7.9215546 0.715801
-13.126075 -7.9087863 1.0715989
-13.11488 -7.9020405 1.4284923
-13.111605 -7.9000673 1.7901146
-13.125072 -7.9081821 2.1535647
-12.867379 -7.7040191 -1.0487188
-13.238423 -7.9261727 0.35823545
-13.195048 -7.9002028 0.71719849
-13.158381 -7.8782492 1.072436
-13.126645 -7.8592482 1.4273776
-13.116572 -7.8532176 1.7877917
-13.108022 -7.8480983 2.1471627
-13.136235 -7.8649902 2.5154622
-13.263076 -7.887567 0.71962082
-13.198847 -7.84937 1.0738312
-13.160175 -7.8263721 1.4284923
-13.139816 -7.8142643 1.7877917
-13.12274 -7.8041091 2.145771
-13.130676 -7.8088293 2.5099499
-13.132383 -7.809844 2.8787448
-13.26674 -7.8365583 1.0774585
-13.19534 -7.794383 1.4297929
-13.171494 -7.7802968 1.7889531
-13.140719 -7.7621188 2.1449361
-13.138494 -7.7608047 2.5070319
-13.131804 -7.7568531 2.8735607
-13.2665 -7.7834115 1.4349948
-13.213367 -7.7522383 1.7915084
-13.180776 -7.7331166 2.1477196
-13.15806 -7.7197895 2.5063834
-13.139506 -7.7089043 2.8702281
-13.280936 -7.7390022 1.7975483
-13.225908 -7.7069373 2.1513381
-13.192843 -7.6876693 2.5086532
-13.16402 -7.6708732 2.8705983
-13.279572 -7.6855168 2.1563482
-13.236094 -7.6603537 2.5125439
-13.198629 -7.6386714 2.8731904
-13.296781 -7.6459904 2.5200014
-13.230131 -7.6076651 2.8754122
-13.2919 -7.5907946 2.8839293
