# .PCD v0.7 - Point Cloud Data file format
VERSION 0.7
FIELDS x y z
SIZE 4 4 4
TYPE F F F
COUNT 1 1 1
WIDTH 234
HEIGHT 1
VIEWPOINT 0 0 0 1 0 0 0
POINTS 234
DATA ascii
-44.155807 -14.791465 -2.1716266
-70.337883 -23.125906 -1.719038
-71.924957 -22.498581 -1.7496762
-72.453392 -21.971615 -1.7578
-47.473068 -14.251646 -2.3114698
-72.606392 -21.796791 -1.7600282
-60.929817 9.9776449 1.4334524
-72.937759 29.468771 5.5008559
91.846741 19.975483 4.3833141
92.374222 19.51679 6.6020317
92.930847 19.380396 6.6381655
93.65239 19.241158 6.6855998
95.08522 19.241652 4.5240898
94.895134 18.944731 6.7666569
91.184189 17.625357 0
91.200554 17.380932 0
90.979492 17.042795 0
64.946754 10.810128 -1.5286167
83.830116 1.4632771 3.9099338
69.699379 0.63260496 -3.2504985
82.684929 -0.44737288 -3.8559899
82.757156 -0.69332093 -3.8594375
82.708679 -0.93834049 0
98.877472 -3.6947961 -4.6142755
98.816162 -3.9861414 -4.6119461
98.804649 -4.2620726 -4.6119461
83.862587 -3.8521791 5.8704262
80.276405 -4.3897715 -1.8665659
80.15686 -5.548882 -3.746985
86.275085 -6.7142458 -4.0355225
97.256737 -11.235786 -4.5656419
97.035286 -12.378869 -4.5618219
96.964691 -12.645145 -4.5601454
62.123863 -8.2780571 -4.3825202
96.909187 -12.913232 -4.5592136
74.090996 -10.294156 -3.4883537
73.983131 -10.727043 -3.4862108
99.66214 -17.125088 2.3477721
99.599243 -17.382849 2.3473542
99.134499 -18.803347 0
70.416153 -13.981092 -5.0200944
99.160355 -19.68824 0
70.384132 -14.19193 -5.020792
99.074051 -19.976833 0
99.035896 -20.275114 0
75.444878 -17.016075 0
69.313393 -15.63316 4.9686141
68.866043 -15.747132 4.9398742
76.56517 -18.438213 0
76.610535 -18.675634 0
62.596794 -15.444771 -6.0151253
64.845955 -16.216007 -4.6741023
73.128143 -18.287132 0
64.947426 -16.434225 -4.6847053
66.633186 -16.860788 -3.205313
66.974892 -17.158855 0
67.132103 -17.411552 1.6101793
81.859367 -22.225355 -5.9313931
72.366013 -27.027754 -7.2069287
72.277206 -27.224817 -7.2056284
72.14212 -27.418631 -7.2002401
72.201759 -27.686749 -7.2143598
62.83844 -28.769684 -4.8327289
74.886292 -38.288273 -7.8467684
82.877266 -42.996201 -8.7106628
59.875702 -31.063135 -1.5660788
82.755104 -43.226547 -8.7104778
64.543617 -35.146492 -5.1390991
64.170502 -35.205143 -5.1181717
64.291992 -35.50573 -5.1357503
77.051796 -42.833649 -10.309304
61.94392 -35.146156 -4.9801936
85.221359 -48.668564 -11.476619
61.042877 -35.314182 -4.9313641
60.983349 -35.535919 -4.9355497
62.495014 -38.597706 -8.5898094
62.218258 -38.69733 -8.5684376
62.115005 -38.874088 -8.5691338
46.903008 -29.731113 -7.8045497
46.903076 -29.926611 -7.8193021
58.430084 -37.281441 -4.8466797
46.937656 -30.133442 -7.8390651
57.934555 -37.193325 -4.8141732
47.059616 -30.397646 -7.8735795
82.056396 -53.003433 -11.423655
47.251495 -30.720667 -7.9208984
47.627945 -31.154984 -7.9985571
64.110931 -46.853405 -9.2860165
64.043427 -47.113445 -9.2976313
60.487511 -45.036751 -7.0356359
59.600044 -44.895546 -8.7259378
59.343151 -44.994946 -8.7089796
59.112949 -45.048302 -8.6913252
54.545918 -41.839424 -9.6613979
54.463364 -42.018196 -9.6675215
74.519073 -57.491074 -11.00644
58.413948 -45.066051 -6.8831077
54.367722 -42.187122 -9.6714182
58.188747 -45.152084 -6.8714027
73.516006 -63.816433 -11.384396
72.678001 -64.164505 -11.337471
51.474808 -46.511055 1.6106901
52.480907 -48.8195 -5.0121422
54.166817 -51.276764 -5.2156916
47.689217 -46.995132 -7.8297191
46.923954 -46.760441 -9.3101244
46.765427 -46.879833 -9.3062277
48.413975 -48.532413 -3.1968343
38.12315 -38.430462 -7.607759
47.993828 -48.380707 1.5821871
47.59811 -48.55471 1.5786127
47.712029 -49.805813 1.6013129
44.501312 -49.21603 -4.639782
46.5686 -54.582668 -10.083649
46.446747 -54.748749 -10.090329
42.918537 -50.895245 -9.3566084
58.907249 -71.485611 -13.018252
39.091686 -57.478504 -6.485158
38.700752 -57.614517 -9.754365
40.518051 -62.631374 -10.483632
35.869461 -56.173878 -4.6605697
40.45229 -63.767212 -10.613063
40.221256 -63.796162 -10.599146
40.066074 -63.945156 -10.605269
39.930275 -64.125725 -10.616682
34.256405 -56.475033 -10.852024
34.1278 -56.596634 -10.858185
38.033253 -64.336357 -10.503673
34.627495 -59.352928 -6.4108443
29.315296 -50.247604 -4.0679183
29.070799 -50.149757 -4.0534091
29.10504 -50.55394 -4.0790796
30.85877 -58.134766 -4.6023927
42.830845 -81.235924 -12.906636
26.870159 -58.099091 -7.4856811
28.333204 -61.742676 -11.161025
28.160828 -61.793293 -11.15681
23.134802 -50.764687 -5.2047358
27.951342 -61.819038 -11.146435
25.740797 -57.382977 -8.8388844
22.872274 -50.988289 -5.2136531
24.795837 -56.140057 -4.2915578
24.629251 -56.186924 -7.1741643
24.561159 -56.031578 -5.7076526
25.804935 -59.318974 -10.627973
24.322775 -55.911865 -5.6885166
22.96785 -57.278709 -5.7574425
15.640812 -58.617752 -7.0947175
15.700871 -58.842838 -5.6818285
15.375227 -58.316509 -8.4759207
15.434407 -58.54097 -7.0798502
15.496763 -58.777481 -5.6710529
15.214809 -58.368801 -8.4773121
15.273871 -58.595379 -7.081244
10.885366 -41.759693 2.0124974
10.674965 -41.486046 1.9976839
10.755545 -42.257317 2.0334599
13.749435 -69.759163 -9.9926291
13.507802 -69.491638 -9.9492083
13.232541 -69.236092 -9.906621
13.021202 -69.243904 -9.9021664
12.226283 -68.155571 -9.7315407
7.6643634 -47.478722 -6.7590814
2.0986595 -28.37488 3.9987221
3.6265419 -53.059547 -7.474431
3.6409166 -53.269863 -6.2440295
1.9933622 -29.164671 4.1083903
3.4570019 -53.027203 -7.4683075
1.8485187 -28.354563 3.9934335
3.3083909 -52.879913 -7.4463181
1.8328971 -29.296247 4.1253695
3.1896253 -53.529633 -6.2709765
1.6757561 -28.123243 3.959475
1.580688 -29.281183 4.1211944
2.0025225 -41.84251 -6.8823409
1.6358579 -74.374908 -10.45524
1.1590608 -59.82077 -8.4088392
-0.39689684 -59.842567 -8.4105091
-0.56561649 -60.011543 -8.4344473
-3.3164494 -35.682552 -0.8320142
-5.0146351 -36.703018 0
-5.0493212 -36.110691 0
-9.9712219 -67.119644 -3.1644123
-12.562435 -55.608177 -6.6668181
-13.048738 -55.589943 -6.6775041
-14.129145 -57.178814 -6.8877368
-15.347528 -57.842724 -6.9983125
-25.976328 -81.591225 -10.013352
-26.318336 -81.775841 -10.046107
-27.093046 -82.549622 -10.160167
-27.435707 -82.909386 -10.212667
-26.748346 -65.284119 -3.2900946
-27.609529 -66.327637 -5.0238614
-22.653469 -51.435219 -1.3048645
-22.718348 -51.194477 -1.3003616
-22.869379 -51.149094 -1.3008258
-22.963383 -50.929352 -1.2970657
-23.08363 -50.863983 -1.2968336
-48.39212 -77.473686 -8.5220928
-48.432766 -76.999313 -8.4866076
-48.451653 -76.554153 -8.452424
-48.453159 -76.08551 -6.3076591
-48.517464 -75.719002 -8.3900003
-48.493202 -75.681137 -6.2853374
-48.473011 -75.186577 -6.2554812
-48.610134 -74.425774 -8.2933931
-35.566647 -54.455208 -4.5481224
-35.660816 -54.26778 -6.0582266
-38.103596 -56.554768 -7.9746752
-29.364401 -43.030464 -6.0921044
-34.56385 -38.779995 -2.4225247
-34.85297 -38.871578 -3.6507747
-34.962814 -38.762062 -3.6502168
-35.137878 -38.75169 -3.6578901
-39.683109 -42.763931 -4.0794983
-45.611603 -39.246037 0
-35.581264 -25.473688 -4.0826006
-45.487751 -28.923109 -3.7693608
-61.387329 -38.06176 3.3683548
-60.528687 -37.2812 -3.3151562
-60.514984 -37.040054 -3.3087277
-44.438248 -27.029493 -3.6371026
-44.728416 -25.636959 6.0289183
-46.906528 -26.172213 7.5490284
-61.355808 -32.390312 3.2354987
-64.012794 -33.578979 3.3709636
-63.314766 -32.973648 3.3290384
-62.705673 -32.434158 -3.2922375
-60.349068 -31.215216 4.7511134
-64.075493 -32.916206 3.3593178
-63.950409 -32.612492 3.3476717
-64.333351 -30.740601 -3.3250322
-65.350105 -29.616619 -3.3459015
-44.126854 -18.187786 -2.2257564
