# .PCD v0.7 - Point Cloud Data file format
VERSION 0.7
FIELDS x y z
SIZE 4 4 4
TYPE F F F
COUNT 1 1 1
WIDTH 68
HEIGHT 1
VIEWPOINT 0 0 0 1 0 0 0
POINTS 68
DATA ascii
-34.590477 7.7318854 -3.3067675
-34.714981 7.8679285 -3.3208869
-34.80405 7.9967699 -3.3316624
-34.891239 8.1322813 -3.342438
-34.952671 8.2366991 -3.3502409
-34.975517 8.3646049 -3.3550711
-34.963181 8.458478 -3.3560002
-35.032703 8.5854063 -3.3651035
-35.071266 8.7117453 -3.3714204
-35.115936 8.8205061 -3.3779228
-35.155228 8.941349 -3.3842394
-35.194103 9.0625105 -3.3905559
-35.267265 9.1930065 -3.4002166
-35.355366 9.3280897 -3.4113638
-35.506729 9.4874296 -3.4288275
-35.825661 9.666503 -3.4618969
-36.181229 9.88449 -3.4992394
-36.583607 10.111161 -3.5410409
-36.607143 10.234668 -3.546243
-36.764404 10.396344 -3.5644495
-36.836788 10.534942 -3.5744822
-36.860786 10.653252 -3.579684
-36.993393 10.810612 -3.5956612
-36.982166 10.933554 -3.5978909
-37.146164 11.080812 -3.6164691
-37.29615 11.246172 -3.6343043
-37.374928 11.398131 -3.6454515
-37.508633 11.546327 -3.6614287
-37.409294 11.651698 -3.6554837
-37.429958 11.765713 -3.6605
-37.595879 11.947781 -3.6803789
-37.670444 12.087402 -3.6909685
-37.662594 12.21552 -3.6939411
-37.788528 12.490041 -3.7130766
-37.832211 12.636456 -3.7212512
-37.860935 12.763678 -3.7275679
-37.930347 12.912546 -3.7381575
-37.955898 13.047034 -3.7444742
-37.94524 13.16939 -3.7472608
-38.060547 13.328616 -3.7623096
-38.08091 13.462727 -3.7682545
-38.089561 13.59305 -3.7730849
-38.081432 13.710159 -3.7760575
-38.006897 13.810849 -3.7727134
-38.064846 13.95989 -3.7825599
-38.044388 14.073044 -3.7844179
-37.891129 14.136761 -3.7730849
-37.693722 14.198181 -3.7578506
-37.817741 14.365618 -3.7741995
-37.644791 14.427869 -3.7611947
-37.719997 14.592766 -3.7732708
-37.484997 14.614793 -3.7535775
-37.3759 14.707685 -3.7472608
-37.315441 14.811906 -3.745589
-37.307964 14.922122 -3.7487473
-37.155647 14.996764 -3.7381575
-37.173695 15.132471 -3.7444742
-37.104683 15.232871 -3.742059
-37.01701 15.325369 -3.7377861
-36.872143 15.393707 -3.7277536
-36.760124 15.46008 -3.7205081
-36.754421 15.586186 -3.7245953
-36.71077 15.703919 -3.7251527
-36.755489 15.837013 -3.7338846
-36.755821 15.966629 -3.7387149
-36.826851 16.127542 -3.7507908
-36.895432 16.288202 -3.762681
-37.079815 16.501238 -3.7864614
