# .PCD v0.7 - Point Cloud Data file format
VERSION 0.7
FIELDS x y z
SIZE 4 4 4
TYPE F F F
COUNT 1 1 1
WIDTH 371
HEIGHT 1
VIEWPOINT 0 0 0 1 0 0 0
POINTS 371
DATA ascii
-0.97494757 -0.064755917 -0.57946527
-0.96826828 -0.061427426 -0.57538456
-0.98143202 -0.062262539 -0.55253839
-0.96157777 -0.058138911 -0.57130378
-0.98161244 -0.059350245 -0.55253839
-0.95829201 -0.055422585 -0.56926346
-0.97654235 -0.056478091 -0.54959941
-0.96533215 -0.05278765 -0.57334423
-0.97149187 -0.053124487 -0.54666036
-0.96719366 -0.050180793 -0.57436436
-0.95944744 -0.049778897 -0.53980261
-0.97170126 -0.050414663 -0.51735765
-0.99414062 -0.051578879 -0.50002027
-0.96218365 -0.047058698 -0.57130378
-0.96307403 -0.047102243 -0.54176199
-0.95420867 -0.046668656 -0.50796825
-1.010355 -0.049414672 -0.50809956
-0.95544547 -0.043887842 -0.56722313
-0.95275879 -0.043764435 -0.53588396
-0.93317467 -0.042864848 -0.49670097
-0.99621451 -0.04576055 -0.50091791
-0.95213413 -0.040905289 -0.56518269
-0.93198013 -0.040039442 -0.52412778
-0.93329769 -0.040096045 -0.49670097
-0.98206127 -0.04219101 -0.4937363
-1.0384796 -0.044614837 -0.49200591
-0.94536257 -0.038134821 -0.56110197
-0.92511302 -0.037317976 -0.52020907
-0.92634165 -0.037367538 -0.49294519
-0.97681123 -0.039403424 -0.49104321
-1.0259491 -0.041385587 -0.48601627
-0.93515736 -0.034944464 -0.55498087
-0.9165076 -0.03424757 -0.51531065
-0.9264484 -0.034619033 -0.49294519
-0.9554922 -0.035704326 -0.48027077
-1.0188415 -0.038071528 -0.4825936
-0.93181854 -0.032051321 -0.55294049
-0.90789223 -0.031228339 -0.51041228
-0.92654705 -0.03187 -0.49294519
-0.96095246 -0.033053424 -0.48296389
-1.0135301 -0.034861915 -0.48002666
-0.92847061 -0.029178517 -0.5509001
-0.8975243 -0.028205983 -0.50453424
-0.91781241 -0.028843567 -0.48825046
-0.94139653 -0.029584732 -0.47308913
-1.0226632 -0.032138653 -0.48430496
-0.93371177 -0.026570309 -0.55396068
-0.90108985 -0.025641998 -0.50649357
-0.92318946 -0.026270878 -0.49106726
-0.93612075 -0.02663886 -0.47039607
-1.0082982 -0.028692788 -0.47745964
-0.92690778 -0.023624443 -0.54987997
-0.91162026 -0.023234803 -0.5123716
-0.9285593 -0.023666535 -0.49388412
-0.93976891 -0.023952238 -0.47219145
-1.0029575 -0.025562746 -0.47489265
-1.0411038 -0.026534997 -0.46367982
-0.93040973 -0.021113927 -0.55192029
-0.90470898 -0.020530697 -0.50845295
-0.92862183 -0.021073354 -0.49388412
-0.93804544 -0.021287207 -0.47129375
-1.0048323 -0.022802809 -0.47574833
-1.0393471 -0.023586059 -0.46286631
-0.92014885 -0.018149873 -0.5457992
-0.91522563 -0.018052764 -0.51433098
-0.9251492 -0.018248506 -0.49200624
-0.93274385 -0.018398309 -0.46860063
-1.0012807 -0.019750195 -0.47403699
-1.0394125 -0.020502342 -0.46286631
-0.91848141 -0.015230271 -0.544779
-0.90830427 -0.015061514 -0.51041228
-0.92343622 -0.015312432 -0.49106726
-0.93994492 -0.01558618 -0.47219145
-1.0049528 -0.01666414 -0.47574833
-1.0248572 -0.016994195 -0.45635855
-0.91679811 -0.01280177 -0.54375887
-0.90311021 -0.012610639 -0.50747323
-0.91464454 -0.0127717 -0.48637256
-0.93640846 -0.0130756 -0.47039607
-0.98330241 -0.013730408 -0.46548039
-1.0285519 -0.014362252 -0.45798549
-0.92027396 -0.009958908 -0.5457992
-0.91186291 -0.0098678861 -0.5123716
-0.90585119 -0.0098028295 -0.48167786
-0.93287069 -0.010095225 -0.46860063
-0.97611022 -0.01056315 -0.46205771
-1.023111 -0.011071776 -0.45554504
-0.9168579 -0.0073612975 -0.54375887
-0.90839988 -0.0072933892 -0.51041228
-0.90234339 -0.007244763 -0.47979999
-0.931108 -0.0074757091 -0.46770296
-0.9707129 -0.0077936901 -0.45949072
-1.0140028 -0.0081412569 -0.45147768
-0.92203712 -0.0045060464 -0.54681939
-0.90493113 -0.0044224486 -0.50845295
-0.90412754 -0.0044185212 -0.48073891
-0.92933977 -0.0045417347 -0.46680525
-0.96711731 -0.0047263554 -0.45777941
-1.0158504 -0.0049645174 -0.45229119
-0.92720681 -0.0019421842 -0.54987997
-0.90493995 -0.0018955426 -0.50845295
-0.89883864 -0.0018827625 -0.47792205
-0.93113601 -0.0019504145 -0.46770296
-0.96351129 -0.0020182298 -0.4560681
-1.0158603 -0.0021278833 -0.45229119
-0.92204773 0.00080467074 -0.54681939
-0.91365975 0.00079735048 -0.51335132
-0.90413803 0.00078904087 -0.48073891
-0.9293505 0.00081104384 -0.46680525
-0.96893615 0.0008455902 -0.45863506
-1.0158622 0.00088654261 -0.45229119
-0.92376208 0.0033856565 -0.54783952
-0.90144855 0.0033038759 -0.50649357
-0.9023664 0.0033072399 -0.47979999
-0.9257701 0.0033930163 -0.46500981
-0.96712232 0.0035445751 -0.45777941
-1.0103745 0.0037030976 -0.44985077
-0.92030758 0.0061037322 -0.5457992
-0.90143478 0.0059785629 -0.50649357
-0.89528918 0.0059378031 -0.47604421
-0.92039454 0.0061043091 -0.46231675
-0.97072285 0.0064380998 -0.45949072
-1.0067049 0.0066767433 -0.44822377
-0.92028391 0.0089949742 -0.5457992
-0.9048987 0.0088445973 -0.50845295
-0.91292423 0.0089230398 -0.48543364
-0.92573214 0.0090482263 -0.46500981
-0.97069782 0.0094877267 -0.45949072
-1.0011981 0.0097858403 -0.44578338
-0.92713964 0.011327772 -0.54987997
-0.91359186 0.011162247 -0.51335132
-0.9005394 0.011002772 -0.47886106
-0.92570728 0.011310272 -0.46500981
-0.96705663 0.011815478 -0.45777941
-1.0029981 0.01225461 -0.44659686
-1.0629174 0.012986701 -0.44400725
-0.91677928 0.014081714 -0.54375887
-0.91878247 0.014112482 -0.51629031
-0.90226603 0.013858791 -0.47979999
-0.92566717 0.014218232 -0.46500981
-0.95797724 0.014714513 -0.45350111
-0.99199343 0.015237001 -0.44171602
-1.0517997 0.016155625 -0.4393822
-0.91501629 0.016610626 -0.54273862
-0.92048275 0.01670986 -0.51727003
-0.91105181 0.016538657 -0.48449469
-0.92741084 0.016835628 -0.46590757
-0.9597398 0.017422507 -0.45435676
-0.99377376 0.018040337 -0.4425295
-1.0609763 0.019260291 -0.44323641
-0.92355889 0.019668322 -0.54783952
-0.92391235 0.019675849 -0.51922941
-0.9056989 0.019287972 -0.48167786
-0.91663247 0.019520817 -0.46052131
-0.96329504 0.020514553 -0.4560681
-0.99188554 0.021123422 -0.44171602
-1.0516853 0.022396933 -0.4393822
-0.92006093 0.022164294 -0.5457992
-0.93605554 0.022549605 -0.52608711
-0.9091723 0.021901987 -0.48355576
-0.91836107 0.022123344 -0.46141899
-0.97588426 0.023509081 -0.46205771
-0.98268986 0.023673028 -0.43764865
-1.0534636 0.025377968 -0.44015303
-0.91998672 0.025054682 -0.5457992
-0.92552221 0.025205433 -0.52020907
-0.91439468 0.024902388 -0.48637256
-0.92543328 0.02520301 -0.46500981
-0.96857738 0.026377987 -0.45863506
-0.98261064 0.026760165 -0.43764865
-1.0459995 0.028486481 -0.43706965
-0.919918 0.027463187 -0.5457992
-0.92719591 0.02768046 -0.52118874
-0.93197739 0.027823206 -0.49576199
-0.92179132 0.027519112 -0.46321443
-0.9775396 0.029183418 -0.46291336
-0.97888458 0.029223572 -0.43602169
-1.0477659 0.031279951 -0.43784049
-0.92498517 0.030523308 -0.54885978
-0.92710435 0.030593237 -0.52118874
-0.93365043 0.03080925 -0.49670097
-0.91812778 0.030297022 -0.46141899
-0.97382963 0.03213511 -0.46120206
-0.98061401 0.032358985 -0.43683514
-1.0476624 0.034571499 -0.43784049
-0.92317128 0.033205867 -0.54783952
-0.93746454 0.03371999 -0.52706683
-0.92120153 0.033135019 -0.49012834
-0.91624779 0.032956835 -0.46052131
-0.97734302 0.035154391 -0.46291336
-0.99329513 0.035728179 -0.4425295
-1.0493995 0.037746217 -0.43861133
-0.92480028 0.035688803 -0.54885978
-0.93388832 0.03603952 -0.52510744
-0.90875959 0.035069782 -0.48355576
-0.91794419 0.035424221 -0.46141899
-0.97182864 0.037503667 -0.4603464
-0.98406953 0.037976053 -0.43846214
-1.0511414 0.04056441 -0.4393822
-0.92469031 0.038432416 -0.54885978
-0.93203521 0.038737684 -0.52412778
-0.90865159 0.037765805 -0.48355576
-0.92140651 0.038295932 -0.46321443
-0.97351921 0.040461864 -0.46120206
-0.98760355 0.041047245 -0.44008905
-1.0454847 0.043452926 -0.43706965
-0.92972046 0.041567989 -0.55192029
-0.93365073 0.041743711 -0.52510744
-0.9138208 0.04085711 -0.48637256
-0.92842335 0.041509993 -0.46680525
-0.96435773 0.043116625 -0.45692375
-0.98564446 0.044068363 -0.43927559
-1.045343 0.046737496 -0.43706965
-0.92960846 0.044001698 -0.55192029
-0.93702173 0.044352595 -0.52706683
-0.92958599 0.044000633 -0.49482304
-0.940808 0.044531815 -0.47308913
-0.9624359 0.045555539 -0.4560681
-0.99647593 0.047166776 -0.44415641
-1.0489038 0.049648374 -0.43861133
-0.92946565 0.046921976 -0.55192029
-0.92642921 0.046768688 -0.52118874
-0.9259159 0.046742775 -0.49294519
-0.9478032 0.047847707 -0.47667995
-0.96770418 0.048852362 -0.45863506
-0.9908486 0.050020758 -0.44171602
-1.0487427 0.052943405 -0.43861133
-0.93448442 0.049792003 -0.55498087
-0.92977738 0.049541198 -0.52314812
-0.92401844 0.049234342 -0.49200624
-0.94231182 0.050209068 -0.47398683
-0.96575886 0.051458392 -0.45777941
-0.98888063 0.052690387 -0.44090256
-1.0578051 0.056362875 -0.44246554
-0.93948519 0.052854382 -0.55804145
-0.9313671 0.052397668 -0.52412778
-0.94326234 0.053066883 -0.50233459
-0.9421587 0.05300479 -0.47398683
-0.97643101 0.054932915 -0.46291336
-1.0051377 0.056547917 -0.44822377
-0.92730355 0.054929655 -0.5509001
-0.93468869 0.05536712 -0.52608711
-0.93957525 0.055656578 -0.50045675
-0.95091784 0.056328468 -0.47847539
-0.983482 0.058257435 -0.46633601
-1.0031416 0.059421986 -0.44741032
-0.92884332 0.057949532 -0.55192029
-0.92580891 0.057760216 -0.52118874
-0.93939573 0.058607884 -0.50045675
-0.95251989 0.059426684 -0.4793731
-0.99051094 0.061796907 -0.46975869
-0.99930286 0.062345427 -0.44578338
-0.93039459 0.060655098 -0.55294049
-0.9186843 0.059891675 -0.51727003
-0.93570399 0.061001237 -0.49857882
-0.95413363 0.062202718 -0.48027077
-0.98311901 0.06409236 -0.46633601
-1.0082411 0.06573014 -0.44985077
-0.93365401 0.063486487 -0.55498087
-0.92721158 0.063048415 -0.52216846
-0.94610095 0.06433285 -0.5042125
-0.95752227 0.065109476 -0.48206615
-0.99736464 0.067818671 -0.47318134
-1.0044076 0.068297587 -0.44822377
-0.94031358 0.066907525 -0.55906159
-0.91831267 0.065342061 -0.51727003
-0.9388485 0.066803277 -0.50045675
-0.94305152 0.067102343 -0.47488457
-0.99354029 0.070694841 -0.47147
-1.0041882 0.071452491 -0.44822377
-0.9349764 0.069152519 -0.55600101
-0.90943229 0.067263231 -0.5123716
-0.93689716 0.069294579 -0.49951777
-0.96068388 0.071053892 -0.4838616
-0.99514192 0.073602468 -0.47232568
-1.0130954 0.07493034 -0.45229119
-0.92962164 0.071530476 -0.55294049
-0.90922862 0.069961324 -0.5123716
-0.93492669 0.071938679 -0.49857882
-0.94799513 0.072944239 -0.47757766
-0.99852383 0.076832213 -0.47403699
-1.0055817 0.077375285 -0.44903728
-0.93283486 0.074562356 -0.55498087
-0.91075528 0.072797514 -0.51335132
-0.94351059 0.075415678 -0.50327355
-0.9638083 0.077038094 -0.48565698
-0.98928159 0.079074197 -0.46975869
-1.0126328 0.080940686 -0.45229119
-0.9326095 0.077329859 -0.55498087
-0.91574818 0.075931758 -0.51629031
-0.94504249 0.078360774 -0.5042125
-0.95467001 0.079159066 -0.48116848
-0.99805033 0.082756065 -0.47403699
-1.0123882 0.083944932 -0.45229119
-0.94608742 0.081274346 -0.56314236
-0.91204447 0.078349859 -0.51433098
-0.95536244 0.082071118 -0.50984615
-0.96155357 0.082602978 -0.48475927
-1.0032037 0.086180963 -0.47660398
-1.0285182 0.088355616 -0.4596124
-0.97669995 0.086652465 -0.58150572
-0.9239797 0.08197514 -0.52118874
-0.95688844 0.084894799 -0.5107851
-0.959539 0.085129946 -0.4838616
-0.99935776 0.088662662 -0.47489265
-1.0373672 0.092034847 -0.46367982
-0.97472537 0.089392953 -0.58048546
-0.92199606 0.084557094 -0.52020907
-0.96894193 0.088862538 -0.51735765
-0.9664011 0.088629521 -0.48745242
-0.99549001 0.091297299 -0.47318134
-1.0370896 0.095112428 -0.46367982
-0.96421224 0.090975009 -0.57436436
-0.93218702 0.087953374 -0.52608711
-0.96518981 0.09106724 -0.5154798
-0.95904857 0.090487801 -0.4838616
-1.0024465 0.094582476 -0.47660398
-1.0477511 0.09885703 -0.46856064
-0.96905804 0.094504669 -0.57742494
-0.93884766 0.091558486 -0.53000581
-0.95435363 0.093070664 -0.50984615
-0.97298974 0.094888099 -0.49104321
-1.0075419 0.098257698 -0.47917095
-1.0437983 0.10179351 -0.46693367
-0.97904307 0.09841162 -0.58354604
-0.93857193 0.094343528 -0.53000581
-0.95934433 0.096431538 -0.51266295
-0.98692989 0.099204391 -0.49822479
-1.0144405 0.10196971 -0.4825936
-1.0289484 0.10342801 -0.46042591
-0.99245346 0.10255992 -0.59170753
-0.94524235 0.097681142 -0.53392452
-0.9485321 0.098021105 -0.50702929
-0.97598255 0.10085782 -0.49283859
-1.0195463 0.1053597 -0.48516062
-1.0468296 0.10817914 -0.46856064
-0.99216318 0.10533104 -0.59170753
-0.94669974 0.10050451 -0.53490418
-0.96054691 0.10197456 -0.51360196
-0.99702388 0.10584707 -0.50361103
-1.0138552 0.10763393 -0.4825936
-1.0208981 0.11162593 -0.60905063
-0.96371239 0.10537319 -0.54470104
-0.96724349 0.10575928 -0.51735765
-1.0037929 0.10975562 -0.50720179
-1.0153091 0.11101481 -0.48344925
-1.0564823 0.11850327 -0.63047457
-0.97034526 0.10884146 -0.54861969
-0.96869934 0.10865684 -0.51829666
-1.0017064 0.11235916 -0.50630414
-1.0239774 0.11485726 -0.48772761
-0.98387551 0.1133161 -0.55645716
-0.97012699 0.11173265 -0.51923561
-0.99426669 0.11451289 -0.50271332
-1.0254279 0.11810184 -0.48858327
-0.99909854 0.118251 -0.56527424
-0.97152478 0.11498743 -0.5201745
-0.99035239 0.11721583 -0.50091791
-1.0196663 0.12068535 -0.48601627
-1.0005164 0.12107577 -0.5662539
-0.9782328 0.11837916 -0.52393031
-1.0060105 0.12174063 -0.50899726
-1.0462661 0.1266121 -0.49885118
-0.98663962 0.12236768 -0.52862501
-0.99677682 0.12362494 -0.50450873
-0.99150568 0.12613554 -0.53144187
-1.0158856 0.12923706 -0.51438344
-1.0103892 0.13158521 -0.54177022
-1.0243589 0.13340452 -0.51887196
-1.0345243 0.13766746 -0.55491543
-1.0323616 0.14049828 -0.55397648
