# .PCD v0.7 - Point Cloud Data file format
VERSION 0.7
FIELDS x y z
SIZE 4 4 4
TYPE F F F
COUNT 1 1 1
WIDTH 159
HEIGHT 1
VIEWPOINT 0 0 0 1 0 0 0
POINTS 159
DATA ascii
-10.293401 -4.096241 -1.295545
-10.267137 -4.0546875 -1.2908989
-10.359085 -4.0910001 -1.0390893
-10.255775 -4.0130019 -1.287879
-10.378546 -4.0610409 -0.77931935
-10.246572 -3.9764411 -1.2853237
-10.297782 -3.9963143 -1.0305432
-10.403911 -4.0375004 -0.52043009
-10.24789 -3.9399533 -1.2839299
-10.287982 -3.9553673 -1.0283139
-10.307487 -3.9628668 -0.77220416
-10.251426 -3.9084909 -1.2830007
-10.285961 -3.9216583 -1.0270133
-10.307328 -3.9298046 -0.77136707
-10.53896 -4.0181179 0.26186422
-10.262977 -3.8780565 -1.2830007
-10.288238 -3.8876019 -1.0260844
-10.311478 -3.8963833 -0.77080899
-10.33478 -3.9051883 -0.51521271
-10.346964 -3.9097924 -0.25680426
-10.278159 -3.8489816 -1.2834653
-10.299727 -3.8570585 -1.0260844
-10.311782 -3.8615727 -0.76997191
-10.327612 -3.8675008 -0.51428109
-10.332305 -3.8692579 -0.25615436
-10.346328 -3.8745093 0
-10.302571 -3.8233058 -1.2850914
-10.316728 -3.8285594 -1.0266418
-10.325066 -3.8316538 -0.7701115
-10.333423 -3.8347549 -0.51400155
-10.330618 -3.8337142 -0.25582939
-10.350279 -3.8410101 0
-10.325593 -3.801126 -1.2867174
-10.337927 -3.8056662 -1.0277565
-10.338805 -3.8059897 -0.77039051
-10.341551 -3.8070006 -0.51390839
-10.340618 -3.8066573 -0.25582939
-10.347159 -3.8090653 0
-10.35 -3.810111 0.25606152
-10.375299 -3.8194237 0.51558542
-10.404335 -3.8301129 0.77527344
-10.461678 -3.8512225 1.3036755
-10.352416 -3.7741115 -1.288576
-10.36667 -3.7793081 -1.0294285
-10.356335 -3.7755401 -0.77080899
-10.359091 -3.776545 -0.51418787
-10.346891 -3.7720976 -0.25569013
-10.344043 -3.771059 0
-10.34877 -3.7727823 0.25573656
-10.366599 -3.7792823 0.51456058
-10.384452 -3.7857907 0.77290177
-10.483411 -3.8218677 1.5682026
-10.399066 -3.7562003 -1.2929897
-10.404058 -3.7580035 -1.0320295
-10.380627 -3.7495396 -0.77178562
-10.381525 -3.7498643 -0.5147469
-10.369323 -3.7454565 -0.25596866
-10.351424 -3.7389917 0
-10.354277 -3.7400219 0.25559729
-10.370251 -3.7457919 0.51418787
-10.382504 -3.7502179 0.77192515
-10.383456 -3.750562 1.0299859
-10.461384 -3.7457166 -1.0366741
-10.424868 -3.7326419 -0.77429688
-10.412647 -3.7282662 -0.51577175
-10.392919 -3.7212024 -0.25629362
-10.371241 -3.7134407 0
-10.36468 -3.711092 0.25559729
-10.369387 -3.7127769 0.51362896
-10.377909 -3.7158282 0.77080899
-10.388266 -3.7195365 1.0294285
-10.390813 -3.7204485 1.2906666
-10.484136 -3.7208672 -0.77792418
-10.462555 -3.7132082 -0.51772827
-10.422112 -3.6988544 -0.25675783
-10.389109 -3.6871414 0
-10.371235 -3.6807981 0.25550446
-10.383478 -3.6851435 0.51381522
-10.378843 -3.6834986 0.7701115
-10.381721 -3.68452 1.0277565
-10.389929 -3.6874328 1.2892728
-10.398124 -3.6903412 1.5506668
-10.4358 -3.7037125 1.8193165
-10.526944 -3.6988642 -0.52033693
-10.46009 -3.6753733 -0.25740772
-10.427058 -3.6637669 0
-10.394066 -3.6521745 0.25578299
-10.395004 -3.6525042 0.51381522
-10.394129 -3.6521966 0.77039051
-10.385731 -3.6492457 1.0270133
-10.388344 -3.6501639 1.2876467
-10.389113 -3.650434 1.547605
-10.41573 -3.6597867 1.8138045
-10.463724 -3.67665 2.0896266
-10.517519 -3.6625874 -0.25856826
-10.458025 -3.6418691 0
-10.432548 -3.6329973 0.25647929
-10.416485 -3.6274035 0.51437426
-10.402404 -3.6224999 0.77025098
-10.394001 -3.6195738 1.0268276
-10.392869 -3.6191795 1.2869499
-10.388044 -3.6174994 1.5459349
-10.405408 -3.6235461 1.8102378
-10.427547 -3.6312559 2.080369
-10.51038 -3.6251698 0
-10.464074 -3.6091981 0.25698993
-10.436645 -3.5997374 0.51484013
-10.424422 -3.5955219 0.77108806
-10.410342 -3.5906653 1.0273849
-10.399806 -3.5870311 1.2864852
-10.391243 -3.5840776 1.5448215
-10.401189 -3.5875082 1.8076439
-10.423411 -3.5951734 2.0774066
-10.511312 -3.5885825 0.25787196
-10.463027 -3.572098 0.51558542
-10.452659 -3.5685582 0.7723437
-10.430993 -3.5611618 1.0283139
-10.411022 -3.5543435 1.2864852
-10.406199 -3.5526967 1.5453782
-10.414275 -3.555454 1.8079681
-10.423494 -3.5586016 2.0751848
-10.517759 -3.5600653 0.51782143
-10.480864 -3.5475769 0.77373886
-10.451598 -3.5376709 1.0294285
-10.427818 -3.5296221 1.2874144
-10.419216 -3.5267103 1.5459349
-10.41794 -3.5262783 1.8069955
-10.425329 -3.5287793 2.0737035
-10.600258 -3.552969 0.52136177
-10.523502 -3.5272422 0.77611053
-10.480929 -3.5129728 1.0312864
-10.453313 -3.5037162 1.2892728
-10.437146 -3.4982975 1.5470482
-10.43397 -3.4972332 1.8079681
-10.426435 -3.4947076 2.071852
-10.585048 -3.5129702 0.77987736
-10.517767 -3.4906409 1.0338873
-10.476861 -3.4770648 1.2908989
-10.462518 -3.4723048 1.5492752
-10.449921 -3.4681239 1.8089409
-10.442355 -3.4656131 2.072963
-10.563416 -3.4730723 1.0374172
-10.511062 -3.4558589 1.2939188
-10.487226 -3.4480221 1.5515019
-10.465189 -3.4407768 1.8099136
-10.455727 -3.4376659 2.0737035
-10.583603 -3.4449489 1.3015847
-10.525659 -3.4260879 1.5556771
-10.49224 -3.4152105 1.8128316
-10.475225 -3.409672 2.0755553
-10.5835 -3.4081831 1.5626357
-10.523582 -3.3888876 1.8163984
-10.497108 -3.3803627 2.0777769
-10.658423 -3.4015353 1.5723778
-10.570021 -3.3733225 1.8228832
-10.532137 -3.3612323 2.0829613
-10.643967 -3.3621588 1.8339074
-10.579546 -3.34181 2.0903673
-10.648148 -3.3267255 2.1018467
