# .PCD v0.7 - Point Cloud Data file format
VERSION 0.7
FIELDS x y z
SIZE 4 4 4
TYPE F F F
COUNT 1 1 1
WIDTH 68
HEIGHT 1
VIEWPOINT 0 0 0 1 0 0 0
POINTS 68
DATA ascii
11.943727 4.5155468 -0.89288282
12.005795 4.4959512 -1.8017352
12.023121 4.5024395 -1.501364
11.86063 4.4415898 -1.1815854
11.868172 4.4444137 -0.88618624
11.803787 4.4203029 -0.58778977
11.987571 4.4891267 -0.29719105
11.830051 4.3925052 -1.1773125
11.835649 4.3945832 -0.88283789
11.797357 4.3803654 -0.58685803
11.951326 4.4375343 -0.29598409
11.82545 4.3532681 -1.1756403
11.771108 4.3332639 -0.87711787
11.811415 4.3481016 -0.5869512
11.91676 4.3868818 -0.29482353
12.028359 4.3851013 -1.4971826
11.82036 4.3092728 -1.1737826
11.739677 4.2798586 -0.87376964
11.841911 4.3171291 -0.58778977
11.906063 4.3405166 -0.29422006
12.084635 4.3698049 -1.5027578
11.820367 4.2742453 -1.1726679
11.756472 4.2511411 -0.87418813
11.918931 4.309886 -0.59105057
11.949352 4.3208866 -0.29500923
11.767381 4.2156568 -1.1661655
11.89863 4.2626767 -0.88381457
12.061436 4.321002 -0.59747905
12.014822 4.3043022 -0.29630902
11.752836 4.1734467 -1.1635646
11.94245 4.2407789 -0.88618624
11.889211 4.184525 -1.4739524
11.869635 4.1776352 -1.1739683
11.98812 4.2193375 -0.8886975
11.892197 4.1459575 -1.472791
11.944031 4.1640282 -1.1800992
12.085365 4.2133012 -0.8949756
11.928137 4.1211615 -1.4758109
12.096777 4.1794267 -1.194033
11.964743 4.09412 -1.4788307
12.553013 4.2954154 -0.61872113
12.484216 4.2281046 -1.2297035
12.398284 4.1990018 -0.91534448
12.449936 4.1801906 -1.2252448
12.356277 4.1487436 -0.91143811
12.573759 4.221765 -0.6185348
12.448333 4.1410093 -1.2239442
12.382959 4.1192622 -0.9125542
12.54569 4.1733952 -0.61657834
12.451822 4.0987706 -1.2230153
12.456482 4.1003041 -0.91701865
12.560636 4.1345887 -0.6166715
12.655475 4.1266685 -1.5566517
12.387492 4.0392852 -1.2155839
12.490646 4.0729218 -0.91869277
12.579731 4.1019702 -0.61704409
12.679719 4.0905519 -1.5580455
12.390643 3.9972942 -1.214655
12.581228 4.0587778 -0.92441279
12.596357 4.0636587 -0.61723047
12.477772 3.9917686 -1.5320278
12.574866 4.02283 -1.2317472
12.781133 4.0888171 -0.93836409
12.473207 3.9471517 -1.5299371
12.814841 4.0552616 -0.93989873
12.492445 3.9125021 -1.5308663
12.512808 3.8805459 -1.5320278
12.797578 3.8906436 -1.2479104
