# .PCD v0.7 - Point Cloud Data file format
VERSION 0.7
FIELDS x y z
SIZE 4 4 4
TYPE F F F
COUNT 1 1 1
WIDTH 86
HEIGHT 1
VIEWPOINT 0 0 0 1 0 0 0
POINTS 86
DATA ascii
1.8040429 -49.198914 8.0885172
1.6591859 -49.237583 8.0940294
1.5136366 -49.260044 8.0969477
1.3767287 -49.287754 8.1008387
1.2398821 -49.322975 8.1060266
1.0852741 -49.342403 8.1086206
0.94796914 -49.370895 8.1128359
0.80183417 -49.395199 8.1164026
0.66429406 -49.426846 8.1212654
0.51779538 -49.444382 8.1238594
0.37129918 -49.473331 8.1283989
0.22461788 -49.497898 8.1322899
0.095084898 -49.52792 8.1371536
-0.060551781 -49.563496 8.1429901
-0.19901972 -49.578926 8.1455841
-0.3549895 -49.607655 8.1504478
-0.49377736 -49.632126 8.1546631
-0.63279337 -49.664101 8.1601753
-0.78068262 -49.695549 8.1656866
-0.92875224 -49.726566 8.1711988
-1.0682018 -49.751396 8.1757383
-1.2166831 -49.783524 8.1815748
-1.3654126 -49.817177 8.1877346
-1.513819 -49.83263 8.1909771
-1.6455102 -49.865978 8.1971388
-1.8035171 -49.898033 8.2032986
-1.9437705 -49.916466 8.2071896
-2.0931923 -49.942028 8.2123775
-2.2429538 -49.971085 8.218214
-2.383992 -49.996166 8.223402
-2.5253925 -50.024792 8.2292376
-2.684442 -50.052082 8.235074
-2.8089433 -50.084789 8.241559
-2.9765384 -50.100807 8.2457743
-3.1281235 -50.13903 8.2535563
-3.2703059 -50.163578 8.2590685
-3.4129236 -50.191658 8.2652292
-3.5640626 -50.212811 8.2704172
-3.707613 -50.247929 8.277874
-3.8681805 -50.27145 8.2837105
-4.0119991 -50.303734 8.290844
-4.1475673 -50.340267 8.2986259
-4.3083892 -50.358448 8.303813
-4.4698839 -50.382015 8.3099737
-4.5979934 -50.425976 8.3190527
-4.7600985 -50.450577 8.3255377
-4.904779 -50.476372 8.3320227
-5.0494509 -50.49979 8.3381834
-5.2039113 -50.529736 8.3456402
-5.3670068 -50.554352 8.3524504
-5.5044608 -50.587215 8.3602314
-5.6684117 -50.61478 8.3676891
-5.8232961 -50.638916 8.3744984
-5.9704604 -50.671452 8.3826036
-6.1164279 -50.691814 8.3887644
-6.2819595 -50.723267 8.3971949
-6.4206738 -50.753639 8.4049768
-6.5778227 -50.785259 8.4134073
-6.7440896 -50.815201 8.4218369
-6.8915367 -50.837242 8.4286461
-7.0483003 -50.859581 8.4357796
-7.1891589 -50.895668 8.4448586
-7.3449264 -50.907322 8.4503708
-7.501687 -50.924351 8.4568548
-7.6660428 -50.929806 8.4617195
-7.805923 -50.95248 8.468852
-7.9634681 -50.970043 8.4756613
-8.1119776 -50.986584 8.4821463
-8.2797022 -51.007603 8.4899282
-8.4396982 -51.035378 8.498682
-8.5906935 -51.062218 8.5071125
-8.7449055 -51.106113 8.5184612
-8.9042873 -51.12466 8.525919
-9.0762358 -51.160561 8.5366182
-9.2106514 -51.190678 8.545373
-9.379962 -51.208073 8.5531549
-9.5337591 -51.239883 8.5628815
-9.6892662 -51.278996 8.5739059
-9.8596249 -51.296757 8.5820122
-10.020107 -51.309887 8.5891457
-10.176778 -51.349468 8.6004944
-10.340385 -51.375149 8.6098967
-10.506206 -51.409988 8.6209211
-10.675135 -51.457817 8.6342154
-10.841946 -51.537884 8.6526966
-11.02823 -51.706215 8.6860933
