# .PCD v0.7 - Point Cloud Data file format
VERSION 0.7
FIELDS x y z intensity
SIZE 4 4 4 4
TYPE F F F F
COUNT 1 1 1 1
WIDTH 1368
HEIGHT 1
VIEWPOINT 0 0 0 1 0 0 0
POINTS 1368
DATA ascii
-8.030385 -10.190157 2.1315608 13
-5.1738162 -6.5653143 -1.5749038 12
-8.4291964 -10.696229 2.5658379 14
-1.6615523 -2.0963581 -1.5863882 6
-6.0704632 -7.6590214 -1.6056417 9
-1.7610378 -2.2218776 -1.5929565 6
-6.9838758 -8.8114614 -1.5801715 6
-1.8646988 -2.3526652 -1.5962034 6
-4.9392495 -6.2317843 -0.92990255 3
-1.9737991 -2.4903157 -1.5961149 7
-11.897971 -15.011509 -1.7870553 7
-2.0997472 -2.6492224 -1.6000888 15
-17.954533 -22.65299 -2.0212636 7
-2.2482233 -2.8365529 -1.6114906 9
-21.515535 -27.145859 -1.6153271 28
-2.4026778 -3.031426 -1.6156931 13
-27.678335 -34.921379 -1.0345516 47
-2.5932834 -3.2719107 -1.6302783 13
-17.966076 -22.667553 0 36
-3.094713 -3.9045575 -1.8133907 24
-18.75733 -23.665871 0.7011053 39
-3.3071547 -4.1725922 -1.7990575 32
-8.498004 -10.721816 0.63800669 22
-3.5446589 -4.4722481 -1.7806953 17
-8.3378029 -10.519693 0.9386431 34
-3.6852114 -4.6495814 -1.7012339 29
-8.3752117 -10.566892 1.2579427 40
-3.6738937 -4.6353016 -1.5483793 26
-8.4064722 -10.606332 1.5826695 36
-3.6808743 -4.6441092 -1.404106 23
-8.0615358 -10.17113 1.8240029 19
-3.7183535 -4.6913962 -1.2724197 15
-8.0624876 -10.172332 2.1325333 11
-5.1103358 -6.4476414 -1.5500935 13
-1.6731277 -2.0981436 -1.5914892 7
-6.1005445 -7.6502347 -1.6075871 8
-1.7687098 -2.2180061 -1.5939362 6
-1.876075 -2.3526447 -1.5999593 6
-4.9651489 -6.2264204 -0.93129641 3
-1.9811794 -2.4844482 -1.5961149 7
-11.911422 -14.937219 -1.7824106 10
-2.1087253 -2.6443939 -1.6009444 15
-5.7990756 -7.2721848 -0.65040934 1
-2.2532125 -2.8255844 -1.6090502 9
-27.879971 -34.962177 -2.0853539 53
-2.4128122 -3.0257266 -1.6164639 14
-18.382429 -23.052023 -0.68453282 15
-2.600657 -3.2612886 -1.6288234 14
-17.989611 -22.559418 0 18
-3.054728 -3.8307049 -1.783293 52
-18.803782 -23.58041 0.70022333 39
-3.3195205 -4.1627612 -1.7990575 35
-8.6020222 -10.787149 0.64341033 16
-3.5686259 -4.4751458 -1.7860571 19
-8.3590279 -10.48243 0.937527 16
-3.6941965 -4.6326141 -1.6990288 33
-8.3332767 -10.450136 1.2469815 25
-3.6840122 -4.619843 -1.5468599 26
-8.3041468 -10.413607 1.5575809 20
-3.6897843 -4.6270814 -1.4022616 22
-8.0879745 -10.142521 1.8231677 21
-3.7346964 -4.6834021 -1.2732513 15
-8.0889435 -10.143736 2.1315608 6
-5.0093565 -6.2818575 -1.5138037 3
-8.5053673 -10.665942 2.5702815 10
-1.6732506 -2.0848274 -1.585368 6
-5.0103207 -6.2427311 -1.3151218 1
-1.7745777 -2.2110784 -1.5929565 6
-4.946259 -6.1629124 -1.1106014 2
-1.8790357 -2.3412304 -1.5962034 6
-4.9399242 -6.1550193 -0.92293352 2
-1.9900935 -2.4796054 -1.5970125 8
-5.8507624 -7.2898998 -0.8720696 2
-2.1181543 -2.6391659 -1.6018001 15
-6.2502313 -7.7876277 -0.69826227 3
-2.2609346 -2.8170667 -1.6082368 9
-27.949656 -34.824554 -2.0823727 53
-2.4199955 -3.0152526 -1.6149222 13
-18.343376 -22.855375 -0.68040127 15
-2.6085575 -3.250196 -1.6273683 14
-18.254431 -22.744553 0 18
-3.0420444 -3.7903094 -1.7689282 56
-18.840225 -23.474438 0.69883066 38
-3.3278382 -4.1464014 -1.7964965 30
-8.6608791 -10.791233 0.64527369 21
-3.5826676 -4.463912 -1.7860571 19
-8.3844261 -10.44678 0.93668991 22
-3.7015121 -4.6119895 -1.6957211 33
-8.3822699 -10.444093 1.2493967 21
-3.6924527 -4.6007013 -1.5443274 26
-8.7123203 -10.855329 1.627736 48
-3.6994305 -4.6093955 -1.4004171 23
-8.1197987 -10.117062 1.8231677 24
-3.7591877 -4.6838512 -1.2765779 15
-4.9786291 -6.2032442 -1.4986212 3
-8.5634384 -10.669825 2.5776877 17
-1.6833881 -2.085501 -1.5894488 6
-5.0140986 -6.2118225 -1.311555 2
-1.7818407 -2.2074711 -1.5939362 6
-1.8900031 -2.3414705 -1.5999593 6
-4.9545979 -6.1381087 -0.9224689 2
-1.9981328 -2.4754291 -1.5979103 8
-5.8260689 -7.2177486 -0.8653813 0
-2.1255159 -2.6332407 -1.6018001 14
-6.448647 -7.9890432 -0.71793365 3
-2.2710879 -2.8135855 -1.6098638 9
-28.000368 -34.68885 -2.0789254 53
-2.4237702 -3.002739 -1.6118388 13
-18.403362 -22.799395 -0.68026203 15
-2.6141136 -3.2385502 -1.6251861 13
-18.334206 -22.713718 0 18
-3.0998349 -3.8402963 -1.7962898 27
-18.924543 -23.445072 0.69952697 39
-3.337024 -4.1341429 -1.7952161 30
-8.7223511 -10.80587 0.64760286 16
-3.5951195 -4.4538898 -1.7860571 19
-8.408555 -10.417116 0.93613189 21
-3.7083392 -4.5941548 -1.6929647 33
-8.356369 -10.352465 1.2412221 22
-3.6979947 -4.5813394 -1.5412884 26
-8.4231911 -10.435249 1.5682669 22
-3.7073987 -4.5929894 -1.3985727 23
-8.1306038 -10.072771 1.8192708 19
-3.786998 -4.6916027 -1.2815678 15
-8.591526 -10.643794 2.2473147 13
-8.5450563 -10.586225 2.5632458 25
-1.6902891 -2.0821278 -1.590469 5
-5.0214744 -6.1855397 -1.3089612 2
-1.7879978 -2.202487 -1.5939362 6
-5.0043187 -6.1644073 -1.11589 4
-1.897647 -2.3375547 -1.6008981 6
-4.9642067 -6.1149964 -0.92107511 3
-2.0084167 -2.4740028 -1.6006033 8
-2.1317213 -2.6258914 -1.6009444 15
-6.4860196 -7.9895926 -0.71960783 3
-2.2766325 -2.8043957 -1.6082368 9
-27.851583 -34.308067 -2.0607579 52
-2.4356349 -3.0002575 -1.6141514 13
-18.464434 -22.744814 -0.68016917 31
-2.6219726 -3.2297916 -1.6244584 13
-18.476974 -22.76026 0 18
-3.1484509 -3.8783169 -1.8181791 24
-18.976074 -23.375061 0.69901633 38
-3.3413897 -4.1159821 -1.7913746 28
-8.7864885 -10.823351 0.65011835 20
-3.6111524 -4.4482808 -1.7878443 21
-8.1647396 -10.057469 0.90585762 12
-3.7126713 -4.5733333 -1.6891057 35
-8.4015608 -10.349189 1.2436373 13
-3.7046754 -4.5634842 -1.5387558 26
-8.6688938 -10.678495 1.6084549 28
-3.7128501 -4.5735536 -1.395806 23
-8.2261057 -10.133061 1.8343016 6
-3.8025496 -4.6840472 -1.2823994 14
-8.6659927 -10.674921 2.2589874 35
-5.2473183 -6.4637384 -1.5686086 17
-8.5758228 -10.563848 2.563616 27
-1.6957343 -2.0754747 -1.5894488 6
-5.0308943 -6.1575065 -1.3063673 3
-1.790496 -2.1914573 -1.5900174 5
-5.0261679 -6.151721 -1.1164467 2
-1.9005127 -2.3261111 -1.5971423 6
-4.962028 -6.0732183 -0.91712594 2
-2.0127873 -2.4635282 -1.5979103 8
-6.4193916 -7.8569417 -0.94656891 3
-2.1433923 -2.6233807 -1.6035115 15
-6.5350738 -7.9985294 -0.72225851 4
-2.2865882 -2.7986438 -1.6090502 10
-27.834097 -34.067226 -2.0515342 52
-2.4438815 -2.9911611 -1.6133806 11
-18.501648 -22.644882 -0.6789158 15
-2.6297498 -3.2186522 -1.6230036 13
-18.647095 -22.822901 0 37
-3.1796458 -3.8916914 -1.8291236 15
-19.089905 -23.364874 0.70050186 19
-3.3507087 -4.1010623 -1.7894539 28
-8.822979 -10.798786 0.65030473 22
-3.6251104 -4.436913 -1.7878443 19
-3.7148578 -4.5467582 -1.683593 50
-8.6041269 -10.530924 1.2687182 24
-3.7177711 -4.550324 -1.5382493 32
-8.5603781 -10.477378 1.5822049 21
-3.722276 -4.5558376 -1.3939614 25
-8.5974913 -10.522802 1.9097335 21
-3.8259118 -4.6826816 -1.2853101 14
-8.7107267 -10.661395 2.2619057 19
-5.3073931 -6.495924 -1.5804584 13
-8.6002655 -10.526197 2.561024 21
-1.6989779 -2.0683699 -1.5874085 6
-4.991879 -6.0772138 -1.2921005 4
-1.7973336 -2.1881101 -1.5909972 6
-1.9054747 -2.3197632 -1.5962034 5
-4.9552145 -6.0325775 -0.91294456 3
-2.020364 -2.4596319 -1.5988079 7
-5.9078059 -7.1922817 -0.8683539 2
-2.1525474 -2.6205544 -1.6052227 13
-6.5509253 -7.9752283 -0.72170049 3
-2.2904279 -2.788413 -1.6066098 13
-6.6193924 -8.0585814 -0.48633102 2
-2.4540462 -2.9876051 -1.6149222 13
-18.576096 -22.614912 -0.67947286 15
-2.639349 -3.2131968 -1.623731 13
-18.593794 -22.636459 0 37
-3.1826656 -3.8746412 -1.8250195 16
-22.289537 -27.135731 0.81530249 33
-3.3626361 -4.0937409 -1.7900943 19
-8.8575592 -10.78337 0.65077055 7
-3.6367133 -4.4274077 -1.7878443 18
-8.420085 -10.250781 0.92762154 12
-3.7194262 -4.5281043 -1.6802853 42
-8.6961279 -10.586842 1.2781931 23
-3.7247581 -4.5345955 -1.5362233 28
-8.5789509 -10.444187 1.5805788 18
-3.726778 -4.5370545 -1.3911947 23
-8.6702652 -10.555355 1.9197539 56
-3.8530579 -4.6907902 -1.2903001 15
-8.8287992 -10.748358 2.2852509 29
-5.3343601 -6.4941573 -1.5834208 13
-8.5866241 -10.453528 2.548804 14
-1.7094903 -2.068624 -1.5914892 7
-5.013659 -6.0669403 -1.2930733 6
-1.806039 -2.1854558 -1.5929565 7
-5.0339508 -6.091495 -1.1106014 5
-1.9123487 -2.3140996 -1.5962034 5
-4.98701 -6.0346932 -0.91549987 3
-2.0310678 -2.4577594 -1.601501 7
-2.1603127 -2.6141565 -1.6052227 10
-6.5656614 -7.9449911 -0.72072393 3
-2.2975268 -2.7801967 -1.6057963 13
-22.407682 -27.115141 -1.6403888 30
-2.4640751 -2.9817338 -1.6156931 11
-19.157682 -23.182373 -0.69822717 33
-2.6500576 -3.2067878 -1.6244584 13
-18.99085 -22.980494 0 38
-3.1570337 -3.8202708 -1.8038142 15
-22.526613 -27.259056 0.82101232 34
-3.386837 -4.0983515 -1.7964965 19
-8.8996944 -10.769363 0.6515159 3
-3.6546974 -4.4224849 -1.7902273 18
-8.1822929 -9.9012489 0.89818436 13
-3.7401924 -4.5259409 -1.683593 29
-8.7807789 -10.625465 1.2859961 17
-3.729568 -4.5130844 -1.5326778 25
-9.0793695 -10.986785 1.6667626 5
-3.7414622 -4.5274777 -1.3916558 25
-8.6472921 -10.463936 1.9077849 28
-3.873189 -4.6868777 -1.2923791 15
-9.0203114 -10.91532 2.3264296 26
-5.354857 -6.4798179 -1.5837913 13
-8.6802015 -10.503758 2.5673192 14
-1.7145208 -2.0622201 -1.590469 7
-5.051825 -6.0763192 -1.2982612 8
-1.8125154 -2.1800878 -1.5929565 5
-1.9180776 -2.3070576 -1.5952646 5
-4.9934635 -6.0061221 -0.91340911 3
-2.0360663 -2.4489739 -1.5997056 7
-5.4806137 -6.5920644 -0.79979968 1
-2.166904 -2.6063452 -1.6043671 9
-6.5751758 -7.9085999 -0.71918923 3
-2.3045976 -2.7719624 -1.6049829 13
-6.7041345 -8.0637112 -0.48903283 1
-2.4717312 -2.9729903 -1.6149222 12
-19.061485 -22.927094 -0.69223881 16
-2.6583695 -3.1974783 -1.623731 13
-18.648518 -22.430376 0 18
-3.1563399 -3.7964354 -1.7969738 14
-3.3965592 -4.0853705 -1.7952161 19
-3.6751268 -4.4204307 -1.7938018 18
-8.2333193 -9.9030094 0.90055609 18
-3.7376268 -4.4956055 -1.6764265 33
-8.8059006 -10.591709 1.2850671 17
-3.7404683 -4.4990234 -1.5316647 28
-8.6306152 -10.380877 1.5787205 5
-3.744926 -4.504385 -1.387967 28
-8.642849 -10.395591 1.8999913 19
-3.8908303 -4.6798782 -1.2936267 14
-9.0993414 -10.944659 2.3384266 12
-5.3866239 -6.4790139 -1.5874941 13
-8.727663 -10.497604 2.5721331 19
-1.7191697 -2.0561044 -1.5894488 6
-5.0713062 -6.0652156 -1.2989097 3
-1.8230705 -2.1803684 -1.5968753 6
-1.9267783 -2.3044016 -1.5971423 5
-5.0063949 -5.9875822 -0.91271222 2
-2.044044 -2.4446497 -1.6006033 7
-5.4504619 -6.5186806 -0.79273987 1
-2.1764932 -2.6030571 -1.6060784 9
-6.586998 -7.8779631 -0.71807313 4
-2.3135018 -2.7669177 -1.6057963 14
-22.527603 -26.942717 -1.6377802 30
-2.4788404 -2.9646606 -1.6141514 11
-18.913818 -22.620676 -0.68457925 31
-2.6672885 -3.190042 -1.623731 13
-18.764967 -22.442654 0 18
-3.135586 -3.7501194 -1.7791888 16
-22.401081 -26.791399 0.8107996 33
-3.4091702 -4.077323 -1.7958562 25
-21.151266 -25.296635 1.5377191 14
-3.680109 -4.4013619 -1.7902273 17
-8.3057346 -9.9335489 0.90543902 16
-3.7501669 -4.4851503 -1.6764265 29
-8.7843513 -10.505968 1.2776358 17
-3.7492945 -4.484107 -1.5301453 28
-8.6965237 -10.400928 1.5854571 15
-3.7537456 -4.4894304 -1.3865836 28
-8.6311932 -10.322794 1.8910842 22
-3.9139233 -4.6810007 -1.2969533 15
-5.3958716 -6.4533916 -1.584902 12
-1.7249049 -2.0512953 -1.5894488 5
-1.8246634 -2.1699305 -1.5929565 6
-5.4210958 -6.446888 -1.1838065 11
-1.9366156 -2.3030665 -1.5999593 6
-4.9578943 -5.8960381 -0.9008649 2
-2.0497124 -2.4375637 -1.5997056 7
-5.4635181 -6.4973373 -0.79199666 2
-2.1791003 -2.5914347 -1.6026558 8
-6.5909953 -7.8381586 -0.71612 3
-2.3212194 -2.7604461 -1.6057963 14
-21.259113 -25.281813 -1.5404209 24
-2.4906731 -2.9619639 -1.6164639 11
-18.931875 -22.514208 -0.68295449 15
-2.6761866 -3.1825809 -1.623731 13
-22.43038 -26.674707 0 34
-3.0613775 -3.6406584 -1.731306 21
-22.408895 -26.649158 0.80838567 32
-3.4120071 -4.0576348 -1.7913746 20
-19.766321 -23.50655 1.4322542 9
-3.6960721 -4.3954515 -1.7920146 17
-8.3925085 -9.9805574 0.91185659 12
-3.76144 -4.4731884 -1.6758753 30
-9.1417494 -10.871572 1.3251965 4
-3.7530856 -4.463253 -1.5265998 26
-8.6334858 -10.267134 1.5687314 23
-3.7600055 -4.4714823 -1.3842779 30
-8.6663599 -10.306229 1.892476 24
-3.9307575 -4.6745443 -1.2982007 10
-5.3759246 -6.3931694 -1.5737928 12
-8.7229118 -10.373482 2.553618 10
-1.730229 -2.0445533 -1.5884286 5
-5.5623436 -6.5728345 -1.4146638 15
-1.8337238 -2.1668499 -1.5949159 6
-7.4845357 -8.844224 -1.6283255 3
-1.9449817 -2.2983193 -1.6008981 5
-5.4627385 -6.4551339 -0.98890704 4
-2.0596688 -2.4338412 -1.601501 7
-5.483902 -6.4801426 -0.79199666 2
-2.1919014 -2.590096 -1.6060784 9
-6.6516728 -7.8600578 -0.72002631 0
-2.3334208 -2.7573247 -1.6082368 17
-21.418444 -25.309454 -1.5461973 24
-2.4987736 -2.9527166 -1.6156931 12
-18.987007 -22.436308 -0.68239743 15
-2.6825609 -3.1698918 -1.6215485 13
-18.879723 -22.309532 0 18
-2.9635334 -3.5019076 -1.6697423 12
-23.056946 -27.245617 0.82867193 35
-3.4002573 -4.0179696 -1.7785699 19
-3.7049286 -4.3779898 -1.7896316 16
-8.4586182 -9.9952641 0.91562349 16
-3.7903767 -4.4789605 -1.6824905 25
-9.159133 -10.823039 1.3227813 5
-3.7670882 -4.4514413 -1.5265998 26
-8.6425982 -10.212667 1.5645499 17
-3.7690051 -4.4537063 -1.3824335 26
-8.6449585 -10.215457 1.8807855 14
-3.9504776 -4.6681466 -1.2998641 6
-5.4518461 -6.4422631 -1.5900862 12
-8.6983232 -10.278515 2.5369542 12
-1.7337021 -2.0370936 -1.5863882 6
-1.8397678 -2.1617205 -1.5949159 6
-5.5555277 -6.5277243 -1.2046825 3
-1.9525369 -2.2942238 -1.601837 6
-2.0664575 -2.4280798 -1.601501 7
-5.5148835 -6.4799676 -0.79385453 3
-2.2002976 -2.5853417 -1.6069341 9
-6.6451492 -7.8080258 -0.71695709 0
-2.3422956 -2.7521889 -1.6090502 17
-21.618523 -25.401686 -1.555514 25
-2.5058131 -2.9443212 -1.6149222 10
-19.071619 -22.409082 -0.68318659 15
-2.6914027 -3.1623881 -1.6215485 12
-22.484573 -26.419291 0 33
-2.956248 -3.4735806 -1.6601657 11
-22.865988 -26.867451 0.81910902 34
-3.4090083 -4.0055723 -1.7772894 16
-3.7208526 -4.3719878 -1.7914189 17
-8.5020151 -9.9898367 0.9172976 18
-3.8215604 -4.4903193 -1.6907597 29
-3.7932982 -4.4571114 -1.5321712 19
-8.6916847 -10.212697 1.5682669 21
-3.7940409 -4.457984 -1.3870447 21
-8.6439285 -10.156585 1.8743834 19
-3.9660344 -4.6600761 -1.3006957 2
-8.798872 -10.338642 2.2304542 21
-5.4163146 -6.3641496 -1.5745336 22
-8.7601118 -10.293099 2.546582 14
-1.7397387 -2.0319405 -1.5863882 6
-6.4639344 -7.5496001 -1.6328779 5
-1.8450397 -2.1549277 -1.5939362 6
-5.7358832 -6.6992669 -1.2394757 2
-1.958187 -2.2870789 -1.6008981 6
-5.0528131 -5.9014702 -0.90853083 0
-2.0736527 -2.4219379 -1.601501 7
-5.5548077 -6.4877787 -0.79682708 3
-2.2067831 -2.5774286 -1.6060784 8
-19.32752 -22.573721 -2.0780454 7
-2.3504515 -2.7452271 -1.6090502 17
-21.795145 -25.455801 -1.5627809 25
-2.5157387 -2.9382756 -1.6156931 11
-19.161432 -22.379736 -0.68402219 15
-2.7019854 -3.1558039 -1.6222761 11
-22.590178 -26.384365 0 33
-2.9555411 -3.451946 -1.6540095 11
-22.447552 -26.217783 0.80132955 32
-3.4221106 -3.9968793 -1.7779298 15
-8.8134308 -10.293711 0.63195086 16
-3.7350497 -4.3623786 -1.7920146 17
-8.5809259 -10.022156 0.92259914 16
-3.8311155 -4.4745793 -1.6891057 35
-3.8316729 -4.4752307 -1.5423013 20
-8.7619991 -10.233641 1.5754682 45
-3.8275027 -4.4703598 -1.3944225 21
-8.7783623 -10.252752 1.8969296 13
-4.9684429 -5.8029294 -1.6237905 11
-8.8038378 -10.282507 2.2239695 12
-5.5220957 -6.4495726 -1.5997142 15
-8.9133272 -10.410386 2.5821314 14
-1.7454063 -2.0270743 -1.5863882 6
-5.1315913 -5.9597111 -1.2921005 2
-1.8499126 -2.1484456 -1.5929565 6
-5.092917 -5.9147949 -1.0969625 0
-1.963414 -2.2802634 -1.5999593 6
-5.5268173 -6.4187174 -0.99053323 0
-2.0757437 -2.4107203 -1.5979103 6
-5.5884962 -6.4903493 -0.79905647 3
-2.2175109 -2.5753655 -1.6086454 9
-19.489424 -22.634563 -2.0886483 7
-2.3557243 -2.7358835 -1.6074233 17
-28.669504 -33.296093 -2.0490189 52
-2.5239344 -2.9312387 -1.6156931 11
-19.214724 -22.315533 -0.68369722 15
-2.7132192 -3.1510696 -1.623731 13
-22.745985 -26.416658 0 34
-2.9529064 -3.4294369 -1.6471691 10
-19.338665 -22.459476 0.68810731 18
-3.4357316 -3.9901788 -1.7792101 16
-8.8278027 -10.252405 0.63092601 18
-3.7434802 -4.3475909 -1.7902273 17
-8.5476961 -9.9270954 0.91604203 13
-3.8448508 -4.4653201 -1.6896571 37
-8.852458 -10.281039 1.2657456 23
-3.8643551 -4.4879723 -1.5504054 19
-8.8112812 -10.233217 1.579185 22
-3.8640988 -4.4876742 -1.4031838 17
-8.7126226 -10.118637 1.8766102 13
-5.016541 -5.8260942 -1.634186 13
-8.85956 -10.289288 2.2307785 18
-5.4657044 -6.3477421 -1.5782365 16
-8.9038916 -10.340773 2.5710223 19
-1.7502863 -2.0205867 -1.585368 6
-1.8574203 -2.1442657 -1.5939362 6
-1.9701705 -2.2744281 -1.5999593 5
-5.5341306 -6.3887777 -0.98844248 2
-2.0805464 -2.4018495 -1.5961149 6
-7.0197639 -8.1038408 -1.0002605 1
-2.221591 -2.5646758 -1.6060784 8
-19.636175 -22.668631 -2.0971587 8
-2.3650272 -2.7302632 -1.6082368 16
-28.724993 -33.161053 -2.0459442 52
-2.5326197 -2.9237375 -1.6156931 11
-28.769409 -33.21233 -1.0201609 45
-2.7225559 -3.1430058 -1.623731 13
-19.530914 -22.547113 0 38
-2.9606068 -3.4178195 -1.6458009 11
-19.351538 -22.340036 0.68620396 36
-3.4574792 -3.991425 -1.784332 19
-8.9628258 -10.346973 0.63837934 38
-3.7601123 -4.3407946 -1.7920146 17
-8.5823355 -9.9077234 0.91660005 12
-3.8543053 -4.4495335 -1.6880032 42
-8.8177309 -10.179472 1.2564565 22
-3.9067893 -4.5101228 -1.5620549 21
-8.8871241 -10.259582 1.5873156 21
-3.90288 -4.5056095 -1.4124062 16
-8.8022537 -10.161604 1.8894141 11
-5.0555787 -5.8363218 -1.641255 16
-8.8835878 -10.255499 2.2291572 18
-5.584887 -6.4473724 -1.6071203 5
-8.8766241 -10.247459 2.5543585 14
-1.7585343 -2.0179784 -1.5874085 6
-6.5658736 -7.5345645 -1.6419567 6
-1.8626287 -2.1374302 -1.5929565 6
-5.0940948 -5.8456478 -1.0897255 11
-1.9769104 -2.2685723 -1.5999593 6
-2.0911863 -2.399708 -1.5988079 7
-7.0620937 -8.1039944 -1.0028614 3
-2.2327538 -2.5621614 -1.6086454 9
-2.3731177 -2.7232337 -1.6082368 15
-28.462313 -32.66148 -2.0203235 51
-2.5412836 -2.9162099 -1.6156931 11
-28.492134 -32.695698 -1.0068843 43
-2.7318695 -3.1349137 -1.623731 14
-19.458448 -22.329235 0 19
-2.9657962 -3.4033525 -1.6430649 11
-19.577999 -22.466423 0.69186741 18
-3.4854898 -3.9997189 -1.7926551 16
-9.0446758 -10.379075 0.64201283 25
-3.777993 -4.3353763 -1.7943976 18
-8.6116943 -9.8822145 0.91660005 13
-3.9015934 -4.477212 -1.7028878 27
-8.7301502 -10.018147 1.2397358 8
-3.9570167 -4.540812 -1.5767435 23
-8.9436274 -10.263119 1.5919615 18
-3.9405241 -4.5218863 -1.4211675 15
-8.9078341 -10.222044 1.9055582 22
-5.0754433 -5.824245 -1.6420866 15
-8.9788065 -10.303488 2.2453692 11
-5.1430187 -5.9017901 -1.4749217 2
-8.9173193 -10.232929 2.5573208 17
-1.7667822 -2.0153387 -1.5894488 6
-5.4654489 -6.2343459 -1.3621367 2
-1.8712615 -2.1345165 -1.5949159 6
-5.0944438 -5.8111467 -1.086107 3
-1.9871252 -2.2666802 -1.6027761 6
-5.5483737 -6.3289371 -0.98426104 4
-2.1018317 -2.3975241 -1.601501 7
-7.124177 -8.1264296 -1.0082492 3
-2.2415378 -2.5568848 -1.609501 9
-6.6760435 -7.6152511 -0.70816773 8
-2.3823919 -2.7175543 -1.6090502 13
-28.703968 -32.742134 -2.0305719 51
-2.5499251 -2.9086568 -1.6156931 14
-28.672058 -32.705734 -1.0098089 43
-2.7436154 -3.129596 -1.6251861 13
-19.490337 -22.2323 0 19
-2.9696865 -3.3874717 -1.6396445 11
-19.537809 -22.286451 0.68810731 18
-3.4998403 -3.992209 -1.7939355 16
-9.0727978 -10.349188 0.64182651 22
-3.7883227 -4.3212762 -1.7932061 19
-8.6278267 -9.8416166 0.91520494 18
-3.9503465 -4.506094 -1.7183233 15
-8.6390657 -9.8544378 1.2226437 5
-4.0431728 -4.6119795 -1.6056142 56
-9.2634411 -10.566652 1.6433002 2
-3.9872789 -4.5482221 -1.4331565 7
-8.9407368 -10.198548 1.9061151 22
-5.1017299 -5.8194575 -1.6449974 19
-9.0002317 -10.266413 2.2430997 13
-5.1579161 -5.8835483 -1.4741811 4
-8.9994688 -10.265542 2.5721331 6
-1.7686402 -2.0068345 -1.5863882 6
-5.5783124 -6.3295803 -1.3861305 2
-1.8779962 -2.1309183 -1.5958955 6
-5.099165 -5.785903 -1.0838802 12
-1.9883822 -2.2561707 -1.5990202 5
-5.5517907 -6.2994866 -0.98193806 8
-2.1081014 -2.3920133 -1.601501 7
-7.1414785 -8.1032686 -1.0076919 8
-2.2458339 -2.548295 -1.6077898 9
-6.70783 -7.6112175 -0.7094233 5
-2.3955386 -2.7181616 -1.6131176 9
-28.934893 -32.831745 -2.0408201 52
-2.5514305 -2.8950484 -1.6118388 16
-28.966465 -32.867569 -1.0171435 44
-2.7505677 -3.1210048 -1.6244584 13
-19.363344 -21.971134 0 37
-2.9760602 -3.3768656 -1.6382766 11
-19.53792 -22.169222 0.68606472 18
-3.4914885 -3.9617102 -1.784332 30
-9.0787268 -10.301418 0.64033586 9
-3.8008854 -4.3127756 -1.7938018 18
-8.6588392 -9.8249826 0.91576296 18
-3.9735706 -4.5087175 -1.7232848 16
-8.6569357 -9.8228226 1.221529 5
-4.2829404 -4.8597522 -1.6957716 17
-9.1571054 -10.390353 1.6196054 5
-4.6438274 -5.2692423 -1.6641769 18
-9.0341902 -10.250884 1.9203105 40
-5.0884919 -5.7737927 -1.6358494 15
-9.0662251 -10.287233 2.2528269 9
-12.193191 -13.835327 3.4745643 16
-1.7757283 -2.0028653 -1.5874085 6
-5.1414475 -5.7991004 -1.2732947 2
-1.8843107 -2.1253366 -1.5958955 6
-1.9962394 -2.2515824 -1.5999593 6
-5.5546441 -6.2651501 -0.97915041 7
-2.1140041 -2.3844106 -1.6006033 7
-7.1958756 -8.1163139 -1.0119648 6
-2.2545846 -2.5429728 -1.6086454 8
-20.470428 -23.088842 -2.1577072 9
-2.4035933 -2.7110417 -1.6131176 9
-29.003023 -32.71286 -2.0387704 52
-2.5636821 -2.8916078 -1.6141514 17
-29.175282 -32.90715 -1.0210429 45
-2.7561083 -3.1086476 -1.6222761 10
-19.482851 -21.974941 0 18
-2.98856 -3.3708327 -1.6396445 11
-19.577087 -22.08123 0.68513632 36
-3.518312 -3.9683464 -1.7920148 26
-9.1556406 -10.326757 0.64359671 2
-3.8149321 -4.3029075 -1.7943976 18
-8.6985426 -9.8111906 0.91687912 15
-3.9907575 -4.5012231 -1.7249388 19
-8.6926498 -9.8045435 1.222458 11
-4.3024759 -4.8528142 -1.6977978 20
-9.1931667 -10.369083 1.6205347 5
-4.6710615 -5.2685461 -1.6683271 15
-9.0290918 -10.184021 1.9127952 21
-5.1133881 -5.7674518 -1.6383443 10
-12.19179 -13.751266 3.0193326 13
-5.5649061 -6.2767243 -1.5804584 5
-12.069901 -13.613787 3.427906 19
-1.7820113 -1.9972771 -1.5874085 6
-1.8874954 -2.1155035 -1.5929565 5
-2.0056541 -2.2479358 -1.601837 7
-5.554461 -6.2254362 -0.97566593 3
-2.1250534 -2.3817585 -1.6032965 7
-7.5236063 -8.4324532 -1.0543236 3
-2.2661722 -2.5399244 -1.6112124 6
-7.0703244 -7.9244151 -0.74262744 2
-2.4133143 -2.7048411 -1.6139311 9
-29.065741 -32.576862 -2.0359755 51
-2.5739815 -2.884917 -1.6149222 18
-2.7695811 -3.1041446 -1.6244584 11
-19.479885 -21.833044 0 37
-2.9978833 -3.3600256 -1.6389605 13
-19.642361 -22.015144 0.68499702 36
-3.5421133 -3.9699986 -1.7977769 26
-19.217999 -21.53952 1.3461679 14
-3.8233459 -4.2852035 -1.7920146 18
-8.7851067 -9.8463421 0.92273861 9
-4.012557 -4.4972715 -1.7282463 16
-8.7618523 -9.8202791 1.2278457 3
-4.3215632 -4.8436055 -1.6993172 18
-4.6953621 -5.2625589 -1.6710937 14
-9.1296024 -10.232452 1.9272692 14
-5.152319 -5.7747159 -1.6449974 13
-12.332155 -13.821873 3.0433266 13
-5.5715117 -6.2445469 -1.5767554 5
-8.7576628 -9.8155832 2.478446 8
-1.7860855 -1.9913242 -1.5863882 5
-5.1602669 -5.7532315 -1.2697279 2
-1.8953561 -2.1131508 -1.5949159 6
-5.8305025 -6.500484 -1.2272285 6
-2.0091741 -2.2400479 -1.5999593 5
-5.5707407 -6.2108731 -0.97566593 4
-2.1253154 -2.3695347 -1.5988079 7
-6.1030078 -6.8043027 -0.85274804 1
-2.2691932 -2.5299456 -1.6086454 6
-7.1842976 -8.0098438 -0.75239331 0
-2.4203875 -2.6985137 -1.6139311 8
-29.120251 -32.466454 -2.0338328 51
-2.5839903 -2.8809161 -1.6164639 17
-23.837238 -26.57637 -0.8288576 25
-2.7801864 -3.0996568 -1.6259135 12
-19.512941 -21.755169 0 18
-3.0079246 -3.3535645 -1.6396445 11
-19.701267 -21.965134 0.68504345 18
-3.5575557 -3.9663534 -1.8003378 28
-19.232971 -21.443027 1.3432797 14
-3.8345518 -4.2751794 -1.7920146 19
-8.816185 -9.8292503 0.92329669 9
-4.0345874 -4.4982009 -1.7326565 15
-4.339397 -4.8380361 -1.7013432 17
-9.2155962 -10.274558 1.6140302 15
-4.7130222 -5.2545948 -1.672477 15
-9.1431379 -10.193773 1.9244858 19
-5.1870136 -5.783052 -1.6512347 15
-12.239161 -13.645559 3.0115509 10
-5.582592 -6.2240863 -1.5752741 6
-8.7964544 -9.8072529 2.4821491 8
-1.793485 -1.9869806 -1.5874085 5
-1.9008167 -2.1058919 -1.5939362 5
-5.6213169 -6.2277894 -1.1790745 7
-2.0185678 -2.236347 -1.601837 6
-5.5649343 -6.1653242 -0.9712522 11
-2.1375384 -2.3681531 -1.6023988 7
-2.279552 -2.5254884 -1.6103567 6
-7.1118369 -7.8791189 -0.7422089 1
-2.4264042 -2.6881843 -1.6123041 8
-7.6810079 -8.509696 -0.5345915 2
-2.5930278 -2.8727844 -1.6164639 17
-23.862999 -26.437531 -0.82686138 25
-2.7886617 -3.0895247 -1.6251861 13
-19.538305 -21.646254 0 36
-3.0146668 -3.3399134 -1.6375924 11
-19.661654 -21.782909 0.6812833 36
-3.5598416 -3.9439058 -1.7952161 28
-19.282837 -21.363224 1.3420687 22
-3.844125 -4.2588601 -1.7902273 19
-19.156509 -21.223267 1.9992206 24
-4.0577149 -4.4954939 -1.7365154 16
-8.8102608 -9.7607822 1.2267309 15
-4.3610559 -4.8315616 -1.7038757 15
-9.191925 -10.183623 1.6042734 2
-4.7412419 -5.2527647 -1.6766272 15
-9.1618443 -10.150298 1.9217023 22
-5.2143302 -5.7768941 -1.6541456 18
-12.240973 -13.561627 3.0014994 6
-12.123434 -13.431407 3.4090207 15
-1.7990267 -1.9819643 -1.5874085 5
-1.9066901 -2.1005757 -1.5939362 5
-6.2110748 -6.84266 -1.2987635 5
-2.0248048 -2.2307012 -1.601837 6
-5.5847998 -6.1527014 -0.97171676 9
-2.1393385 -2.3568814 -1.5988079 6
-6.116508 -6.7384772 -0.84903234 2
-2.2853806 -2.5177741 -1.609501 6
-7.1177206 -7.8414998 -0.74053472 3
-2.4339018 -2.6813977 -1.6123041 8
-29.004902 -31.954323 -2.0124974 50
-2.6035209 -2.8682652 -1.6180056 17
-23.970333 -26.407804 -0.828022 25
-2.8010345 -3.0858631 -1.6273683 14
-19.690084 -21.692308 0 37
-3.0277715 -3.3356564 -1.6396445 11
-19.769442 -21.779736 0.68290806 36
-3.4982531 -3.8539798 -1.7587228 37
-19.706305 -21.71018 1.3673168 15
-3.8534369 -4.2452812 -1.7890359 23
-19.124517 -21.069231 1.9897337 35
-4.079298 -4.4941096 -1.7403743 16
-8.7531652 -9.6432486 1.2150266 10
-4.3875351 -4.8336902 -1.7089407 12
-18.957344 -20.885059 3.2984476 27
-4.7715878 -5.2567964 -1.6821606 15
-5.2462206 -5.7796931 -1.6591355 15
-9.1245384 -10.052385 2.2304542 6
-5.8994737 -6.4993734 -1.6537786 12
-12.166179 -13.40332 3.4105017 15
-1.8064049 -1.9775722 -1.5884286 5
-6.225174 -6.8150449 -1.5164753 1
-1.9085765 -2.0894251 -1.5900174 5
-2.0306125 -2.2230246 -1.6008981 6
-5.605443 -6.136591 -0.97194904 1
-2.146733 -2.3501482 -1.5988079 6
-6.1430221 -6.7251086 -0.84977555 3
-2.2932799 -2.5105815 -1.609501 6
-7.1584697 -7.8367758 -0.7422089 3
-2.4472432 -2.6791337 -1.615558 9
-29.17387 -31.938263 -2.0172489 51
-2.6100304 -2.8573458 -1.6164639 17
-24.108471 -26.392887 -0.82992524 25
-2.8107159 -3.0770476 -1.6273683 12
-19.740604 -21.611141 0 18
-3.0357018 -3.3233521 -1.6382766 10
-19.682697 -21.547745 0.67756957 35
-3.382556 -3.7030725 -1.6946993 14
-19.720524 -21.589157 1.3635902 22
-3.8654685 -4.2317438 -1.78844 21
-19.20542 -21.025244 1.9912683 24
-4.1024737 -4.4912071 -1.7442333 17
-8.837141 -9.674511 1.222458 30
-4.4131398 -4.8313103 -1.7129928 15
-19.014832 -20.816597 3.2970541 27
-4.8012056 -5.2561479 -1.6867718 15
-24.016529 -26.292233 5.0046654 35
-5.2696314 -5.768959 -1.6607988 17
-9.1121531 -9.9755821 2.2197542 6
-5.9344459 -6.496769 -1.6578519 10
-12.456105 -13.636394 3.4797487 8
-1.81192 -1.9725204 -1.5884286 5
-5.6140218 -6.1116228 -1.3634337 0
-1.9167627 -2.0866559 -1.5919769 5
-2.0368121 -2.217346 -1.6008981 6
-2.1617503 -2.353358 -1.6050919 7
-7.70963 -8.3929768 -1.0632411 1
-2.2990587 -2.5028367 -1.6086454 7
-7.1749263 -7.8108792 -0.74165088 2
-2.4522429 -2.6695986 -1.6139311 8
-29.311596 -31.909641 -2.0206029 51
-2.6217444 -2.8541238 -1.6187764 17
-24.280815 -26.432955 -0.833314 26
-2.8180375 -3.0678153 -1.6266409 13
-19.791405 -21.545624 0 37
-3.04497 -3.3148625 -1.6382766 12
-19.894283 -21.657621 0.68276882 18
-3.3659658 -3.6643097 -1.6812544 13
-19.988865 -21.760586 1.3779379 23
-3.8733954 -4.2167153 -1.7866528 21
-19.239761 -20.945087 1.9887571 35
-4.1254044 -4.4910612 -1.7486435 16
-8.7334499 -9.5075436 1.2044369 27
-4.4357753 -4.8289423 -1.7165383 16
-19.105137 -20.798529 3.3026292 18
-4.813231 -5.2398539 -1.6858494 15
-23.24711 -25.307627 4.8295856 31
-5.2817497 -5.7498999 -1.6595513 31
-9.0905752 -9.8963223 2.2077575 4
-5.9605417 -6.4888568 -1.6600739 13
-8.929512 -9.7209826 2.4869633 8
-1.8162544 -1.9661893 -1.5874085 4
-1.9249487 -2.0838566 -1.5939362 5
-5.581141 -6.0418739 -1.1559719 2
-2.0441947 -2.2129464 -1.601837 6
-6.1990085 -6.7107477 -1.0683542 4
-2.1622503 -2.3407478 -1.6006033 6
-7.688448 -8.3231421 -1.0571103 2
-2.3072658 -2.4977345 -1.609501 6
-7.4200854 -8.0326262 -0.76467049 0
-2.4609282 -2.6640821 -1.6147445 8
-8.3126354 -8.9988575 -0.5712992 1
-2.6284525 -2.8454359 -1.6180056 17
-19.768816 -21.400764 -0.67640907 15
-2.8240654 -3.0571969 -1.6251861 12
-19.532579 -21.145029 0 17
-3.0542154 -3.3063462 -1.6382766 11
-19.82444 -21.460981 0.6783123 17
-3.3633289 -3.6409776 -1.6748521 14
-20.182405 -21.848497 1.3870683 7
-3.8734965 -4.1932602 -1.7812911 23
-19.460632 -21.067142 2.0054986 24
-4.1522789 -4.4950571 -1.7547075 16
-8.8315811 -9.5606432 1.2142835 21
-4.4597464 -4.8279061 -1.7205902 14
-19.168537 -20.750933 3.3035583 18
-4.8344479 -5.2335401 -1.6881552 15
-23.278719 -25.200417 4.8215132 31
-5.3017683 -5.7394385 -1.6607988 33
-5.9893079 -6.4837356 -1.6630362 13
-1.8252503 -1.9648906 -1.590469 4
-5.5983701 -6.0266719 -1.3514367 5
-1.9307605 -2.0784729 -1.5939362 5
-2.0515685 -2.208523 -1.6027761 6
-6.212317 -6.6875882 -1.067425 3
-2.1687787 -2.3347006 -1.6006033 6
-2.3166924 -2.4939303 -1.6112124 7
-2.4696016 -2.6585379 -1.615558 8
-29.474401 -31.729334 -2.0195782 51
-2.6326201 -2.834028 -1.6156931 15
-29.501205 -31.758188 -1.0063738 43
-2.8351278 -3.0520284 -1.6266409 12
-19.655529 -21.159269 0 36
-3.0608783 -3.2950501 -1.6369084 11
-20.284376 -21.836227 0.69196028 18
-3.3618774 -3.619077 -1.6690899 15
-20.29093 -21.843283 1.390329 7
-3.8423116 -4.1362667 -1.7616314 26
-19.39039 -20.873846 1.9922448 24
-4.1713581 -4.4904871 -1.7574639 17
-8.835206 -9.5111408 1.2111253 23
-4.4890127 -4.8324437 -1.7266684 13
-23.344519 -25.130486 4.0111485 39
-4.8636136 -5.2357035 -1.6932274 15
-23.355745 -25.14257 4.8229051 31
-5.335084 -5.7432432 -1.6662043 31
-9.2397289 -9.9466114 2.2304542 7
-6.012742 -6.4727449 -1.6645175 13
-8.9636002 -9.6493578 2.4814086 18
-1.836602 -1.9660712 -1.59557 3
-5.6111364 -6.0066876 -1.350464 4
-1.9389378 -2.0756211 -1.5958955 5
-2.0553169 -2.2002044 -1.6008981 5
-6.2296124 -6.6687622 -1.0671927 3
-2.1801701 -2.333859 -1.6041942 7
-6.9287076 -7.4171395 -0.94694042 34
-2.3211799 -2.4848092 -1.609501 6
-21.754383 -23.287935 -2.2284403 11
-2.4782636 -2.6529663 -1.6163715 8
-29.531527 -31.613319 -2.0174353 51
-2.6506023 -2.8374538 -1.6218598 13
-29.563847 -31.647921 -1.0054917 43
-2.8398244 -3.040015 -1.6244584 14
-19.651739 -21.037067 0 35
-3.0739169 -3.2906096 -1.6389605 11
-20.51589 -21.962135 0.69776297 19
-3.365504 -3.6027517 -1.6658889 13
-20.334122 -21.767555 1.389118 7
-3.8421175 -4.1129637 -1.7562696 28
-19.395491 -20.762756 1.986804 11
-4.195694 -4.4914651 -1.7624254 16
-8.8522158 -9.476244 1.2098247 20
-4.5143771 -4.8326135 -1.7312269 17
-23.456644 -25.110195 4.0183496 19
-4.8968148 -5.2420106 -1.6996831 16
-23.582695 -25.245132 4.8551931 32
-5.3417535 -5.7183151 -1.6632936 36
-9.268816 -9.9222116 2.2307785 6
-6.0415273 -6.4674187 -1.6674799 12
-9.0025873 -9.6372147 2.4847414 18
-1.8545514 -1.9728258 -1.6057719 1
-6.2301488 -6.6274776 -1.4944271 2
-1.94306 -2.0669789 -1.5939362 5
-2.0622184 -2.1937368 -1.6008981 5
-6.2382851 -6.6361327 -1.065102 2
-2.1838183 -2.3230917 -1.601501 6
-6.9178748 -7.3590636 -0.94229585 2
-2.3289742 -2.477505 -1.609501 6
-21.765938 -23.154064 -2.2221622 11
-2.4878368 -2.6464989 -1.6171849 8
-29.597849 -31.485456 -2.0151992 51
-2.6569746 -2.8264236 -1.6203181 9
-20.269796 -21.562506 -0.68708599 15
-2.8468082 -3.0283639 -1.6230036 17
-19.568413 -20.816391 0 35
-3.085526 -3.282306 -1.6396445 11
-20.431396 -21.734411 0.69256377 37
-3.3664227 -3.5811169 -1.6607668 13
-20.37093 -21.670088 1.3869752 15
-3.8471732 -4.0925274 -1.7526951 30
-19.576773 -20.825285 1.9986625 24
-4.2150497 -4.4838648 -1.7646304 16
-8.9855995 -9.5586576 1.2239442 7
-4.5401373 -4.8296857 -1.7352788 17
-23.521803 -25.02191 4.0160265 19
-4.9225883 -5.2365274 -1.7029108 16
-20.450987 -21.755251 4.1963477 18
-5.3690701 -5.7114835 -1.6662043 31
-9.2661476 -9.8570976 2.2226725 3
-6.0725837 -6.4598637 -1.6704423 12
-9.0637779 -9.6418228 2.4932582 18
-0.54123539 -0.57254052 -0.46724492 0
-1.946429 -2.0590107 -1.5919769 4
-6.2476478 -6.6090121 -1.2781658 3
-2.0671234 -2.186686 -1.5999593 5
-2.1902974 -2.3169844 -1.601501 6
-9.025939 -9.5480003 -1.2258022 3
-2.3383675 -2.4736187 -1.6112124 6
-8.1083202 -8.5773058 -0.82535863 0
-2.4952176 -2.6395414 -1.6171849 9
-29.655468 -31.370745 -2.0131497 51
-2.667393 -2.8216753 -1.6218598 10
-29.689312 -31.406546 -1.0034028 42
-2.8552542 -3.0204024 -1.6230036 19
-19.914991 -21.066877 0 18
-3.0946801 -3.2736766 -1.6396445 11
-20.508495 -21.694708 0.69312084 18
-3.3751085 -3.5703251 -1.6601267 13
-29.807806 -31.531893 2.0234911 23
-3.863833 -4.0873175 -1.7550781 34
-19.537542 -20.667597 1.9887571 35
-4.2381201 -4.4832535 -1.7690406 16
-8.9643793 -9.4828796 1.2174418 20
-4.5602531 -4.8240185 -1.7378114 16
-19.728344 -20.869432 3.3583815 28
-4.9559093 -5.2425594 -1.7093666 16
-28.811018 -30.477451 5.8942595 50
-5.4441309 -5.7590199 -1.6845007 16
-9.281436 -9.8182755 2.2197542 3
-6.0946503 -6.4471655 -1.6715533 9
-9.1163216 -9.643611 2.500294 19
-0.54303133 -0.57083744 -0.46724492 0
-1.956493 -2.0566759 -1.5949159 5
-6.3011403 -6.6237926 -1.2848462 3
-2.0776341 -2.18402 -1.6027761 5
-6.2748156 -6.5961199 -1.0646373 1
-2.1963334 -2.3087976 -1.6006033 6
-7.7670913 -8.1648083 -1.0513511 0
-2.3461266 -2.4662609 -1.6112124 6
-8.1297245 -8.54601 -0.82480055 0
-2.5034971 -2.6316898 -1.6171849 9
-29.719442 -31.24124 -2.0108204 50
-2.6775157 -2.8146191 -1.6226306 10
-20.321594 -21.362169 -0.68453282 15
-2.8647285 -3.0114179 -1.6230036 22
-19.39522 -20.388359 0 34
-3.1036534 -3.2625773 -1.6389605 9
-20.799799 -21.864861 0.7006411 19
-3.381084 -3.5542138 -1.6575658 13
-29.865406 -31.394674 2.0206962 23
-3.912183 -4.1125078 -1.7711633 34
-19.656002 -20.662495 1.9941981 36
-4.2588081 -4.476882 -1.7717971 15
-9.0023594 -9.4633284 1.2185565 16
-4.580719 -4.8152766 -1.7398374 13
-19.799282 -20.813112 3.3593106 28
-4.9857674 -5.2410655 -1.7139778 16
-20.669817 -21.728222 4.2147188 19
-5.4837694 -5.7645679 -1.6911539 16
-9.3122339 -9.7890701 2.2197542 1
-6.1230011 -6.4365315 -1.673775 10
-9.1438627 -9.6120777 2.4995534 19
-0.54343414 -0.5680756 -0.46622473 0
-1.9610236 -2.0499444 -1.5939362 5
-6.3182449 -6.6047392 -1.2845678 3
-2.0812836 -2.1756573 -1.6008981 5
-2.2015369 -2.3013635 -1.5997056 6
-2.3530047 -2.4596994 -1.6112124 6
-22.196102 -23.202562 -2.2453213 12
-2.5146258 -2.628649 -1.6196253 8
-29.777571 -31.127806 -2.0088639 50
-2.6840899 -2.8057973 -1.6218598 10
-20.361822 -21.285109 -0.68388289 31
-2.8744147 -3.0047522 -1.623731 28
-19.389866 -20.269081 0 50
-3.1153507 -3.256613 -1.6403285 10
-29.882065 -31.237038 1.0036348 40
-3.388377 -3.5420194 -1.6562853 12
-25.707705 -26.873394 1.7343012 23
-3.9328911 -4.1112242 -1.7753336 36
-9.2830858 -9.7040176 0.93906164 3
-4.2792683 -4.4733071 -1.7751048 15
-19.551054 -20.437578 2.6386886 13
-4.6075225 -4.8164463 -1.7449025 14
-19.81476 -20.71324 3.3521092 18
-5.0030746 -5.2299337 -1.7148999 15
-20.822142 -21.7663 4.2333679 19
-5.5120168 -5.7619538 -1.6948962 16
-6.1463866 -6.4250884 -1.6752563 9
-9.1598005 -9.5751429 2.4965909 18
-0.5533666 -0.57523394 -0.47336602 0
-6.362174 -6.6135869 -1.5077208 0
-1.9643229 -2.0419466 -1.5919769 5
-6.3586326 -6.6099057 -1.2890214 0
-2.0885754 -2.1711094 -1.601837 5
-6.2977867 -6.5466557 -1.0623144 3
-2.210433 -2.2977824 -1.601501 6
-2.3611176 -2.4544215 -1.6120681 6
-22.305075 -23.186501 -2.2497859 12
-2.5181565 -2.6176662 -1.6171849 7
-29.822832 -31.001335 -2.0060689 50
-2.6931942 -2.7996206 -1.6226306 9
-20.412867 -21.219519 -0.68360436 31
-2.8866692 -3.0007412 -1.6259135 24
-19.41173 -20.178822 0 33
-3.1218271 -3.2451921 -1.6389605 10
-20.18276 -20.98032 0.67589837 35
-3.3969412 -3.5311778 -1.6556451 13
-25.797886 -26.817337 1.7353261 23
-3.943033 -4.0988493 -1.7747378 36
-19.761415 -20.542324 1.9932215 24
-4.2984071 -4.468267 -1.777861 16
-19.621857 -20.397251 2.6405463 27
-4.6370516 -4.8202929 -1.7509805 15
-19.70038 -20.478876 3.3230715 27
-5.0257549 -5.2243571 -1.7176666 15
-20.779863 -21.601019 4.212492 19
-5.5362234 -5.7549977 -1.6973913 13
-19.341009 -20.105305 4.5834718 22
-6.1711178 -6.4149809 -1.6771078 10
-9.2123928 -9.576438 2.5036268 12
-0.55257869 -0.5712136 -0.47132564 0
-1.9724422 -2.0389597 -1.5939362 5
-2.0909467 -2.1614606 -1.5990202 5
-6.3132815 -6.5261874 -1.0618497 3
-2.2193265 -2.2941699 -1.6032965 6
-7.0612521 -7.2993822 -0.94749784 3
-2.3692193 -2.4491177 -1.6129237 6
-22.292057 -23.043821 -2.2419732 24
-2.5241864 -2.6093109 -1.6163715 7
-29.881506 -30.889214 -2.0042055 50
-2.6971521 -2.7881095 -1.6203181 10
-20.499846 -21.191172 -0.68453282 31
-2.8950377 -2.9926684 -1.6259135 26
-19.519457 -20.177719 0 33
-3.1308773 -3.2364614 -1.6389605 10
-20.403925 -21.092016 0.68132973 18
-3.4067891 -3.5216777 -1.6556451 13
-19.71357 -20.37838 1.3222241 28
-3.9478269 -4.0809612 -1.7717592 50
-19.868643 -20.538683 1.9982439 12
-4.3242354 -4.4700637 -1.7833738 17
-19.756277 -20.422527 2.6509504 14
-4.6612558 -4.81845 -1.7550325 15
-19.772684 -20.439489 3.3256271 27
-5.0484433 -5.2186947 -1.7204334 13
-20.870401 -21.574223 4.2186155 19
-5.5631542 -5.7507629 -1.7007178 13
-19.420406 -20.075329 4.5889835 22
-6.191741 -6.400548 -1.6778483 10
-18.979715 -19.619778 5.1431551 20
-0.55297214 -0.56843531 -0.47030547 0
-1.9769121 -2.0321941 -1.5929565 5
-6.3443522 -6.5217643 -1.2787226 2
-2.1043622 -2.1632082 -1.604654 5
-6.3287106 -6.5056853 -1.0613852 4
-2.2232316 -2.2854016 -1.601501 6
-7.8286481 -8.0475664 -1.0474496 7
-2.373528 -2.4399009 -1.6112124 7
-22.417524 -23.044403 -2.2481115 12
-2.5314629 -2.6022522 -1.6163715 7
-29.932819 -30.769855 -2.0018764 50
-2.7075009 -2.7832131 -1.6218598 9
-20.673265 -21.251369 -0.68833941 15
-2.9046822 -2.985908 -1.6266409 24
-19.656609 -20.206282 0 51
-3.1412129 -3.2290533 -1.6396445 10
-19.383627 -19.925667 0.64539939 31
-3.4152882 -3.5107927 -1.6550047 13
-19.599051 -20.147114 1.3107646 21
-3.9339125 -4.0439196 -1.7604399 63
-22.087816 -22.705475 2.2150471 16
-4.3514466 -4.4731297 -1.7894378 18
-19.849329 -20.404392 2.6557808 28
-4.6908822 -4.8220572 -1.7611105 17
-19.973738 -20.53228 3.3497865 9
-5.0711384 -5.2129469 -1.7232001 11
-20.987183 -21.574064 4.2300277 19
-5.5941963 -5.7506313 -1.7052919 14
-12.25445 -12.597131 2.8873668 3
-6.2246652 -6.3987303 -1.6819217 13
-9.5686064 -9.8361816 2.585464 8
-0.55104673 -0.5631038 -0.46724492 0
-1.9804939 -2.0238276 -1.5909972 5
-2.1107712 -2.1569555 -1.604654 6
-6.3299222 -6.4684229 -1.0583652 3
-2.2275023 -2.2762408 -1.5997056 6
-2.3832853 -2.4354322 -1.6129237 6
-22.716045 -23.213078 -2.2711313 13
-2.5404501 -2.596036 -1.6171849 7
-29.955509 -30.610945 -1.9973112 50
-2.7157466 -2.7751679 -1.6218598 9
-30.000961 -30.657393 -0.99588245 41
-2.9122252 -2.9759457 -1.6259135 23
-19.625549 -20.054962 0 33
-3.1560373 -3.2250922 -1.6423806 11
-19.499996 -19.926661 0.64730269 15
-3.4256895 -3.5006447 -1.6550047 12
-19.695068 -20.126003 1.3131869 21
-3.8096898 -3.8930469 -1.6996734 15
-20.128935 -20.569363 2.0124743 24
-4.372767 -4.4684443 -1.7927455 16
-19.964098 -20.400917 2.6630263 21
-4.7105813 -4.8136501 -1.7631366 17
-19.970655 -20.407619 3.3391004 9
-5.0974717 -5.2090058 -1.726889 14
-12.840936 -13.1219 2.5802696 8
-5.6208115 -5.7437968 -1.7082026 13
-6.2532444 -6.3900676 -1.6845139 10
-9.6444855 -9.8555098 2.5980544 11
-0.54919213 -0.55769253 -0.46418434 0
-1.9892894 -2.0200799 -1.5929565 5
-6.3715668 -6.4701862 -1.2762173 0
-2.1125813 -2.1452799 -1.6008981 4
-6.3418517 -6.440011 -1.0569714 3
-2.2358973 -2.2705045 -1.6006033 5
-7.563282 -7.680347 -1.0056481 1
-2.3883886 -2.4253561 -1.6112124 6
-23.154234 -23.512617 -2.3075442 14
-2.547312 -2.5867395 -1.6163715 7
-29.715109 -30.175041 -1.9749513 49
-2.7257473 -2.7679365 -1.6226306 9
-29.733772 -30.193995 -0.98385924 40
-2.9254825 -2.9707632 -1.628096 19
-20.680603 -21.0007 0 18
-3.1648359 -3.2138214 -1.6416967 11
-19.506388 -19.80831 0.64544582 31
-3.4393303 -3.4925644 -1.6562853 11
-19.623634 -19.92737 1.3042428 20
-3.7884121 -3.8470492 -1.6847796 14
-20.052071 -20.362438 1.9983834 24
-4.4016232 -4.4697518 -1.7988095 15
-20.099356 -20.410454 2.6725011 14
-4.731112 -4.8043404 -1.7651626 17
-5.1233711 -5.2026706 -1.7301168 15
-12.843188 -13.041976 2.5724759 12
-5.6498108 -5.7372589 -1.7115291 13
-6.2925973 -6.3899946 -1.6896981 11
-19.225313 -19.522882 5.1624112 30
-7.1113729 -7.1812196 -1.6604384 10
-1.9986036 -2.0182335 -1.5958955 5
-8.5580368 -8.6420927 -1.7093241 2
-2.1210492 -2.1418817 -1.6027761 5
-6.3640046 -6.4265108 -1.0576683 3
-2.2460017 -2.2680614 -1.6032965 6
-2.3989682 -2.4225304 -1.6137793 6
-23.285786 -23.514494 -2.3141012 14
-2.5545259 -2.5796161 -1.6163715 7
-2.7360637 -2.7629368 -1.6241723 10
-29.903801 -30.19751 -0.986691 40
-2.936389 -2.9652297 -1.6295508 15
-29.897785 -30.191435 0 45
-3.1711535 -3.2023001 -1.6403285 11
-19.657299 -19.85037 0.64860255 47
-3.4450705 -3.4789073 -1.6543646 12
-19.732626 -19.926435 1.3077832 21
-3.789737 -3.8269589 -1.6806093 14
-20.06955 -20.266668 1.994477 36
-4.4167938 -4.4601746 -1.799912 18
-20.185701 -20.383963 2.6764028 21
-4.7499557 -4.7966089 -1.7671885 15
-12.967025 -13.094385 2.1550603 10
-5.1419883 -5.1924915 -1.7315001 15
-5.685082 -5.7409196 -1.7173507 13
-12.411922 -12.533829 2.8980668 30
-6.3242474 -6.3863626 -1.6934012 10
-12.169991 -12.289523 3.258677 3
-7.1216497 -7.1515446 -1.6581688 11
-2.0030012 -2.0114093 -1.5949159 5
-6.3796525 -6.4064326 -1.2706505 0
-2.1257758 -2.1346993 -1.601837 4
-2.2523263 -2.261781 -1.6032965 6
-2.4069991 -2.4171033 -1.614635 6
-23.261257 -23.358904 -2.3051724 14
-2.5630083 -2.5737672 -1.6171849 7
-30.184849 -30.311558 -1.9948888 50
-2.7463727 -2.7579014 -1.6257142 9
-30.233496 -30.360409 -0.99476832 41
-2.9433429 -2.9556985 -1.6288234 12
-19.64599 -19.72846 0 16
-3.1787572 -3.1921008 -1.6396445 13
-19.85515 -19.938498 0.65329111 16
-3.4561083 -3.4706161 -1.6550047 13
-19.798059 -19.881166 1.3084354 21
-3.7896309 -3.8055391 -1.6758435 13
-20.096498 -20.180861 1.9915473 36
-4.4373703 -4.4559975 -1.8032197 16
-20.200388 -20.285183 2.6708291 21
-4.7783489 -4.7984071 -1.7727602 15
-13.009146 -13.063755 2.1559894 22
-5.1743193 -5.1960402 -1.7374947 13
-12.914429 -12.96864 2.5721974 16
-5.7204165 -5.7444296 -1.7231722 13
-12.43991 -12.492129 2.8964455 9
-6.3559237 -6.3826041 -1.6971042 9
-19.388134 -19.469521 5.1768527 30
-6.4316287 -6.4181733 -1.4928058 1
-2.0093102 -2.0051067 -1.5949159 5
-8.6470194 -8.6289291 -1.7168394 4
-2.1337216 -2.1292577 -1.6027761 5
-7.1528902 -7.1379261 -1.1817173 10
-2.2606857 -2.2559562 -1.6041942 5
-7.6765323 -7.6604719 -1.0117791 6
-2.4107418 -2.4056985 -1.6120681 6
-9.3871937 -9.3675547 -0.92734259 3
-2.573668 -2.5682838 -1.618812 6
-30.248816 -30.185534 -1.9928392 50
-2.7484915 -2.7427413 -1.6218598 9
-30.417891 -30.354254 -0.99769288 42
-2.9565701 -2.9503849 -1.6310058 12
-19.747511 -19.706198 0 33
-3.1847787 -3.1781158 -1.6375924 18
-19.886553 -19.84495 0.65226978 16
-3.4683356 -3.4610796 -1.6556451 13
-19.950926 -19.909187 1.3143981 21
-3.7961619 -3.7882199 -1.6734604 15
-20.17251 -20.130306 1.9928029 36
-4.4690385 -4.4596887 -1.8103863 15
-20.256968 -20.214588 2.6699002 14
-4.8016171 -4.7915721 -1.7757992 14
-12.996691 -12.969501 2.1471617 20
-5.2085257 -5.197629 -1.7434893 15
-12.948098 -12.92101 2.5708055 16
-5.7495131 -5.7374845 -1.726499 13
-6.3940296 -6.3806529 -1.7019181 9
-12.288612 -12.262904 3.2708972 7
-2.0145524 -1.9998398 -1.5949159 5
-6.4262829 -6.3793502 -1.2725989 0
-2.1417949 -2.1261528 -1.604654 5
-2.2653153 -2.2487712 -1.6032965 6
-7.620244 -7.5645919 -1.0017467 1
-2.4183142 -2.4006529 -1.6129237 6
-23.695581 -23.522528 -2.3347492 15
-2.5829759 -2.5641119 -1.6204388 7
-30.290869 -30.069649 -1.9904168 50
-2.7595913 -2.7394376 -1.6241723 8
-20.388262 -20.239361 -0.66698545 14
-2.966928 -2.94526 -1.6324608 12
-19.699675 -19.555803 0 16
-3.1917539 -3.1684439 -1.6369084 19
-3.4800737 -3.454658 -1.6569254 13
-19.943426 -19.797775 1.3104851 21
-3.8020012 -3.7742343 -1.6716732 15
-20.24921 -20.101326 1.9951746 36
-4.5079856 -4.4750628 -1.8214117 15
-20.345148 -20.196564 2.6745448 28
-4.8237562 -4.7885275 -1.7793447 15
-13.0884 -12.992812 2.1566863 25
-5.2262578 -5.1880894 -1.7448727 14
-12.952362 -12.857768 2.5649605 16
-5.7770085 -5.734818 -1.7302413 13
-12.499045 -12.407763 2.8935273 21
-6.4316335 -6.3846622 -1.7074727 9
-12.347175 -12.257001 3.2779329 7
-0.55353916 -0.5460543 -0.46112379 3
-6.4530344 -6.365777 -1.4892392 7
-2.0220671 -1.9947249 -1.5958955 5
-2.1459501 -2.1169329 -1.6027761 5
-2.2710972 -2.2403877 -1.6023988 6
-7.6439734 -7.5406122 -1.0017467 2
-2.4284189 -2.395582 -1.614635 6
-9.3614531 -9.234868 -0.9195298 1
-2.5871172 -2.5521345 -1.6179985 7
-30.361013 -29.950476 -1.988833 50
-2.7694983 -2.7320497 -1.6249431 9
-20.374884 -20.099377 -0.66447872 29
-2.976167 -2.9359236 -1.6324608 12
-19.869228 -19.600559 0 16
-3.2057068 -3.1623597 -1.6389605 19
-19.53791 -19.273722 0.63718277 45
-3.4936087 -3.4463685 -1.658206 13
-19.947216 -19.677492 1.3066652 21
-3.8111222 -3.7595885 -1.6704817 14
-20.349194 -20.074034 1.9988019 24
-4.5288672 -4.4676285 -1.8241682 15
-20.473713 -20.196871 2.6830909 21
-4.8566833 -4.7910118 -1.7859292 15
-13.105114 -12.927909 2.1527371 20
-5.257772 -5.1866775 -1.7499449 13
-13.097033 -12.919936 2.5855582 28
-5.8019619 -5.7235084 -1.7323204 13
-12.535156 -12.365658 2.8928788 18
-6.4670529 -6.3796062 -1.7115461 11
-0.56621087 -0.55524963 -0.47030547 3
-6.4789376 -6.3535132 -1.4908603 0
-2.0267313 -1.9874961 -1.5949159 5
-6.4495783 -6.3247223 -1.2695372 6
-2.154743 -2.1130295 -1.604654 5
-2.2828383 -2.2386451 -1.6059895 6
-2.4342246 -2.3871009 -1.6137793 6
-24.845947 -24.364958 -2.4333849 18
-2.5998957 -2.5495648 -1.6212524 7
-30.295687 -29.709198 -1.978771 49
-2.7775919 -2.7238209 -1.6249431 10
-20.341635 -19.947844 -0.66146129 29
-2.9875247 -2.9296896 -1.6339157 13
-19.737373 -19.35528 0 16
-3.215075 -3.1528349 -1.6389605 18
-19.734911 -19.352865 0.6417321 30
-3.4984066 -3.4306817 -1.6556451 12
-20.005508 -19.618225 1.3066652 14
-3.8208964 -3.7469282 -1.669886 14
-20.364502 -19.970268 1.994477 24
-4.5503378 -4.4622483 -1.8274757 15
-13.343534 -13.085218 1.7435818 10
-4.9192252 -4.8239951 -1.8036568 21
-13.109374 -12.855592 2.1471617 20
-5.2828641 -5.180594 -1.7531729 12
-13.085814 -12.832488 2.5758159 24
-5.8356776 -5.7227058 -1.7373102 14
-12.678878 -12.43343 2.917521 18
-6.4943719 -6.3686485 -1.7137679 12
-12.469531 -12.228135 3.2905233 17
-0.56889379 -0.55496669 -0.47132564 3
-2.028183 -1.9785309 -1.5919769 5
-6.4717836 -6.3133473 -1.2706505 1
-2.1552107 -2.1024489 -1.6008981 5
-7.1722608 -6.9966764 -1.1717283 5
-2.2861321 -2.2301652 -1.6041942 5
-7.6816902 -7.4936347 -1.0011894 16
-2.4391713 -2.379458 -1.6129237 6
-24.925354 -24.315155 -2.4349196 18
-2.6052532 -2.5414739 -1.6204388 8
-30.138824 -29.400995 -1.9634916 49
-2.7860341 -2.7178292 -1.6257142 11
-20.453896 -19.953163 -0.66341096 14
-2.9925168 -2.9192569 -1.6324608 11
-19.895346 -19.408287 0 16
-3.2260079 -3.1470318 -1.6403285 18
-19.745432 -19.262043 0.6404323 30
-3.5114446 -3.4254808 -1.6575658 11
-19.965273 -19.476501 1.3007026 20
-3.8334255 -3.7395792 -1.6710774 14
-20.430994 -19.93082 1.9958723 24
-4.5551229 -4.4436083 -1.8247194 17
-4.9359918 -4.8151536 -1.8051763 23
-13.248207 -12.923877 2.1643522 10
-5.3145175 -5.184413 -1.7591674 14
-5.8646421 -5.7210693 -1.7414684 13
-12.79897 -12.485638 2.937624 12
-6.5307178 -6.3708391 -1.7189522 10
-12.508533 -12.202312 3.2923748 14
-0.56806803 -0.55088115 -0.46928528 3
-7.4394732 -7.2143917 -1.7025899 8
-2.0365481 -1.9749322 -1.5939362 5
-2.1665103 -2.1009626 -1.604654 5
-7.1830068 -6.9656844 -1.1701022 11
-2.2927394 -2.2233725 -1.6041942 6
-7.6409903 -7.409812 -0.99301487 19
-2.4475186 -2.3734689 -1.6137793 6
-24.786848 -24.036921 -2.4144113 17
-2.6127827 -2.5337329 -1.6204388 8
-30.36648 -29.447741 -1.9726219 49
-2.7927608 -2.7082658 -1.6249431 9
-20.471384 -19.852022 -0.66206479 29
-3.0025029 -2.9116621 -1.6331882 11
-19.84947 -19.248924 0 32
